ply
format ascii 1.0
comment PCL generated
element vertex 275
property float x
property float y
property float z
property uchar red
property uchar green
property uchar blue
element camera 1
property float view_px
property float view_py
property float view_pz
property float x_axisx
property float x_axisy
property float x_axisz
property float y_axisx
property float y_axisy
property float y_axisz
property float z_axisx
property float z_axisy
property float z_axisz
property float focal
property float scalex
property float scaley
property float centerx
property float centery
property int viewportx
property int viewporty
property float k1
property float k2
end_header
-0.3003926 -0.35327083 -0.83006442 128 94 125
-0.30019367 -0.35338214 -0.82997161 131 98 127
-0.30105034 -0.35338369 -0.83038837 119 82 117
-0.3041603 -0.35482302 -0.8313309 96 63 88
-0.30347422 -0.35653469 -0.83135504 100 68 91
-0.3029314 -0.35597521 -0.83132046 100 63 94
-0.30427483 -0.35561562 -0.83133203 98 68 88
-0.30412742 -0.35718644 -0.8313958 101 74 88
-0.2995075 -0.35567787 -0.82981372 140 107 134
-0.29903471 -0.35683033 -0.82971966 145 108 139
-0.29983217 -0.35548753 -0.82993597 137 104 130
-0.30063745 -0.35573521 -0.83030838 127 95 120
-0.30100629 -0.35648078 -0.83053964 123 89 115
-0.30160609 -0.35651094 -0.83080226 116 82 108
-0.30231979 -0.35638681 -0.83113247 106 71 99
-0.30134946 -0.35538241 -0.83061785 118 84 111
-0.3022269 -0.3557913 -0.83106202 107 70 101
-0.3014625 -0.35449859 -0.83063525 115 78 111
-0.30028087 -0.3548806 -0.83007675 132 101 124
-0.30309337 -0.35989818 -0.83127624 102 76 85
-0.30389583 -0.36036548 -0.83097386 86 66 72
-0.30443707 -0.35954258 -0.83075303 73 52 64
-0.30412069 -0.3613075 -0.83090121 84 68 68
-0.30351129 -0.36009678 -0.83111805 94 71 78
-0.3044441 -0.3586427 -0.83093524 80 57 71
-0.30540973 -0.35949069 -0.83062321 64 49 56
-0.30558679 -0.35960007 -0.83058405 62 48 54
-0.30037984 -0.36001712 -0.83044463 133 104 118
-0.29921457 -0.36000755 -0.82999241 143 114 131
-0.30119589 -0.36026356 -0.83077574 126 99 109
-0.29989406 -0.35856548 -0.83016896 137 103 127
-0.29902139 -0.35762885 -0.82977444 145 107 139
-0.29963842 -0.35835132 -0.83005702 140 104 130
-0.30112475 -0.35829854 -0.83069432 123 89 112
-0.30239621 -0.36063406 -0.83127946 115 90 94
-0.30034974 -0.35813338 -0.83035636 131 96 122
-0.30184907 -0.35932881 -0.83102316 118 88 102
-0.30072212 -0.357916 -0.83051431 127 91 118
-0.30270514 -0.36008286 -0.83140498 110 83 91
-0.30275857 -0.36408377 -0.83155018 109 91 90
-0.29889905 -0.36154038 -0.82996243 146 121 131
-0.30098784 -0.36469942 -0.83093804 123 103 105
-0.30087101 -0.36520621 -0.83093071 123 103 104
-0.30086744 -0.36457154 -0.83088559 125 104 106
-0.30148363 -0.36435607 -0.83109403 120 101 103
-0.30029529 -0.36434871 -0.83066273 129 108 111
-0.30085716 -0.36289388 -0.83077753 127 106 111
-0.30148655 -0.36379209 -0.83106095 121 102 104
-0.29986563 -0.36148834 -0.83033127 138 113 121
-0.30202299 -0.36231202 -0.8312037 118 97 98
-0.30256671 -0.36406803 -0.83149183 111 93 93
-0.29990351 -0.36199912 -0.83036846 137 113 121
-0.29662743 -0.36439711 -0.82890761 152 126 149
-0.29822037 -0.36371037 -0.82974803 145 120 131
-0.29780421 -0.36434242 -0.8295598 146 121 134
-0.29835686 -0.36305878 -0.82977903 146 121 132
-0.29615319 -0.36453289 -0.82864594 155 130 154
-0.30285162 -0.36577144 -0.83162844 108 92 91
-0.29951921 -0.36793888 -0.8305558 139 115 110
-0.29962575 -0.36678869 -0.83054775 136 113 112
-0.30039981 -0.36883163 -0.83091474 133 111 106
-0.29970643 -0.36839232 -0.83064294 138 114 109
-0.30184379 -0.3687337 -0.83143938 122 104 102
-0.30156493 -0.3671335 -0.83126879 122 103 103
-0.3010768 -0.36672649 -0.8310737 125 105 105
-0.30173814 -0.36536732 -0.83125293 117 98 98
-0.30271232 -0.36524481 -0.83160061 109 93 92
-0.30174279 -0.36722651 -0.83133739 120 102 102
-0.30247658 -0.36627865 -0.83156121 113 96 95
-0.29694328 -0.36863625 -0.82927859 145 122 128
-0.29858112 -0.36806431 -0.83017004 144 118 114
-0.29665852 -0.3685571 -0.82911628 145 122 131
-0.29599869 -0.36884287 -0.82875943 145 123 137
-0.2971994 -0.36740637 -0.82937133 143 120 128
-0.29659468 -0.36591548 -0.82897443 149 124 142
-0.29706192 -0.36668479 -0.82926559 144 121 133
-0.29609689 -0.366914 -0.8287369 149 125 144
-0.29688019 -0.36678261 -0.82916826 145 121 135
-0.29819545 -0.3657943 -0.82986188 141 117 123
-0.30024406 -0.37197283 -0.83067971 127 106 100
-0.3017607 -0.37296045 -0.83094329 111 95 91
-0.30008513 -0.37074003 -0.83060384 131 109 102
-0.29901844 -0.37232086 -0.83051574 137 114 106
-0.30112112 -0.37284127 -0.83084482 117 99 94
-0.29892638 -0.37028933 -0.83041549 142 117 108
-0.30254316 -0.36954677 -0.83164012 116 100 98
-0.30194768 -0.36998007 -0.83134526 119 102 98
-0.30049425 -0.37080392 -0.83066702 127 106 99
-0.3015089 -0.37133533 -0.83094418 117 100 95
-0.30092505 -0.370022 -0.83096349 127 107 101
-0.29792652 -0.3719072 -0.82997257 142 117 114
-0.29726017 -0.37248498 -0.82962942 142 118 118
-0.29687646 -0.37213418 -0.82940257 144 119 121
-0.29818219 -0.37143633 -0.83009362 142 118 112
-0.2965163 -0.37217373 -0.82920539 144 119 123
-0.29728568 -0.37081113 -0.8295719 145 120 119
-0.29550439 -0.37037808 -0.82855588 146 123 137
-0.29671445 -0.37032545 -0.82922924 146 121 126
-0.29601681 -0.37151718 -0.82889766 146 121 129
-0.29578856 -0.37225878 -0.82880634 146 121 128
-0.29569742 -0.37196371 -0.82874101 146 121 130
-0.29897836 -0.37562528 -0.83045018 134 116 108
-0.29893103 -0.37582976 -0.8304466 136 118 109
-0.29961255 -0.37573302 -0.83042735 119 102 96
-0.29517257 -0.37605527 -0.82864392 149 117 128
-0.29668343 -0.37414986 -0.82938743 143 117 120
-0.29562256 -0.37544462 -0.82886332 147 117 126
-0.29704106 -0.37305069 -0.82953262 141 117 119
-0.29537636 -0.37612593 -0.82875967 148 117 126
-0.2974309 -0.37477103 -0.82980591 142 116 115
-0.29831076 -0.3760893 -0.83019531 140 120 114
-0.29662427 -0.37579185 -0.82939351 145 117 120
-0.2983135 -0.37402302 -0.83024794 139 116 110
-0.29821575 -0.37447643 -0.83018982 140 116 111
-0.29750609 -0.37480977 -0.82984108 142 116 115
-0.3025274 -0.38041422 -0.83116233 57 52 56
-0.29659265 -0.38070989 -0.82933605 142 118 117
-0.29561943 -0.37986037 -0.8289507 147 118 120
-0.29768813 -0.3805165 -0.82970655 137 116 117
-0.29531229 -0.38021049 -0.82886308 149 119 120
-0.29541993 -0.37841392 -0.82880169 148 117 124
-0.29538673 -0.37780461 -0.82875657 148 117 126
-0.2977522 -0.37696615 -0.82990485 142 121 118
-0.29651347 -0.37715074 -0.82929635 145 119 122
-0.29800993 -0.37713543 -0.83001548 141 121 117
-0.29815441 -0.37892488 -0.82994735 137 118 117
-0.29638952 -0.37741801 -0.82921636 145 118 123
-0.29657418 -0.37859172 -0.82921481 142 116 123
-0.30162367 -0.38095066 -0.83094066 76 68 71
-0.30242607 -0.38091421 -0.83117574 60 54 58
-0.3025485 -0.38443863 -0.8312071 60 52 57
-0.29748595 -0.38428873 -0.83013958 135 116 120
-0.29695809 -0.3832649 -0.82981229 137 114 117
-0.29802909 -0.38087186 -0.82984591 135 116 115
-0.29874679 -0.38112158 -0.83013111 131 115 114
-0.29798228 -0.38125876 -0.82988465 135 115 115
-0.29847592 -0.38231519 -0.83020675 130 112 113
-0.29801673 -0.38320622 -0.83017373 130 110 112
-0.30101541 -0.38778338 -0.83187854 61 51 55
-0.30148467 -0.38733563 -0.83199173 58 49 53
-0.30241302 -0.38530183 -0.83137554 58 49 55
-0.30261266 -0.38640776 -0.832187 46 39 43
-0.30247277 -0.38672006 -0.83228523 46 39 43
-0.30183625 -0.38565025 -0.83121139 65 55 61
-0.30270728 -0.38478714 -0.83125901 57 49 55
-0.29905549 -0.38766649 -0.83098888 98 82 88
-0.29887006 -0.38803935 -0.83099687 98 82 88
-0.2969057 -0.3869037 -0.83019239 129 110 116
-0.29663786 -0.38683194 -0.83007461 133 113 119
-0.29621893 -0.38651836 -0.82988834 140 120 125
-0.29601368 -0.38846228 -0.82981956 133 112 111
-0.29603291 -0.3872954 -0.82981539 138 118 120
-0.29741168 -0.38558206 -0.83025736 132 114 119
-0.29769361 -0.38532558 -0.8303321 131 113 118
-0.29717201 -0.38477343 -0.83009577 141 122 127
-0.2974495 -0.38546702 -0.83025968 133 114 119
-0.30267173 -0.38959199 -0.82868904 0 0 0
-0.30224335 -0.38941377 -0.83220023 16 13 13
-0.30268949 -0.39181978 -0.8303352 3 2 2
-0.30204809 -0.39022043 -0.83130479 21 17 18
-0.30076125 -0.38897607 -0.83172536 52 43 45
-0.30211258 -0.39060369 -0.831016 19 15 16
-0.30215394 -0.39100525 -0.83070081 17 14 15
-0.30172169 -0.39094901 -0.83054018 27 22 23
-0.3013688 -0.39233008 -0.82980573 14 12 16
-0.30039662 -0.39242139 -0.82982188 18 16 23
-0.29885155 -0.38922474 -0.83087927 84 71 77
-0.2991167 -0.39027986 -0.83054143 64 54 62
-0.29932567 -0.38961476 -0.83073717 75 62 68
-0.29997554 -0.39017186 -0.83053559 61 51 55
-0.29570138 -0.39134893 -0.82910323 114 92 96
-0.29808369 -0.39193976 -0.82973063 47 42 51
-0.29556158 -0.39168459 -0.82899982 116 93 97
-0.29666129 -0.39051637 -0.82954872 92 78 82
-0.29705104 -0.39096165 -0.82958865 79 68 73
-0.29699123 -0.39236662 -0.82931733 75 61 69
-0.29835209 -0.39183545 -0.82986641 44 39 49
-0.29785845 -0.38946393 -0.830383 93 79 83
-0.29863659 -0.38983572 -0.83060807 76 64 72
-0.29518905 -0.38882369 -0.82941484 140 118 115
-0.29871559 -0.39035371 -0.83048272 66 56 64
-0.2980715 -0.39181212 -0.82975107 48 43 52
-0.29475835 -0.39220238 -0.82861674 131 103 108
-0.29426405 -0.39013401 -0.82868713 141 115 118
-0.29473317 -0.39118367 -0.82878411 136 109 111
-0.29425752 -0.38977665 -0.82874674 142 117 119
-0.29665476 -0.39474371 -0.82885605 77 55 64
-0.29646915 -0.39559525 -0.82863826 77 47 64
-0.29604673 -0.3937467 -0.82882357 96 74 80
-0.29725334 -0.39472839 -0.82906002 62 47 54
-0.29786998 -0.3943035 -0.82930917 46 37 45
-0.29823145 -0.39286947 -0.8296206 40 34 45
-0.29544777 -0.39302137 -0.82874209 114 89 94
-0.29762596 -0.39424074 -0.82924277 53 42 49
-0.29678637 -0.39388123 -0.82903439 76 59 66
-0.29865718 -0.39851129 -0.82853538 5 3 4
-0.29723716 -0.39692646 -0.828592 51 26 42
-0.30280387 -0.38827345 -0.83288777 15 13 16
-0.30220667 -0.388109 -0.83256966 30 25 27
-0.29535061 -0.36619997 -0.82830495 155 129 156
-0.2951501 -0.36775124 -0.8282578 150 127 150
-0.2936396 -0.36848432 -0.82739073 158 139 154
-0.29459193 -0.36898306 -0.82798499 149 127 147
-0.29409379 -0.36883679 -0.82768142 153 133 151
-0.29450879 -0.36763674 -0.82787865 154 131 154
-0.29482228 -0.36732745 -0.82806033 153 128 155
-0.29448587 -0.36771041 -0.82786733 154 131 154
-0.2951144 -0.37169206 -0.82840866 146 122 136
-0.29385319 -0.37250417 -0.82771367 157 134 144
-0.29481396 -0.37025008 -0.82817364 147 124 142
-0.29444176 -0.37012172 -0.82794821 150 129 145
-0.29415712 -0.37080279 -0.8278091 153 132 145
-0.29444796 -0.37164384 -0.82801694 151 128 141
-0.29509243 -0.37374985 -0.82848912 147 120 131
-0.29475912 -0.37423751 -0.82832229 149 122 134
-0.29482529 -0.3737253 -0.82833499 149 122 134
-0.29471269 -0.37586862 -0.82837516 151 120 132
-0.29294142 -0.38827547 -0.82815748 148 123 131
-0.29291907 -0.38855213 -0.82816219 147 121 130
-0.29241812 -0.38825196 -0.82786912 147 120 133
-0.29100928 -0.38767999 -0.82705992 146 116 139
-0.29353049 -0.39058822 -0.82819569 138 109 119
-0.2933816 -0.3900944 -0.82819372 140 112 122
-0.29425335 -0.39204493 -0.8283571 131 102 110
-0.29186624 -0.38926885 -0.82749593 141 109 131
-0.29321116 -0.39218843 -0.82777828 135 106 113
-0.29216263 -0.39028016 -0.82750058 139 107 125
-0.29152381 -0.39030349 -0.82715583 141 109 127
-0.29146719 -0.39034 -0.82712024 142 109 127
-0.2924732 -0.39096758 -0.82756472 138 106 121
-0.2926569 -0.39170757 -0.82755339 137 107 117
-0.29096079 -0.38903034 -0.82703519 143 110 135
-0.28940225 -0.39169371 -0.82557511 155 138 135
-0.29069021 -0.39081594 -0.82658589 146 117 129
-0.29026109 -0.39154124 -0.82618511 149 124 129
-0.29050362 -0.39004284 -0.82657272 147 118 134
-0.28832006 -0.39224339 -0.82474095 164 155 141
-0.29038098 -0.38876659 -0.82660848 149 118 140
-0.29611772 -0.3960042 -0.82841587 82 46 68
-0.29492679 -0.39402452 -0.82833117 121 83 99
-0.29420686 -0.39296201 -0.82818359 131 99 107
-0.29271555 -0.39424697 -0.8270756 126 87 103
-0.29378659 -0.3935875 -0.82781518 128 92 105
-0.29403195 -0.39462239 -0.82770252 119 78 98
-0.29174998 -0.39286762 -0.82687837 140 108 115
-0.29273316 -0.39288178 -0.82740998 137 105 112
-0.29187649 -0.39334556 -0.82683355 136 102 111
-0.29137293 -0.3959944 -0.82659698 128 92 107
-0.29279551 -0.39494056 -0.82708138 122 82 101
-0.29208842 -0.39405009 -0.82686853 131 95 108
-0.29127869 -0.3946121 -0.82659352 134 101 112
-0.29374397 -0.39551678 -0.82737911 113 69 94
-0.290939 -0.39642853 -0.8264181 129 95 110
-0.29037398 -0.39285886 -0.82610017 148 122 123
-0.28867316 -0.39322451 -0.82492554 158 145 137
-0.29642662 -0.39653772 -0.82842082 72 36 59
-0.29841805 -0.39911732 -0.828179 10 5 8
-0.2957319 -0.39713824 -0.82782644 80 40 66
-0.29848671 -0.39995083 -0.82786262 8 4 7
-0.29590181 -0.39785829 -0.82773113 72 38 61
-0.29630551 -0.39950749 -0.82763183 50 35 48
-0.29696047 -0.39927882 -0.82772279 41 25 37
-0.29503453 -0.39689118 -0.82772094 95 49 80
-0.29691821 -0.39936411 -0.82771075 41 26 37
-0.29117972 -0.39709914 -0.82639468 128 94 109
-0.29133695 -0.39809918 -0.82621682 129 96 112
-0.29178509 -0.39825106 -0.8263998 121 91 106
-0.29226711 -0.39662749 -0.82686627 118 80 100
-0.29449502 -0.39799717 -0.82747352 90 58 81
-0.29359436 -0.39771169 -0.82720476 99 67 88
-0.29479259 -0.39746314 -0.82761687 93 53 81
-0.29273808 -0.39779168 -0.82691878 105 77 93
-0.29401019 -0.39755887 -0.82735354 98 62 85
-0.2905212 -0.3972429 -0.82599318 135 104 119
-0.29076907 -0.39657041 -0.82628304 130 97 112
0 0 0 1 0 0 0 1 0 0 0 1 0 0 0 0 0 275 1 0 0
