ply
format ascii 1.0
comment PCL generated
element vertex 161
property float x
property float y
property float z
property uchar red
property uchar green
property uchar blue
element camera 1
property float view_px
property float view_py
property float view_pz
property float x_axisx
property float x_axisy
property float x_axisz
property float y_axisx
property float y_axisy
property float y_axisz
property float z_axisx
property float z_axisy
property float z_axisz
property float focal
property float scalex
property float scaley
property float centerx
property float centery
property int viewportx
property int viewporty
property float k1
property float k2
end_header
-0.32595599 -0.29306412 -0.83660817 8 7 7
-0.32569367 -0.29350972 -0.83656335 14 11 12
-0.3252593 -0.298684 -0.83695722 26 18 28
-0.32525787 -0.29849508 -0.8369078 25 17 27
-0.32572272 -0.29760745 -0.83694005 17 13 19
-0.32594496 -0.29819894 -0.83721685 20 16 22
-0.32556146 -0.29575589 -0.83645374 12 8 12
-0.32500732 -0.29613656 -0.83641452 28 20 26
-0.32558694 -0.29523546 -0.83646047 17 13 15
-0.32544756 -0.30207598 -0.83737952 34 28 32
-0.32608753 -0.30138746 -0.83772689 31 28 32
-0.3257558 -0.30071858 -0.83743596 30 25 29
-0.32536203 -0.30109194 -0.83721685 31 25 29
-0.32391742 -0.30158153 -0.83637118 35 23 32
-0.32533607 -0.29983732 -0.83708471 28 21 27
-0.32508773 -0.29930988 -0.83692068 28 19 29
-0.32452762 -0.30000126 -0.83663911 31 20 31
-0.32549709 -0.30607852 -0.83729953 12 9 9
-0.32614642 -0.30403623 -0.8378849 27 23 25
-0.3256171 -0.30601937 -0.83740252 13 9 10
-0.32410026 -0.3047668 -0.8363499 20 14 18
-0.32381099 -0.30302042 -0.83634216 35 24 29
-0.32460356 -0.30534881 -0.83662057 15 12 15
-0.32443804 -0.30431706 -0.83661956 24 18 21
-0.3221153 -0.31765005 -0.83671451 1 0 1
-0.32201564 -0.32193679 -0.83653414 0 0 1
-0.32177389 -0.32091814 -0.83652776 2 1 3
-0.32145625 -0.31880701 -0.83664238 7 2 7
-0.31433836 -0.30925226 -0.83241439 87 60 82
-0.31358537 -0.30953956 -0.83198327 89 61 87
-0.31390905 -0.30995238 -0.83206904 86 59 85
-0.31109902 -0.30945006 -0.83123571 91 67 89
-0.31293514 -0.30962023 -0.83176821 89 62 87
-0.31111607 -0.30944842 -0.83124053 91 67 89
-0.31546703 -0.31235194 -0.83235264 65 40 57
-0.31587398 -0.312668 -0.83241767 59 36 50
-0.31489554 -0.31397513 -0.83211559 78 46 56
-0.31507561 -0.31216165 -0.83227855 72 45 63
-0.31479844 -0.31318092 -0.8321439 79 48 62
-0.31161782 -0.31348592 -0.83128858 95 73 80
-0.31098363 -0.31313896 -0.83113891 96 77 85
-0.31216705 -0.31228256 -0.83146554 86 59 73
-0.31194481 -0.31301498 -0.83138621 91 66 77
-0.31109381 -0.31413993 -0.83113527 101 83 86
-0.31404662 -0.31063747 -0.83210933 83 55 81
-0.31291863 -0.31096122 -0.8317641 84 57 80
-0.31402493 -0.31187093 -0.83202231 84 54 74
-0.31353185 -0.31299925 -0.83180672 86 55 68
-0.31192791 -0.31087354 -0.83148521 84 59 80
-0.3134858 -0.31138864 -0.83189899 84 56 77
-0.30948219 -0.31361791 -0.83048344 108 85 96
-0.3100889 -0.31293836 -0.83080125 101 81 91
-0.31578544 -0.31573716 -0.83234811 59 30 43
-0.31470102 -0.31501651 -0.83205688 82 47 57
-0.31567407 -0.31645006 -0.83234644 60 30 46
-0.31545961 -0.31797713 -0.83232963 61 30 53
-0.31304917 -0.31551915 -0.83160496 90 63 73
-0.31085548 -0.31464633 -0.83106226 102 87 89
-0.31376627 -0.31532985 -0.83178931 87 56 67
-0.31418341 -0.31456155 -0.83190614 88 54 62
-0.30977732 -0.31447655 -0.83063895 106 86 93
-0.3207792 -0.30197111 -0.83475167 80 61 61
-0.32040942 -0.30506101 -0.83454275 59 49 49
-0.32133779 -0.30608445 -0.83473539 30 25 27
-0.31873026 -0.30643594 -0.83362788 76 58 63
-0.32116315 -0.30569425 -0.8347339 38 31 32
-0.32040292 -0.30361742 -0.83460003 76 60 59
-0.32172117 -0.30328146 -0.83491164 55 38 41
-0.32083946 -0.30498841 -0.83469027 52 43 43
-0.32116383 -0.3054176 -0.83476251 41 34 34
-0.32101145 -0.30478081 -0.83473241 51 41 41
-0.3213248 -0.3032245 -0.83481932 63 46 48
-0.31884885 -0.30802405 -0.83354312 60 44 52
-0.31892285 -0.30743492 -0.83366001 66 50 56
-0.31841725 -0.30759278 -0.83335453 68 51 58
-0.3187016 -0.30707967 -0.83358043 72 54 60
-0.31861988 -0.30768082 -0.83345765 66 49 56
-0.32039607 -0.3089782 -0.83429468 36 27 33
-0.31949073 -0.30762058 -0.83393204 58 44 49
-0.32017672 -0.30665758 -0.83417261 46 35 40
-0.31987196 -0.30814719 -0.83410376 50 38 43
-0.32036868 -0.30761245 -0.83428383 41 31 36
-0.32096064 -0.30695015 -0.83449757 31 24 28
-0.32187495 -0.30715436 -0.83487153 13 10 14
-0.31487554 -0.30959705 -0.83248454 80 55 76
-0.31752664 -0.30982998 -0.83291733 44 31 44
-0.31515026 -0.30782774 -0.83283067 80 57 70
-0.31522778 -0.30773804 -0.83285987 80 57 69
-0.3153044 -0.30784249 -0.83285582 78 56 69
-0.31739098 -0.30928504 -0.83297306 50 36 48
-0.31804273 -0.30667195 -0.8333956 81 61 67
-0.31823161 -0.30956122 -0.83305317 44 32 43
-0.31757453 -0.30747968 -0.83322841 72 53 62
-0.3159509 -0.30775654 -0.83297032 74 53 64
-0.31440663 -0.30820295 -0.83262324 89 63 80
-0.31936648 -0.31329876 -0.83344126 16 9 15
-0.32050064 -0.31300017 -0.83406591 13 8 13
-0.31874266 -0.31257293 -0.83311498 21 13 21
-0.31843492 -0.31278157 -0.83294296 21 13 21
-0.32147589 -0.31382528 -0.83458209 5 3 6
-0.31877664 -0.31177998 -0.83314896 25 16 26
-0.32125285 -0.31064478 -0.83457446 10 7 14
-0.32129779 -0.31190696 -0.83455169 9 6 11
-0.31983942 -0.31181523 -0.83373213 20 13 22
-0.32206577 -0.31212512 -0.83497679 3 2 5
-0.31936219 -0.31114757 -0.83348829 24 16 26
-0.32153991 -0.3112075 -0.83471507 7 5 11
-0.32111534 -0.3129096 -0.83441049 9 6 11
-0.31704745 -0.31414044 -0.83259368 39 20 26
-0.31816697 -0.31430846 -0.83283061 18 9 13
-0.31829527 -0.31148723 -0.83291304 29 19 29
-0.31641102 -0.31409231 -0.83245999 49 27 33
-0.31637701 -0.31310627 -0.83249152 52 30 41
-0.31601524 -0.31224099 -0.83245957 59 36 51
-0.31722304 -0.31185728 -0.83269107 44 27 39
-0.32221505 -0.31687826 -0.83631802 0 0 0
-0.32157984 -0.31690025 -0.83594692 6 2 6
-0.31964764 -0.31781182 -0.83442622 17 3 15
-0.32139701 -0.31611809 -0.83523583 6 2 6
-0.32086661 -0.31600302 -0.83450419 9 1 7
-0.31963605 -0.31778851 -0.8343941 17 3 15
-0.31918389 -0.31810966 -0.8340947 20 3 17
-0.3212069 -0.31697321 -0.83566689 9 3 8
-0.31849095 -0.31618032 -0.83312631 18 5 15
-0.32105803 -0.31526634 -0.83442909 6 1 5
-0.32054096 -0.31561127 -0.83418393 9 2 7
-0.31839851 -0.31594631 -0.83305079 18 5 14
-0.32014281 -0.31651169 -0.83406323 13 2 11
-0.32017067 -0.31597704 -0.83402109 11 2 9
-0.31822163 -0.31471354 -0.83285213 17 7 13
-0.31690979 -0.31753513 -0.83272707 40 16 35
-0.31786308 -0.3182914 -0.83311909 30 8 26
-0.31607687 -0.31629899 -0.8324374 52 25 40
-0.31580627 -0.3180095 -0.83243316 55 25 48
-0.31740153 -0.31518263 -0.83268648 30 14 23
-0.31939197 -0.31882685 -0.83440697 19 3 16
-0.31984115 -0.31880495 -0.83495748 17 4 15
-0.31878293 -0.3185201 -0.83375603 22 3 19
-0.32137498 -0.32106113 -0.8361764 5 2 6
-0.3204827 -0.32052296 -0.83524781 10 2 10
-0.32139334 -0.32154462 -0.8360616 4 1 5
-0.32056364 -0.32164818 -0.83521754 4 1 6
-0.31983495 -0.32172316 -0.83453697 4 1 5
-0.31960383 -0.32045025 -0.83436888 12 2 11
-0.32065496 -0.32149446 -0.83530807 5 1 6
-0.31903294 -0.31981668 -0.83386123 16 3 14
-0.31869867 -0.31898254 -0.83358097 21 3 18
-0.31787413 -0.32016218 -0.83304238 27 14 22
-0.31830457 -0.3214587 -0.83315367 8 3 8
-0.31784609 -0.32182285 -0.8329708 17 14 15
-0.31684574 -0.31851456 -0.83278549 43 17 38
-0.31699014 -0.31881106 -0.83281523 42 18 36
-0.3178286 -0.31849858 -0.83310688 31 9 26
-0.32180396 -0.323286 -0.83606428 0 0 1
-0.32038856 -0.32283521 -0.83487332 1 1 2
-0.3212356 -0.32427576 -0.83523983 0 0 1
-0.31986046 -0.32321432 -0.83426845 1 1 2
-0.3199684 -0.32354262 -0.83427048 1 1 2
-0.32215643 -0.32560822 -0.83570182 0 0 0
-0.31968522 -0.32288894 -0.83420229 1 1 2
-0.32120314 -0.32552984 -0.83509243 4 4 6
0 0 0 1 0 0 0 1 0 0 0 1 0 0 0 0 0 161 1 0 0
