ply
format ascii 1.0
comment PCL generated
element vertex 102
property float x
property float y
property float z
property uchar red
property uchar green
property uchar blue
element camera 1
property float view_px
property float view_py
property float view_pz
property float x_axisx
property float x_axisy
property float x_axisz
property float y_axisx
property float y_axisy
property float y_axisz
property float z_axisx
property float z_axisy
property float z_axisz
property float focal
property float scalex
property float scaley
property float centerx
property float centery
property int viewportx
property int viewporty
property float k1
property float k2
end_header
-0.2649017 -0.027765939 -0.83140546 169 123 144
-0.26390123 -0.028801842 -0.83105671 181 128 163
-0.26405695 -0.028437989 -0.83111942 179 129 160
-0.26554117 -0.027646903 -0.83160573 162 115 132
-0.26239592 -0.028505776 -0.82999682 177 124 159
-0.26174834 -0.027867215 -0.82978326 176 126 156
-0.26267213 -0.028659841 -0.83022678 178 125 161
-0.26307303 -0.029250273 -0.83012986 177 120 162
-0.26400802 -0.030230241 -0.83090043 183 137 164
-0.26416302 -0.031662829 -0.83068955 186 155 165
-0.2637119 -0.03123715 -0.83062851 189 155 172
-0.26418743 -0.030273419 -0.83094746 181 135 161
-0.26322302 -0.031488489 -0.82989168 192 161 174
-0.26342729 -0.030703077 -0.83034235 189 149 172
-0.26343954 -0.030784694 -0.83034623 189 150 172
-0.26316905 -0.030409103 -0.83000904 186 142 170
-0.26255247 -0.030103929 -0.82914913 176 128 162
-0.26257679 -0.030535728 -0.82910424 180 137 165
-0.26255837 -0.031380132 -0.82891828 187 153 170
-0.26379329 -0.033253811 -0.83034343 194 181 176
-0.26277328 -0.036425862 -0.82889438 195 184 197
-0.26337314 -0.034774564 -0.82975566 197 187 189
-0.26360521 -0.034629971 -0.83003783 199 190 189
-0.26284108 -0.033748183 -0.82900733 198 187 183
-0.2632795 -0.034009784 -0.82967186 196 185 183
-0.26272434 -0.035598971 -0.82883936 196 184 192
-0.2584894 -0.028713791 -0.82347429 172 124 154
-0.2587648 -0.032577254 -0.82418275 192 162 187
-0.25825933 -0.031681262 -0.82243496 175 133 158
-0.25885469 -0.031451393 -0.8241533 181 140 172
-0.25833759 -0.031370051 -0.82258648 172 128 155
-0.25819218 -0.030763704 -0.82209694 174 131 154
-0.25864515 -0.029672718 -0.82316422 169 118 150
-0.25857231 -0.029751917 -0.82297826 170 120 151
-0.25990766 -0.035167683 -0.82456529 169 137 169
-0.25969633 -0.035235632 -0.82426471 169 136 165
-0.25868368 -0.034939889 -0.82304025 186 154 175
-0.2594026 -0.034690082 -0.82419235 179 148 176
-0.25846171 -0.033737194 -0.82317901 192 164 183
-0.25850761 -0.034664575 -0.82285851 188 157 176
-0.2582919 -0.034116097 -0.82248455 188 157 175
-0.26164299 -0.028792389 -0.82847601 162 105 147
-0.26179081 -0.029063921 -0.82843679 163 104 149
-0.26142812 -0.028731776 -0.82829338 161 104 144
-0.25892839 -0.028218651 -0.82555115 169 118 152
-0.26097789 -0.030215126 -0.82729226 163 111 147
-0.26204529 -0.029992491 -0.82844502 170 119 156
-0.26208124 -0.030084981 -0.82847053 171 121 157
-0.26098713 -0.03069381 -0.82723844 168 121 150
-0.26190796 -0.031279463 -0.82812959 180 143 163
-0.26057419 -0.03251598 -0.8265729 183 152 169
-0.2599549 -0.031650357 -0.82603627 171 128 158
-0.26080334 -0.032089572 -0.82686669 180 146 165
-0.2604163 -0.031266686 -0.82656723 170 126 154
-0.26006442 -0.032852318 -0.82599741 184 152 173
-0.25868443 -0.030558001 -0.82511926 175 130 164
-0.25639704 -0.032174431 -0.827842 196 177 181
-0.25867584 -0.0321698 -0.82494885 191 159 185
-0.25876856 -0.03229858 -0.8248167 192 161 187
-0.25867206 -0.031741712 -0.82500184 187 151 180
-0.25705975 -0.032469604 -0.8269673 197 177 186
-0.2584241 -0.030249478 -0.82548457 172 126 159
-0.25648564 -0.032594699 -0.82742101 202 186 190
-0.25626174 -0.032513112 -0.82773447 201 186 188
-0.25695673 -0.031299923 -0.82730448 185 156 170
-0.2583203 -0.032984775 -0.82713705 189 166 175
-0.25847873 -0.033140298 -0.82740349 188 165 171
-0.25737599 -0.031188976 -0.82758266 179 144 162
-0.25766566 -0.031590421 -0.82732725 181 149 166
-0.25754008 -0.032619424 -0.82728457 192 170 179
-0.25793245 -0.03200946 -0.82708573 184 154 170
-0.2568211 -0.031829029 -0.82789224 188 163 172
-0.25863823 -0.030354964 -0.82679915 163 113 147
-0.25698304 -0.032247473 -0.82772464 191 169 177
-0.26012388 -0.035336822 -0.82473832 167 134 166
-0.26170969 -0.034972508 -0.82668203 177 153 166
-0.26093963 -0.034863126 -0.8259387 174 145 166
-0.26036993 -0.033622999 -0.82603699 184 157 174
-0.26160154 -0.033779241 -0.82723635 189 169 175
-0.26149884 -0.034501042 -0.82672536 181 157 169
-0.26190862 -0.03417417 -0.82733625 186 167 172
-0.26177427 -0.036400277 -0.8267644 175 152 174
-0.26228511 -0.035242409 -0.82797509 191 176 184
-0.26155588 -0.035677288 -0.82623786 170 143 163
-0.2625058 -0.035350006 -0.82850266 197 185 191
-0.26219979 -0.036310855 -0.82777929 187 170 187
-0.25793418 -0.033825431 -0.82580674 205 187 204
-0.25730276 -0.033983398 -0.82638222 209 194 207
-0.25628281 -0.034818668 -0.82784528 214 205 211
-0.25598657 -0.033508524 -0.82684207 219 213 212
-0.25787714 -0.03417949 -0.82605273 202 184 201
-0.2580919 -0.034207191 -0.82586664 199 180 198
-0.25789651 -0.034855038 -0.82640177 195 176 194
-0.25795293 -0.034956969 -0.82640433 193 174 192
-0.25817144 -0.033430949 -0.82773066 191 171 175
-0.25936449 -0.033330481 -0.8260603 188 160 178
-0.25848359 -0.033464562 -0.82720232 191 169 177
-0.2583867 -0.03354786 -0.82722342 192 170 179
-0.25876299 -0.03439714 -0.82593828 188 164 185
-0.25851715 -0.034648478 -0.82603818 189 166 187
-0.25683498 -0.034907073 -0.82767963 207 195 204
-0.25960335 -0.033778213 -0.82543916 183 154 177
0 0 0 1 0 0 0 1 0 0 0 1 0 0 0 0 0 102 1 0 0
