ply
format ascii 1.0
comment PCL generated
element vertex 457
property float x
property float y
property float z
property uchar red
property uchar green
property uchar blue
element camera 1
property float view_px
property float view_py
property float view_pz
property float x_axisx
property float x_axisy
property float x_axisz
property float y_axisx
property float y_axisy
property float y_axisz
property float z_axisx
property float z_axisy
property float z_axisz
property float focal
property float scalex
property float scaley
property float centerx
property float centery
property int viewportx
property int viewporty
property float k1
property float k2
end_header
-0.22533476 0.16389316 -0.80887264 110 97 95
-0.22518714 0.16238222 -0.80799735 111 94 95
-0.22506465 0.163754 -0.80830997 106 92 91
-0.22571766 0.16213025 -0.80892408 126 110 109
-0.22503716 0.16302162 -0.80796313 106 90 91
-0.22543107 0.16174592 -0.8081705 119 102 103
-0.22478312 0.16144559 -0.80675834 103 83 87
-0.22487976 0.16056995 -0.80648762 108 88 92
-0.22477084 0.15976937 -0.80585808 107 87 91
-0.22594173 0.16146666 -0.80894881 128 113 112
-0.22587702 0.15840271 -0.80709219 125 108 110
-0.2256532 0.15940057 -0.80726826 123 106 107
-0.22581136 0.15979411 -0.80776894 126 109 109
-0.22625549 0.15867317 -0.80790842 130 114 115
-0.22639364 0.15879473 -0.80821925 132 117 117
-0.22400811 0.16061771 -0.80530435 99 74 86
-0.2242606 0.15999606 -0.80524474 102 78 88
-0.22640295 0.15622273 -0.80725837 143 128 126
-0.22575158 0.15442303 -0.80551702 147 130 126
-0.2267987 0.15606409 -0.80799747 146 129 130
-0.22699635 0.15779449 -0.80882746 140 126 126
-0.2269118 0.15717962 -0.80850434 142 127 127
-0.22640041 0.15613231 -0.80723029 144 128 126
-0.22624946 0.15661836 -0.80709499 140 124 122
-0.22499396 0.15796205 -0.80535179 116 95 99
-0.22503927 0.15752292 -0.80528271 120 99 102
-0.22596374 0.15736869 -0.80684847 132 115 115
-0.22511588 0.15748504 -0.80540407 121 101 103
-0.22536571 0.15659691 -0.80554122 130 111 111
-0.22567984 0.15428649 -0.80533874 147 130 126
-0.22710748 0.17716026 -0.81898379 117 94 104
-0.22694741 0.17694461 -0.81860161 120 98 107
-0.22940518 0.17277564 -0.82063305 121 103 105
-0.22977947 0.17092176 -0.82061255 139 121 122
-0.22987397 0.1703552 -0.82056803 143 126 127
-0.22933561 0.1700916 -0.81925309 122 103 106
-0.22928983 0.16997413 -0.81909305 121 101 105
-0.22958735 0.17006792 -0.81979471 132 114 116
-0.2297733 0.17056166 -0.82045335 140 123 123
-0.22950536 0.16850649 -0.81856894 126 103 109
-0.22920375 0.16784379 -0.81745076 112 87 96
-0.22957036 0.167512 -0.81802928 126 101 109
-0.22917908 0.16815159 -0.81760788 112 88 96
-0.22995953 0.16818768 -0.81942034 136 115 120
-0.23031533 0.16603443 -0.81899887 121 96 106
-0.23004401 0.16829661 -0.81970936 137 117 121
-0.23058906 0.16663443 -0.82009053 126 105 111
-0.22964057 0.16684198 -0.81774265 125 99 109
-0.22978525 0.16776311 -0.81869859 133 109 116
-0.23093943 0.16295336 -0.81965214 123 107 111
-0.23069185 0.1646035 -0.81951535 129 112 117
-0.23064309 0.16271019 -0.81878978 129 116 119
-0.23016188 0.16265389 -0.81749594 141 131 132
-0.23129076 0.16256994 -0.82046306 114 96 102
-0.23108998 0.16450642 -0.82054043 119 100 106
-0.22963236 0.1654546 -0.81702054 123 97 108
-0.23071472 0.16592295 -0.82000059 122 100 108
-0.22999665 0.16413645 -0.81754386 132 115 120
-0.22972704 0.16486484 -0.81707621 127 105 113
-0.22976862 0.16428749 -0.81699717 131 111 118
-0.23175944 0.15820672 -0.81905532 144 124 136
-0.23145284 0.1589371 -0.81882888 129 110 120
-0.23151127 0.16064835 -0.81998348 121 102 110
-0.23112831 0.15954408 -0.81850445 117 97 106
-0.23166676 0.16125678 -0.82068044 122 103 111
-0.23028317 0.16193952 -0.81756061 137 127 128
-0.23131454 0.16164386 -0.82014662 112 94 100
-0.23014048 0.16121322 -0.81681633 138 127 129
-0.23099342 0.16157246 -0.81925917 119 103 108
-0.23008558 0.16206667 -0.81710076 142 134 134
-0.2310067 0.16113296 -0.81907296 117 100 106
-0.23342048 0.17379996 -0.83672792 99 75 82
-0.23264955 0.17107822 -0.83788401 68 59 60
-0.23315029 0.1713863 -0.83717078 87 76 77
-0.23323743 0.17190972 -0.83702111 91 77 79
-0.23361948 0.17029183 -0.83664393 105 95 96
-0.23247916 0.1685143 -0.83883804 72 63 66
-0.23286144 0.1680987 -0.83855116 90 77 83
-0.23286697 0.16934617 -0.83792579 80 73 74
-0.23243764 0.16812478 -0.83908457 73 63 68
-0.23407474 0.16676769 -0.83643174 101 91 89
-0.23382962 0.16881426 -0.83662987 110 99 100
-0.23414706 0.16620265 -0.83636695 98 89 86
-0.23268637 0.16658574 -0.83948159 94 76 87
-0.23326211 0.16618244 -0.83829528 94 80 85
-0.23357049 0.1666519 -0.8375476 98 85 88
-0.23303567 0.16583003 -0.83862579 90 77 83
-0.23260264 0.16299453 -0.83668166 54 68 60
-0.23277709 0.16538368 -0.83873397 84 73 79
-0.2325941 0.16461588 -0.83835053 74 70 73
-0.23265105 0.16406614 -0.83766711 67 70 69
-0.2328921 0.16343132 -0.83649665 61 72 64
-0.22177821 0.15670565 -0.80106133 122 113 105
-0.22119491 0.15758796 -0.80043268 112 103 96
-0.22161791 0.15595055 -0.80040282 117 106 103
-0.22176532 0.15495795 -0.80032021 122 111 111
-0.2210342 0.15718421 -0.79997879 109 98 95
-0.2217821 0.15475401 -0.80028552 123 112 113
-0.22182259 0.15281418 -0.79964024 117 96 103
-0.22147776 0.15242425 -0.79903656 114 90 100
-0.22096971 0.15242398 -0.79836833 113 88 102
-0.22088118 0.15252142 -0.79828942 113 89 104
-0.22102906 0.15086187 -0.79782683 103 70 89
-0.22114414 0.15070754 -0.79787815 103 70 89
-0.2218345 0.1518458 -0.79919016 112 87 98
-0.22297543 0.15264627 -0.80083257 121 106 110
-0.22316068 0.1518575 -0.80065215 118 101 108
-0.22226642 0.15288979 -0.80017251 119 101 106
-0.22189917 0.15112054 -0.79890823 108 81 96
-0.22384936 0.15056454 -0.80077922 114 96 108
-0.22051273 0.15098171 -0.79726863 99 66 87
-0.22054207 0.15219751 -0.7977671 108 81 98
-0.22384989 0.15038022 -0.80069375 114 94 107
-0.22202641 0.14845389 -0.79841578 126 105 110
-0.22314431 0.14975156 -0.79982907 117 97 108
-0.2230024 0.14994508 -0.79970092 114 92 105
-0.22105677 0.14992619 -0.79756165 106 73 91
-0.22383709 0.15030979 -0.80066967 114 95 108
-0.22964773 0.16351229 -0.81648773 134 118 123
-0.2291542 0.16583067 -0.81603694 114 87 101
-0.22952616 0.16513093 -0.81666309 124 99 110
-0.22909814 0.16476852 -0.81562334 119 97 108
-0.22909476 0.16293228 -0.81497377 120 106 109
-0.22889322 0.16272625 -0.81440544 114 100 101
-0.2288563 0.16277879 -0.81433433 113 98 100
-0.22921531 0.1638553 -0.81560606 124 106 114
-0.22866519 0.16545522 -0.81484497 108 82 97
-0.22835639 0.16212593 -0.81305677 103 89 88
-0.22884712 0.16128264 -0.81363356 107 94 95
-0.22905146 0.16049981 -0.81372273 108 94 99
-0.22959901 0.16150773 -0.81559116 131 120 122
-0.2291543 0.16154803 -0.81452423 118 106 107
-0.22918545 0.16128828 -0.81446421 117 105 107
-0.23002636 0.16167326 -0.81674647 142 132 133
-0.22986041 0.16050564 -0.81573743 128 116 121
-0.22970374 0.15978616 -0.81497407 119 105 112
-0.22978942 0.15880817 -0.8147136 110 93 103
-0.2303952 0.15865874 -0.81621611 114 96 105
-0.23001145 0.16019367 -0.81597626 126 113 118
-0.23094615 0.15679935 -0.81659776 136 118 126
-0.23065948 0.15790296 -0.81650513 118 99 108
-0.23070753 0.15760411 -0.81645423 123 104 113
-0.22972386 0.15749155 -0.81383288 118 100 111
-0.22978291 0.15717903 -0.813806 125 108 117
-0.22990255 0.15803696 -0.81461293 108 89 101
-0.23030581 0.15682261 -0.8149609 137 121 127
-0.23066753 0.15799868 -0.81658155 116 97 106
-0.23056678 0.15747355 -0.81601602 126 108 116
-0.23075554 0.18220377 -0.83051407 145 125 127
-0.23104417 0.18295284 -0.83220959 143 117 125
-0.2308767 0.18215305 -0.83098274 143 121 125
-0.23096938 0.17869276 -0.82949865 124 104 113
-0.2315755 0.1788065 -0.83152455 129 110 111
-0.23181604 0.178967 -0.83240044 132 112 110
-0.23134683 0.18017308 -0.83163881 131 107 113
-0.23172362 0.17828853 -0.83167946 129 111 110
-0.23170458 0.17788242 -0.83136493 128 111 109
-0.23055042 0.18099941 -0.82895809 144 128 127
-0.23084594 0.18073162 -0.83004534 137 117 121
-0.23085153 0.18046097 -0.82992893 136 115 120
-0.23086745 0.17824951 -0.82885426 123 105 114
-0.23111528 0.18022609 -0.83090138 130 106 115
-0.23101212 0.18046287 -0.83059579 133 110 117
-0.23252119 0.17459647 -0.82906127 128 103 107
-0.23273805 0.17496093 -0.83077937 128 107 107
-0.23273627 0.17386037 -0.82862741 127 100 106
-0.2328063 0.17472114 -0.83076793 128 106 108
-0.2326809 0.17540334 -0.83125877 128 109 108
-0.23288219 0.17454387 -0.83092904 127 106 108
-0.23198463 0.17731649 -0.83160037 128 112 109
-0.23173553 0.17737144 -0.83087265 127 110 110
-0.23192774 0.17596269 -0.82927471 126 105 109
-0.23241261 0.17499898 -0.82934749 128 104 108
-0.23234181 0.17469469 -0.82862043 127 102 108
-0.23198138 0.17570636 -0.82904172 126 104 109
-0.23187542 0.17698336 -0.83074278 127 110 110
-0.23140456 0.176791 -0.82885563 123 104 111
-0.23365812 0.17100893 -0.83241969 121 101 106
-0.23324248 0.17233074 -0.83103681 122 106 108
-0.23320723 0.17128493 -0.83015293 120 105 107
-0.23353644 0.17147158 -0.83206493 121 103 107
-0.23372185 0.16995233 -0.83206648 119 100 105
-0.2332174 0.17247239 -0.83097792 122 106 108
-0.23316592 0.17215827 -0.83045095 122 105 107
-0.23303251 0.17279668 -0.82993537 124 103 107
-0.2330841 0.17124091 -0.82936865 120 104 106
-0.23310362 0.17276628 -0.83039159 123 104 107
-0.23368876 0.16704883 -0.83177733 128 110 111
-0.23365724 0.16604169 -0.83158875 131 115 113
-0.23360458 0.16755202 -0.83100402 121 101 105
-0.23366247 0.16800308 -0.83146852 122 102 106
-0.23355554 0.16747662 -0.83058465 119 98 103
-0.23373912 0.16729152 -0.83219379 130 112 112
-0.23343483 0.16863355 -0.83007312 117 98 102
-0.23318858 0.16936405 -0.82897013 117 102 104
-0.23350765 0.16839595 -0.83039242 117 96 102
-0.23342493 0.16794953 -0.82979959 116 95 101
-0.23324202 0.16734126 -0.82861054 114 94 100
-0.23319408 0.16926333 -0.82896757 117 101 104
-0.2344088 0.16292456 -0.83125705 115 93 97
-0.23413594 0.16399978 -0.83147722 123 103 105
-0.23450112 0.1627509 -0.83142096 113 91 95
-0.23454633 0.16315822 -0.83211851 113 94 95
-0.23405297 0.16420846 -0.83139586 125 106 107
-0.2345954 0.16252351 -0.83152562 110 88 92
-0.23363897 0.16459346 -0.82925165 119 96 103
-0.23370394 0.16421546 -0.82923615 119 96 103
-0.23364525 0.16598852 -0.83144468 131 114 112
-0.23385847 0.1634903 -0.82946563 122 98 105
-0.23361072 0.16563489 -0.83060282 126 107 108
-0.23364484 0.16540535 -0.83054721 126 106 108
-0.2348603 0.16040906 -0.83227205 96 81 80
-0.23432124 0.1586424 -0.82974195 132 117 119
-0.23449688 0.15986159 -0.83047068 126 108 111
-0.2348357 0.15946332 -0.83228505 90 78 76
-0.2347399 0.15939699 -0.83179867 99 86 85
-0.2345764 0.16192347 -0.83091193 111 88 93
-0.2348689 0.16185106 -0.83211488 107 86 88
-0.23441398 0.16206105 -0.83025205 112 87 95
-0.23429029 0.16102156 -0.82965392 123 101 108
-0.23421913 0.15936853 -0.82922161 140 121 125
-0.23470818 0.16172211 -0.83143979 110 89 93
-0.23484312 0.15791193 -0.83220619 85 77 74
-0.23486258 0.15758112 -0.83196062 91 82 79
-0.23457538 0.1575169 -0.8301428 128 116 117
-0.23465711 0.15685281 -0.82961679 144 130 133
-0.22184245 0.1588925 -0.80189836 108 95 91
-0.22391218 0.15861727 -0.80410409 110 90 92
-0.22272885 0.15896857 -0.80290556 105 89 88
-0.22461909 0.15558659 -0.80375862 133 117 112
-0.22510451 0.15565634 -0.80473655 135 117 114
-0.2246643 0.15608239 -0.80403751 130 113 109
-0.22373496 0.15451428 -0.80244654 134 121 115
-0.2243256 0.15715002 -0.80405331 121 103 102
-0.22438554 0.15635096 -0.80380708 127 110 107
-0.22417489 0.15570545 -0.80334699 130 114 110
-0.22382808 0.15707915 -0.8035056 120 103 102
-0.22266223 0.15472141 -0.80143344 126 116 112
-0.22301076 0.15542336 -0.80205196 124 112 109
-0.22190899 0.15699458 -0.80135 122 114 105
-0.22381985 0.15803611 -0.80381292 118 100 99
-0.22249907 0.15641309 -0.80181193 123 112 106
-0.22506222 0.15363219 -0.80382288 146 132 126
-0.22503027 0.15262356 -0.80330408 143 129 127
-0.22494063 0.1527929 -0.80320746 142 127 125
-0.22397783 0.15227741 -0.80170596 125 110 113
-0.22420622 0.15200499 -0.8018145 125 109 113
-0.22331448 0.15370484 -0.80167496 129 117 114
-0.22284903 0.1539526 -0.80131656 127 117 114
-0.2285575 0.18235929 -0.82447582 124 99 103
-0.22832175 0.18207771 -0.8238818 126 103 106
-0.22855157 0.18126313 -0.82381743 124 98 103
-0.22858407 0.17955925 -0.82282937 119 95 101
-0.22839241 0.1802946 -0.82296765 116 91 97
-0.22846526 0.18035012 -0.82310385 117 93 98
-0.22754748 0.17938079 -0.82097661 117 98 104
-0.22838324 0.18096666 -0.82336092 119 94 99
-0.2290917 0.17612228 -0.82180798 125 105 111
-0.22908968 0.17571148 -0.82155555 121 101 107
-0.23004541 0.17506313 -0.82395035 128 111 117
-0.22961034 0.1747687 -0.82236582 127 109 114
-0.2297408 0.17476974 -0.82280856 125 108 113
-0.23099658 0.17004226 -0.82424122 130 104 109
-0.23078638 0.17000343 -0.82346004 135 110 114
-0.23093574 0.17030001 -0.82419986 128 103 108
-0.23039728 0.1722049 -0.8235746 116 99 102
-0.23032856 0.17108327 -0.82255781 130 112 115
-0.22998452 0.17218202 -0.82212627 122 106 108
-0.22962226 0.17218035 -0.8208968 127 109 111
-0.23004918 0.17077602 -0.8213557 139 122 123
-0.23178598 0.16610308 -0.82279038 121 104 100
-0.23188172 0.16718347 -0.82400376 122 103 99
-0.23189129 0.16649526 -0.82340431 121 103 99
-0.23220111 0.16655968 -0.82422686 120 104 96
-0.23109037 0.16800927 -0.82279938 126 102 108
-0.23154978 0.16769522 -0.82364833 124 103 103
-0.23092611 0.16854817 -0.8227213 130 106 111
-0.23025055 0.16926433 -0.82091343 144 126 127
-0.23023014 0.16961658 -0.82114387 145 127 128
-0.23095293 0.16899477 -0.82320267 130 105 111
-0.23087311 0.16686967 -0.82108396 126 105 111
-0.23072691 0.1693709 -0.82271546 135 112 116
-0.2326725 0.16485398 -0.82457393 122 105 101
-0.23249482 0.16289474 -0.82332432 110 89 98
-0.23262216 0.16424838 -0.82418472 119 101 101
-0.23209929 0.16397227 -0.82282597 114 97 96
-0.23226142 0.16369076 -0.82307059 112 93 96
-0.23240472 0.16506679 -0.82389152 117 100 95
-0.23164481 0.16581717 -0.82230538 121 103 102
-0.2315819 0.16338871 -0.82143825 114 96 99
-0.23158495 0.16350643 -0.82148027 114 97 99
-0.23210421 0.16536273 -0.82330614 119 103 97
-0.23153815 0.16391984 -0.821486 116 98 100
-0.23248591 0.16074799 -0.82216603 127 106 119
-0.23260374 0.16045573 -0.82231539 135 113 127
-0.23326482 0.16008113 -0.82405663 148 130 140
-0.23295368 0.16121687 -0.82376999 133 111 125
-0.23302966 0.16035776 -0.82350045 144 124 136
-0.23181443 0.16123453 -0.82098478 122 103 111
-0.2317546 0.16195351 -0.82129472 111 92 100
-0.23230514 0.16076919 -0.82175827 126 105 118
-0.23144004 0.18278682 -0.834369 124 104 107
-0.23121558 0.18393262 -0.83351332 140 119 124
-0.23132651 0.18234022 -0.83294415 135 109 117
-0.23140888 0.18325004 -0.83384264 134 113 117
-0.23130983 0.18222992 -0.83280891 135 109 117
-0.23157769 0.18037713 -0.83324718 123 102 104
-0.23185362 0.17891863 -0.83306891 124 107 103
-0.23140429 0.18133482 -0.83359754 120 98 102
-0.23194461 0.17842224 -0.83292085 125 109 104
-0.23184629 0.17887671 -0.83260536 130 111 108
-0.23315087 0.1745089 -0.83288246 119 99 103
-0.23313707 0.17457382 -0.83295101 118 98 102
-0.23298067 0.17525041 -0.83349782 111 89 94
-0.23297858 0.17547601 -0.83426392 102 77 86
-0.23313084 0.17483895 -0.83379698 110 87 94
-0.23230436 0.17722994 -0.83267736 127 110 105
-0.23374936 0.17172506 -0.83483529 114 94 98
-0.23373489 0.17203358 -0.83494288 113 92 97
-0.23382998 0.17048892 -0.83534431 115 100 104
-0.2336867 0.17348765 -0.83628178 109 87 92
-0.23376817 0.17093936 -0.83381152 116 96 101
-0.23368061 0.17326412 -0.83569783 110 88 93
-0.23368174 0.17202258 -0.83404106 116 95 99
-0.23362444 0.17303471 -0.83476973 114 92 97
-0.23371615 0.17215775 -0.83460242 113 92 97
-0.23371089 0.17202733 -0.83436894 114 93 98
-0.23359562 0.17178486 -0.83277124 120 101 105
-0.23379974 0.16684952 -0.83342588 130 116 114
-0.23408203 0.16657023 -0.83582133 105 95 93
-0.233817 0.16743793 -0.83399016 127 114 112
-0.23411162 0.16648348 -0.83603275 103 93 90
-0.23386912 0.16773511 -0.83467329 122 110 108
-0.23392844 0.16777782 -0.8352465 116 105 104
-0.2338251 0.16853692 -0.83439845 124 110 110
-0.23379618 0.16903836 -0.83299446 123 105 108
-0.23378447 0.16898952 -0.832528 123 105 108
-0.23380828 0.1679455 -0.83393919 127 113 112
-0.23377627 0.16788591 -0.8326332 128 111 111
-0.23327601 0.16326027 -0.83573395 69 75 67
-0.23458254 0.16247609 -0.83321595 96 81 81
-0.2344082 0.16469672 -0.83504975 99 86 85
-0.23318036 0.16318175 -0.83582205 66 74 66
-0.23319329 0.16283011 -0.83555371 65 73 65
-0.23429424 0.16325529 -0.83420062 92 81 80
-0.23338573 0.16259821 -0.83510047 69 73 67
-0.2343124 0.16532332 -0.83562487 99 88 85
-0.23409855 0.16498792 -0.83273137 125 109 106
-0.23434897 0.16494635 -0.83491176 103 90 88
-0.2348769 0.16241781 -0.83272064 103 83 85
-0.23469809 0.16311656 -0.83302426 106 87 88
-0.23442827 0.16458507 -0.83463418 102 89 87
-0.23459546 0.1615648 -0.83293128 95 73 78
-0.21914043 0.15248314 -0.79645133 94 69 85
-0.21979183 0.15239201 -0.79708248 98 73 90
-0.21959092 0.15246898 -0.79690695 97 72 89
-0.22011922 0.15151767 -0.79707557 98 68 87
-0.21973957 0.15139332 -0.79663783 95 63 82
-0.21986297 0.15116853 -0.79668504 95 63 82
-0.2198825 0.15057047 -0.7965591 94 60 82
-0.22090369 0.14874902 -0.79721838 118 89 100
-0.22076714 0.14774469 -0.79690605 131 108 111
-0.21881047 0.1475796 -0.79510671 110 97 99
-0.21846032 0.14693631 -0.79464173 99 94 89
-0.21869613 0.14781088 -0.79504937 108 94 98
-0.22052155 0.14847776 -0.79678351 121 95 104
-0.21982682 0.14961644 -0.79635048 103 73 91
-0.22046834 0.14794037 -0.79665589 128 105 110
-0.21960001 0.14787467 -0.79588938 124 104 109
-0.21960311 0.14898166 -0.79605955 110 84 97
-0.21938893 0.1487205 -0.79583341 112 88 100
-0.22742729 0.16248722 -0.81180656 109 94 93
-0.22640856 0.16405913 -0.81096983 111 90 97
-0.22785597 0.16270348 -0.81258756 104 88 89
-0.22585718 0.16217183 -0.80917883 125 110 108
-0.22600839 0.1626198 -0.80963594 122 105 106
-0.22560367 0.16389443 -0.80937845 111 96 96
-0.225687 0.16294453 -0.80917597 119 104 103
-0.22562127 0.16367392 -0.80932808 113 98 98
-0.22594203 0.16362676 -0.8099224 114 97 99
-0.22859317 0.16008614 -0.81241268 100 84 89
-0.22856796 0.1583408 -0.81148851 104 86 97
-0.22822839 0.15867066 -0.81108588 110 94 101
-0.22789571 0.15901898 -0.81074262 117 102 105
-0.22830647 0.1598928 -0.81181329 106 90 94
-0.22798893 0.16069034 -0.81174546 111 98 97
-0.22746456 0.15954255 -0.81036109 126 112 111
-0.22671542 0.16065533 -0.80975556 126 112 111
-0.22716559 0.15887974 -0.80955529 133 120 119
-0.22700824 0.15950586 -0.80962807 131 117 116
-0.22790535 0.16172907 -0.81218022 109 95 93
-0.22633566 0.16063963 -0.80914927 130 116 114
-0.22727269 0.16002952 -0.81031293 125 111 110
-0.2291946 0.15771464 -0.81261855 110 93 104
-0.22935231 0.15687072 -0.81255013 130 114 122
-0.22910154 0.15759872 -0.8123439 114 97 108
-0.22878562 0.15739003 -0.81153309 121 105 113
-0.22808908 0.1569351 -0.81038344 124 105 115
-0.22828218 0.15777718 -0.81085187 113 95 105
-0.22802173 0.15751815 -0.8103959 121 103 112
-0.22783571 0.15767939 -0.81013966 124 107 114
-0.22937405 0.18246652 -0.82630771 144 122 125
-0.22954452 0.18149276 -0.82631421 138 117 117
-0.23216593 0.17427973 -0.82794809 123 98 104
-0.23108499 0.17431316 -0.82617557 108 90 96
-0.23087227 0.1747859 -0.82619965 108 91 97
-0.23149692 0.17536803 -0.82770187 119 98 105
-0.23145571 0.17552251 -0.82775676 119 99 105
-0.2315287 0.17504479 -0.82749665 118 97 103
-0.23039189 0.17527921 -0.82537007 117 101 108
-0.23244126 0.17092262 -0.82727081 115 94 97
-0.23243485 0.17197986 -0.82754922 118 94 98
-0.23225874 0.17240979 -0.82734424 121 96 100
-0.23162325 0.17119835 -0.82586497 126 99 105
-0.2322679 0.17043485 -0.82681161 116 94 98
-0.23208886 0.17038648 -0.82647628 118 95 99
-0.23129523 0.17120203 -0.82530802 124 98 104
-0.23143069 0.17139176 -0.8255952 125 98 104
-0.23141384 0.17341466 -0.82621396 112 91 96
-0.23097511 0.17101733 -0.82471365 121 97 102
-0.23114954 0.17294309 -0.82562119 112 91 96
-0.23118228 0.17036067 -0.82485008 128 100 106
-0.23248035 0.1667335 -0.82497829 120 104 94
-0.23268564 0.16864057 -0.82673448 117 102 99
-0.23254617 0.16773161 -0.82579589 118 102 96
-0.23256181 0.16747658 -0.82566482 119 103 96
-0.23303448 0.16724977 -0.8275339 116 99 99
-0.23286329 0.16785482 -0.82685393 119 104 100
-0.23302725 0.1671084 -0.8274557 116 99 98
-0.23260745 0.16623552 -0.8250882 121 106 95
-0.23282608 0.16813552 -0.82675046 119 106 100
-0.23326366 0.1660679 -0.82833391 113 91 97
-0.23174453 0.16896909 -0.82509941 123 100 101
-0.23231995 0.16917755 -0.82627136 115 96 96
-0.23241717 0.1682741 -0.82585001 116 98 95
-0.23185924 0.16831671 -0.82487518 123 102 100
-0.23359078 0.1636074 -0.82794106 116 92 102
-0.23324689 0.16345966 -0.82639503 119 96 107
-0.23339628 0.16448388 -0.82777512 116 92 101
-0.23317768 0.16230077 -0.82525057 122 99 113
-0.23328596 0.16425158 -0.82714278 117 93 104
-0.23347521 0.16454206 -0.82814789 115 91 100
-0.2331139 0.16331004 -0.8257125 120 98 110
-0.23256426 0.16574886 -0.82462305 122 107 96
-0.23275866 0.16485277 -0.82498544 121 104 101
-0.23293009 0.1630888 -0.82463783 123 102 110
-0.23316637 0.16471539 -0.82693881 117 94 103
-0.2339424 0.15956312 -0.82702202 148 130 136
-0.23403904 0.15900838 -0.82827204 147 128 133
-0.23401186 0.16106609 -0.82848322 127 103 113
-0.23401871 0.16062845 -0.82845414 131 108 117
-0.23375708 0.16083992 -0.82651603 137 115 125
-0.2332336 0.16171879 -0.82503086 128 106 119
-0.23349123 0.16016771 -0.8248679 148 130 139
-0.23367997 0.16102362 -0.82634056 135 113 123
-0.23379371 0.16201635 -0.82760918 120 94 107
-0.23317324 0.16157344 -0.82466251 130 109 122
0 0 0 1 0 0 0 1 0 0 0 1 0 0 0 0 0 457 1 0 0
