ply
format ascii 1.0
comment PCL generated
element vertex 410
property float x
property float y
property float z
property uchar red
property uchar green
property uchar blue
element camera 1
property float view_px
property float view_py
property float view_pz
property float x_axisx
property float x_axisy
property float x_axisz
property float y_axisx
property float y_axisy
property float y_axisz
property float z_axisx
property float z_axisy
property float z_axisz
property float focal
property float scalex
property float scaley
property float centerx
property float centery
property int viewportx
property int viewporty
property float k1
property float k2
end_header
-0.081961162 -0.32986167 -0.67600203 201 187 205
-0.080795281 -0.328574 -0.67612106 202 188 194
-0.080422416 -0.32836232 -0.67611718 205 193 195
-0.079236761 -0.32951763 -0.67575938 228 224 223
-0.08003889 -0.32920578 -0.67589247 223 218 216
-0.078982443 -0.32938516 -0.67576563 226 221 220
-0.076379746 -0.32758504 -0.67597193 200 189 213
-0.076879382 -0.32919687 -0.67563736 223 217 224
-0.077353194 -0.32889497 -0.67574143 219 211 218
-0.077593923 -0.32879022 -0.6757831 217 209 215
-0.077415146 -0.32711139 -0.67615652 193 180 202
-0.075408965 -0.32820848 -0.67579651 207 198 221
-0.075257204 -0.32914025 -0.67557871 221 214 230
-0.074143633 -0.32945466 -0.6754818 223 217 234
-0.07588315 -0.32961732 -0.67548269 229 224 233
-0.075170733 -0.32879627 -0.67565596 215 208 227
-0.073967896 -0.32835039 -0.67573339 209 201 225
-0.0749688 -0.32732224 -0.67599291 198 188 215
-0.075909212 -0.32665625 -0.676166 189 176 208
-0.072330318 -0.32649186 -0.67614299 216 216 222
-0.073014371 -0.32661524 -0.67612576 211 208 220
-0.070329502 -0.32958552 -0.6754185 226 223 236
-0.071708068 -0.32853186 -0.67566288 223 221 233
-0.071796671 -0.3273356 -0.67594445 219 219 226
-0.070298508 -0.32890767 -0.6755783 224 222 232
-0.070441239 -0.32977653 -0.6753732 226 224 237
-0.06873738 -0.3289445 -0.67558336 229 228 235
-0.069612406 -0.3285611 -0.6756658 225 224 231
-0.071082562 -0.32653457 -0.67614675 224 224 228
-0.069691882 -0.3287102 -0.67562771 224 222 230
-0.068716809 -0.32849088 -0.67569602 231 230 236
-0.067089476 -0.32922035 -0.67557174 221 222 226
-0.067733452 -0.32872024 -0.67566967 228 228 233
-0.06717512 -0.3294436 -0.67551303 221 221 227
-0.066537492 -0.32783481 -0.67594463 226 228 228
-0.067083433 -0.32721221 -0.67607939 233 235 235
-0.064378716 -0.32808968 -0.67600358 220 221 224
-0.084635369 -0.33283874 -0.67608333 212 199 223
-0.085154444 -0.33360296 -0.67609394 224 215 233
-0.08126431 -0.33024481 -0.67585272 219 211 221
-0.083501853 -0.33349067 -0.67587519 231 222 239
-0.08366292 -0.33267915 -0.67596281 215 202 226
-0.082857132 -0.33112639 -0.67598623 205 191 214
-0.08111988 -0.33062869 -0.67580247 227 222 228
-0.081894837 -0.33130822 -0.67584682 224 217 228
-0.081140436 -0.33382913 -0.67542851 238 234 242
-0.081462085 -0.33243552 -0.67565709 236 231 238
-0.081197672 -0.33299434 -0.67554218 237 233 240
-0.080512159 -0.33212253 -0.67553312 238 235 238
-0.08093556 -0.33208576 -0.6756103 237 233 238
-0.081095308 -0.33227909 -0.67561364 236 233 238
-0.076999463 -0.33130103 -0.67530161 236 231 237
-0.077985995 -0.33309063 -0.67516416 233 228 237
-0.076769926 -0.33257639 -0.67512703 228 221 234
-0.078035466 -0.33305374 -0.67517275 233 228 238
-0.07776504 -0.33336627 -0.67511231 230 224 236
-0.076949596 -0.33347824 -0.67503166 225 216 234
-0.078060411 -0.33069798 -0.6754654 237 235 236
-0.080053262 -0.33030072 -0.6756832 237 236 234
-0.079939671 -0.33114156 -0.675569 238 236 236
-0.080042705 -0.33261627 -0.67539424 240 238 239
-0.07962352 -0.33334294 -0.67526829 241 238 241
-0.072394758 -0.33031115 -0.67526954 226 223 241
-0.073830031 -0.3317979 -0.67511874 222 216 236
-0.072486363 -0.33117715 -0.67515236 219 216 235
-0.07468985 -0.33118507 -0.67521518 228 222 237
-0.076053619 -0.33166522 -0.67518657 229 222 234
-0.073574357 -0.33020309 -0.67531055 230 226 240
-0.076107971 -0.33022428 -0.67536372 236 231 236
-0.075184412 -0.33083865 -0.67526835 231 225 237
-0.06999772 -0.33055446 -0.67523694 223 220 234
-0.07153748 -0.33024058 -0.67527634 226 223 240
-0.086757712 -0.33560884 -0.67616141 216 203 224
-0.08677607 -0.33553603 -0.67616975 217 204 225
-0.087252632 -0.33706415 -0.67611712 203 184 214
-0.086567089 -0.33704185 -0.67601818 205 187 216
-0.084502816 -0.33577007 -0.6758191 218 207 228
-0.084292941 -0.334571 -0.67589217 226 215 236
-0.084851488 -0.33488202 -0.67594898 223 210 233
-0.086780034 -0.33734143 -0.67602402 202 184 213
-0.087551624 -0.33771616 -0.67610723 198 177 209
-0.082897566 -0.33735481 -0.67542827 210 201 218
-0.080138959 -0.3352392 -0.67515355 226 221 232
-0.083209626 -0.33779708 -0.67544603 206 196 215
-0.080406487 -0.33548498 -0.67517751 224 218 230
-0.082137644 -0.33673817 -0.67535478 215 207 222
-0.082882509 -0.33565509 -0.6755622 224 216 230
-0.082074471 -0.33527979 -0.67545635 228 222 233
-0.083404504 -0.33411118 -0.6757865 231 223 240
-0.082046531 -0.33592921 -0.67539489 225 218 229
-0.083868459 -0.33405113 -0.67587131 230 221 240
-0.079308145 -0.3347162 -0.67511559 227 222 234
-0.08806894 -0.33909354 -0.67614597 197 181 208
-0.08616437 -0.34109569 -0.67577577 207 202 215
-0.084488466 -0.33878368 -0.67560059 208 199 216
-0.08436434 -0.33830431 -0.67560035 207 198 215
-0.08404544 -0.3391366 -0.67551428 212 202 220
-0.084844008 -0.34089082 -0.67557073 214 205 222
-0.086142197 -0.34169397 -0.67574739 209 204 218
-0.087250218 -0.34051222 -0.67596823 200 194 209
-0.087129816 -0.33916637 -0.67599046 199 186 209
-0.087590255 -0.33955482 -0.67604798 198 186 209
-0.087201618 -0.33918491 -0.67600065 199 186 209
-0.087766565 -0.33840302 -0.67610896 196 178 208
-0.084892862 -0.33864832 -0.67566985 205 197 214
-0.080235288 -0.34122333 -0.67477328 207 203 196
-0.082137071 -0.34107286 -0.67511791 213 204 215
-0.081989355 -0.34120953 -0.67508274 213 205 213
-0.083290026 -0.34135485 -0.67530167 218 208 225
-0.083581291 -0.33956134 -0.6754263 212 202 221
-0.083353452 -0.33791074 -0.67546058 205 195 214
-0.08338856 -0.33888039 -0.67542565 209 198 218
-0.083929971 -0.34170258 -0.67538983 222 211 229
-0.082836621 -0.34035918 -0.67528147 212 201 222
-0.078365952 -0.34068519 -0.6746152 195 184 190
-0.079207137 -0.34062117 -0.67470407 202 196 195
-0.088011608 -0.34269515 -0.67613387 203 198 211
-0.08788082 -0.34305477 -0.67613751 205 197 212
-0.086868092 -0.34377486 -0.67594767 202 194 213
-0.087765984 -0.34226424 -0.67603707 201 198 210
-0.086002581 -0.34518811 -0.67585748 203 190 216
-0.085511282 -0.3450861 -0.67572331 200 190 215
-0.086808145 -0.34429765 -0.67598039 204 193 214
-0.08534576 -0.34281641 -0.6756137 207 201 219
-0.084935464 -0.34352601 -0.675547 204 198 218
-0.085176528 -0.34305412 -0.67558628 206 200 219
-0.087063342 -0.34185055 -0.67589211 204 201 213
-0.084584266 -0.34215379 -0.67549092 216 207 225
-0.081505872 -0.34552008 -0.67500144 203 198 222
-0.08126349 -0.34299761 -0.67491519 205 201 199
-0.080290213 -0.34473968 -0.67479664 208 203 219
-0.081698552 -0.34389204 -0.67500031 203 198 206
-0.080195576 -0.34465724 -0.67478025 208 204 218
-0.083619706 -0.34211487 -0.67532974 219 209 225
-0.082841136 -0.34306467 -0.67519236 209 202 214
-0.082099184 -0.34314275 -0.67506182 206 201 206
-0.083632961 -0.34281614 -0.67533171 214 205 222
-0.083330519 -0.34182283 -0.67527902 220 211 223
-0.07790675 -0.34474123 -0.67449147 207 194 212
-0.078755409 -0.34479931 -0.67461151 202 189 213
-0.077633277 -0.3442052 -0.67446345 199 182 203
-0.076569878 -0.34505475 -0.67429417 222 211 216
-0.079482391 -0.34288675 -0.67466646 203 194 198
-0.079922453 -0.34318712 -0.67471766 207 202 204
-0.079784401 -0.34458125 -0.67473012 206 199 216
-0.07962469 -0.34324756 -0.67468804 204 196 202
-0.074572138 -0.34515488 -0.67399746 233 227 229
-0.073131435 -0.34519827 -0.67376459 237 233 236
-0.073676698 -0.34469602 -0.67387885 228 223 229
-0.076110758 -0.34515181 -0.67422754 227 217 218
-0.086086489 -0.34639317 -0.67597455 202 187 213
-0.085950151 -0.3457287 -0.67589319 205 189 217
-0.084730126 -0.34649473 -0.67563713 194 185 212
-0.084288239 -0.34612131 -0.67549866 193 186 214
-0.083251424 -0.34941679 -0.67558801 191 190 205
-0.081107304 -0.34784001 -0.67508137 202 196 219
-0.081099801 -0.34763703 -0.67507154 202 196 219
-0.080089606 -0.34621 -0.67480499 208 202 227
-0.081021234 -0.34730035 -0.67504162 203 198 220
-0.080429532 -0.34954241 -0.67501086 201 189 218
-0.082995392 -0.34778214 -0.67542654 195 193 211
-0.082932621 -0.34721649 -0.67536533 196 193 214
-0.081954345 -0.34577724 -0.67508173 201 196 222
-0.08361043 -0.34889737 -0.67562401 191 191 205
-0.083835766 -0.34728798 -0.67551291 192 189 210
-0.083674699 -0.34578726 -0.67535132 195 189 216
-0.077408098 -0.34793568 -0.674456 223 214 229
-0.078763179 -0.34878042 -0.67470217 213 201 224
-0.076745532 -0.34678707 -0.6743319 230 223 228
-0.076303035 -0.34808514 -0.67425954 230 223 237
-0.076382354 -0.34617698 -0.67426401 234 227 227
-0.07935138 -0.34646752 -0.67470932 213 206 226
-0.078368835 -0.34595984 -0.67454827 220 214 227
-0.079151794 -0.34597409 -0.67466074 215 209 227
-0.077641673 -0.34692687 -0.67448378 224 216 224
-0.078274205 -0.34746122 -0.67459589 219 209 224
-0.07923086 -0.34759483 -0.67473799 212 202 224
-0.074888192 -0.34606636 -0.67402041 239 234 234
-0.075852096 -0.34736767 -0.67418134 233 227 236
-0.082129277 -0.35238031 -0.67564344 185 187 213
-0.080818385 -0.35345337 -0.67546654 186 192 219
-0.081544556 -0.35268292 -0.6755439 186 190 215
-0.080650233 -0.35234565 -0.67531264 190 196 218
-0.081033401 -0.35070345 -0.67523956 195 192 216
-0.080318972 -0.35317734 -0.67532134 188 198 220
-0.080325246 -0.34992754 -0.67502159 200 189 219
-0.080581039 -0.35205457 -0.67527133 191 195 218
-0.077094756 -0.35181618 -0.67460132 207 206 228
-0.078781202 -0.35343304 -0.6750527 191 197 219
-0.077190325 -0.35317859 -0.67473298 197 197 216
-0.078515977 -0.3533974 -0.67499995 192 197 218
-0.078545973 -0.34994683 -0.67469889 211 202 229
-0.078965828 -0.35132167 -0.67490119 203 202 227
-0.0796552 -0.35119027 -0.67501205 199 196 223
-0.079341382 -0.35168365 -0.67500174 199 200 225
-0.079496421 -0.35042971 -0.67491329 203 195 224
-0.073671691 -0.35342595 -0.67418766 187 179 207
-0.075093843 -0.35333109 -0.67439455 194 190 211
-0.073834226 -0.35348737 -0.67421657 187 179 206
-0.08096759 -0.35404465 -0.67556691 176 178 207
-0.07628157 -0.35473901 -0.67472529 173 164 188
-0.077138633 -0.35622543 -0.67505831 143 124 161
-0.077427469 -0.35544392 -0.67503071 158 141 175
-0.079047002 -0.35494101 -0.6752817 164 154 188
-0.079665132 -0.3546418 -0.67536151 168 164 196
-0.077615738 -0.35430336 -0.67493606 179 172 198
-0.076858185 -0.35366338 -0.67471659 192 190 209
-0.07854557 -0.35581833 -0.67529368 149 128 168
-0.074914575 -0.35440332 -0.67447782 174 164 192
-0.075588554 -0.35413548 -0.67454988 182 175 198
-0.075351693 -0.35562569 -0.67467684 152 138 170
-0.074273117 -0.35493445 -0.67443931 161 148 181
-0.076135099 -0.35526043 -0.67475468 162 152 179
-0.076509416 -0.32224041 -0.6774295 168 141 157
-0.075266093 -0.32195345 -0.67751634 175 152 165
-0.075685643 -0.32142907 -0.67769068 167 142 156
-0.068666436 -0.3217212 -0.67769051 201 177 187
-0.069736615 -0.32141754 -0.67776722 196 179 185
-0.069840938 -0.32146305 -0.67775017 197 180 185
-0.065872796 -0.32077312 -0.67803138 196 175 185
-0.0652766 -0.32216096 -0.6775707 223 216 217
-0.067289323 -0.32178581 -0.67768526 205 181 193
-0.065831386 -0.32032838 -0.67818028 188 165 177
-0.065605521 -0.32025111 -0.67820734 188 166 178
-0.066710837 -0.32169476 -0.67771888 206 187 196
-0.068110533 -0.3206487 -0.67805046 191 168 176
-0.063092634 -0.32090777 -0.6780867 209 193 204
-0.063752457 -0.32193917 -0.67770386 223 219 219
-0.062961176 -0.32161075 -0.67787606 217 209 211
-0.063733369 -0.32119671 -0.67794645 213 201 208
-0.08175125 -0.3259618 -0.67681354 173 151 162
-0.077061124 -0.32478735 -0.67673886 176 155 177
-0.078032084 -0.32582262 -0.67650515 178 157 177
-0.076374568 -0.32445469 -0.67678958 176 155 182
-0.078242823 -0.32479462 -0.6768136 176 152 164
-0.078670539 -0.32478517 -0.67684412 175 150 159
-0.077425316 -0.32474676 -0.67677414 176 154 173
-0.079100095 -0.32468861 -0.67689192 171 146 152
-0.073626548 -0.3245818 -0.67673773 197 189 204
-0.073766716 -0.32565939 -0.6764043 200 194 210
-0.074846856 -0.32588944 -0.67635036 191 181 207
-0.074188843 -0.3257477 -0.67638373 196 189 209
-0.073305242 -0.32563671 -0.67640382 204 200 212
-0.074771307 -0.32385558 -0.67696005 185 171 190
-0.075892136 -0.3234641 -0.67706281 176 154 177
-0.073355868 -0.32310396 -0.67718756 193 185 195
-0.073749587 -0.32342041 -0.67709351 191 181 195
-0.075094193 -0.32257396 -0.67732483 180 160 174
-0.074749805 -0.32355544 -0.6770463 184 169 187
-0.070781715 -0.32529077 -0.67652142 218 212 218
-0.06960775 -0.32484493 -0.67667973 222 213 219
-0.068902902 -0.32549012 -0.67648387 233 229 232
-0.069717541 -0.32523873 -0.67655271 225 219 224
-0.070711866 -0.32493055 -0.67663717 215 207 214
-0.068783358 -0.3225266 -0.6774289 207 183 194
-0.064651228 -0.32294154 -0.67734915 232 231 230
-0.065998957 -0.32482132 -0.67677122 239 238 239
-0.065216817 -0.32400525 -0.67703372 236 235 235
-0.065406598 -0.32614252 -0.67645568 243 242 245
-0.065536045 -0.32455716 -0.67686856 238 237 237
-0.064818487 -0.32378241 -0.67711627 235 234 234
-0.067667529 -0.32260188 -0.67741567 214 194 203
-0.068098098 -0.32388759 -0.67700356 223 210 216
-0.066203661 -0.32250956 -0.67745298 221 211 215
-0.066769511 -0.32444385 -0.67683339 236 236 235
-0.068089761 -0.32286265 -0.67733032 214 193 203
-0.064349748 -0.32384932 -0.67712897 235 233 234
-0.063625485 -0.32347792 -0.6772902 231 230 228
-0.063998885 -0.32296735 -0.67739326 230 230 227
-0.063988328 -0.32395327 -0.67713267 234 233 232
-0.080283068 -0.32660234 -0.6764732 180 158 162
-0.081122547 -0.32755554 -0.67638046 180 158 170
-0.081245236 -0.32627043 -0.67666948 176 153 162
-0.078362279 -0.32709187 -0.67623025 192 179 194
-0.078286573 -0.32670453 -0.67630798 186 170 188
-0.073967174 -0.32645795 -0.67617965 203 197 215
-0.075825296 -0.32642806 -0.67621833 187 173 206
-0.065082878 -0.3263104 -0.67643178 242 241 244
-0.068320647 -0.32636467 -0.67622924 243 244 244
-0.063850828 -0.32645863 -0.67647922 235 235 237
-0.06369023 -0.32657436 -0.67646223 233 233 234
-0.092411585 -0.33377576 -0.67738008 198 188 204
-0.092120752 -0.33357987 -0.67733902 199 190 206
-0.089658119 -0.33335876 -0.67687744 209 199 214
-0.088222519 -0.33293128 -0.67664039 213 203 217
-0.088408023 -0.33354694 -0.67660403 220 214 224
-0.090446234 -0.33322456 -0.67705166 202 190 208
-0.090091102 -0.3338421 -0.67690659 213 205 218
-0.090684921 -0.33281916 -0.67714697 195 181 202
-0.08970619 -0.33185157 -0.67706645 188 170 195
-0.085574947 -0.33233795 -0.67625654 205 190 214
-0.085877441 -0.33220747 -0.67630965 202 188 211
-0.087876573 -0.33242565 -0.67663175 208 196 212
-0.08706484 -0.33276811 -0.67644578 211 201 217
-0.087141432 -0.33214778 -0.67653364 203 189 209
-0.086272947 -0.33156037 -0.6764487 194 176 202
-0.087581642 -0.3319684 -0.67663372 201 186 206
-0.10013008 -0.3373591 -0.67903644 214 205 206
-0.10050869 -0.33730105 -0.67917514 212 203 206
-0.09758088 -0.33779278 -0.67834967 214 196 204
-0.098260731 -0.33679417 -0.67855078 205 196 197
-0.097251199 -0.33686033 -0.67830586 204 188 197
-0.098669849 -0.33663103 -0.67865193 206 196 197
-0.094036765 -0.33649844 -0.67758679 208 187 206
-0.093597136 -0.33629194 -0.67749053 207 188 207
-0.094799861 -0.33734268 -0.6777088 209 184 205
-0.093940035 -0.33711824 -0.67750394 207 187 207
-0.092868887 -0.33637798 -0.67729145 205 190 209
-0.092285097 -0.3344146 -0.67731708 204 192 209
-0.087975897 -0.33532104 -0.67635924 218 209 224
-0.088080458 -0.33714825 -0.6762358 203 184 212
-0.089536726 -0.33621356 -0.67658019 213 205 220
-0.089800857 -0.33691841 -0.67657423 207 196 216
-0.088624291 -0.33744368 -0.676314 201 183 211
-0.088950105 -0.33415127 -0.6766451 222 218 227
-0.091246873 -0.33465764 -0.67705917 207 198 214
-0.091701411 -0.33623713 -0.6770041 203 194 212
-0.091107205 -0.33633095 -0.67687613 207 199 216
-0.089164928 -0.33471176 -0.67663628 221 216 226
-0.087357767 -0.33590066 -0.67622298 213 200 221
-0.08771535 -0.33471131 -0.67636639 223 216 228
-0.10120735 -0.33808953 -0.67942226 213 209 210
-0.10196889 -0.33839393 -0.67971402 209 206 211
-0.10088905 -0.3392477 -0.6793679 211 203 209
-0.10022818 -0.34119022 -0.67921847 222 220 228
-0.10064848 -0.34036815 -0.6793344 215 209 217
-0.10066571 -0.3396259 -0.67930543 213 204 211
-0.099658705 -0.33815387 -0.67886388 219 214 209
-0.096757419 -0.3402698 -0.67820549 224 213 224
-0.09586814 -0.34008846 -0.67795342 224 210 222
-0.097762831 -0.34134746 -0.67849523 229 228 234
-0.095726423 -0.34137148 -0.67792034 231 227 234
-0.099120103 -0.34138745 -0.67887872 229 229 235
-0.096073709 -0.33874187 -0.67800426 216 193 210
-0.09820804 -0.33792835 -0.67849839 216 202 206
-0.098663695 -0.3405948 -0.67873472 225 220 228
-0.098710075 -0.33800283 -0.67862242 217 207 207
-0.098205462 -0.34022906 -0.67860729 223 215 224
-0.096677922 -0.33798468 -0.67813361 214 190 204
-0.097210847 -0.33873191 -0.6782971 217 198 211
-0.093154721 -0.33992743 -0.67723638 212 206 219
-0.09264753 -0.34001929 -0.67710304 207 201 213
-0.093016997 -0.3404648 -0.67720222 210 204 215
-0.093167484 -0.34072095 -0.67724299 212 206 216
-0.095346615 -0.34179494 -0.67782199 230 229 234
-0.094721749 -0.33833492 -0.67763984 211 190 209
-0.092896327 -0.33887696 -0.67716378 210 203 219
-0.095420413 -0.34117126 -0.67783844 229 225 233
-0.094821543 -0.33969966 -0.6776734 219 208 221
-0.095047235 -0.33919677 -0.67772996 217 201 216
-0.095585026 -0.34017587 -0.67787635 224 212 223
-0.091331728 -0.34011248 -0.67677653 200 193 205
-0.091009937 -0.3394146 -0.6767028 201 194 209
-0.08948385 -0.34140164 -0.6763745 200 197 206
-0.091165096 -0.34078798 -0.67674255 199 192 203
-0.09022525 -0.34137091 -0.67653781 199 195 204
-0.089265503 -0.33820063 -0.67639095 198 182 209
-0.088757537 -0.34098816 -0.67622876 199 196 208
-0.088537879 -0.34049162 -0.67619991 199 192 208
-0.090996325 -0.33854178 -0.67670506 201 193 211
-0.088829204 -0.3410657 -0.67624027 199 197 208
-0.089709438 -0.33846313 -0.67646724 199 186 210
-0.10007343 -0.34468898 -0.67936933 203 191 220
-0.097516775 -0.34518087 -0.6786083 207 200 223
-0.097131878 -0.34493688 -0.67848045 210 204 225
-0.096231371 -0.34233865 -0.67809981 228 225 235
-0.096564852 -0.34544155 -0.67832685 210 207 224
-0.095849492 -0.34333983 -0.67802292 225 223 232
-0.096282259 -0.34489647 -0.67821825 214 212 226
-0.099157155 -0.34250548 -0.67893708 224 224 235
-0.099585108 -0.34456554 -0.67919087 206 196 224
-0.096733086 -0.34220248 -0.67823303 229 227 236
-0.098480716 -0.34437212 -0.67886651 208 198 225
-0.097314142 -0.34189513 -0.67837727 231 232 237
-0.09182398 -0.3428818 -0.67695624 204 199 204
-0.092247084 -0.34227958 -0.67702472 200 192 201
-0.092967741 -0.34567785 -0.67740065 217 221 222
-0.093917862 -0.34467295 -0.67757481 210 209 217
-0.095064834 -0.34509623 -0.67788088 210 209 220
-0.092399761 -0.34437761 -0.67718512 211 211 214
-0.095057577 -0.34333184 -0.67780745 219 218 226
-0.094316632 -0.34232494 -0.67757165 218 215 222
-0.094062693 -0.34333986 -0.67754549 211 207 216
-0.093995996 -0.34205145 -0.67747611 217 212 219
-0.094575338 -0.34314337 -0.67767274 216 213 221
-0.094304889 -0.34238821 -0.67757112 218 214 221
-0.088900708 -0.34251243 -0.67631292 202 196 208
-0.08861994 -0.34184986 -0.6761905 200 199 207
-0.09023305 -0.34248292 -0.67660373 202 192 204
-0.089100122 -0.34423888 -0.6765089 209 191 211
-0.089232862 -0.34306318 -0.67643553 205 194 208
-0.090106636 -0.34444064 -0.67671943 211 198 212
-0.090019934 -0.34539983 -0.67675918 216 206 218
-0.090872675 -0.34500831 -0.67689848 214 210 216
-0.091466263 -0.34254229 -0.67686677 202 193 202
-0.089932129 -0.34552947 -0.67675006 216 207 219
-0.087376155 -0.3453176 -0.67621529 212 192 217
-0.092349619 -0.34618247 -0.67729729 213 215 217
-0.093656763 -0.34617427 -0.67761713 211 211 218
-0.093915507 -0.34578055 -0.67764217 214 217 222
-0.087961875 -0.34723711 -0.67646772 202 177 208
-0.08858937 -0.3478342 -0.67662066 196 171 205
-0.088963144 -0.34724796 -0.67666137 201 176 208
-0.090672761 -0.3468419 -0.67696506 206 193 212
-0.08922448 -0.34616032 -0.6766513 212 194 216
-0.089819066 -0.34582353 -0.67674553 216 205 219
-0.086823054 -0.34841311 -0.6762892 194 176 203
-0.087512352 -0.34669596 -0.67634434 207 185 212
-0.087712705 -0.3460061 -0.6763494 213 189 216
-0.08730033 -0.34684762 -0.67630649 206 185 212
0 0 0 1 0 0 0 1 0 0 0 1 0 0 0 0 0 410 1 0 0
