ply
format ascii 1.0
comment PCL generated
element vertex 389
property float x
property float y
property float z
property uchar red
property uchar green
property uchar blue
element camera 1
property float view_px
property float view_py
property float view_pz
property float x_axisx
property float x_axisy
property float x_axisz
property float y_axisx
property float y_axisy
property float y_axisz
property float z_axisx
property float z_axisy
property float z_axisz
property float focal
property float scalex
property float scaley
property float centerx
property float centery
property int viewportx
property int viewporty
property float k1
property float k2
end_header
-0.045468535 -0.28496915 -0.68810093 115 91 74
-0.045135871 -0.28458792 -0.68817919 111 86 69
-0.046052448 -0.28508243 -0.68808138 115 90 75
-0.042853843 -0.28581324 -0.68794501 115 85 71
-0.043704294 -0.28574407 -0.68794608 120 93 80
-0.041143402 -0.28456986 -0.68820846 89 54 50
-0.042104539 -0.28495562 -0.68812054 100 68 61
-0.043255001 -0.28485739 -0.68812293 108 80 72
-0.044151857 -0.28509212 -0.68807113 116 90 78
-0.044880506 -0.2851277 -0.68806314 120 95 79
-0.0433788 -0.28448233 -0.68820071 103 75 67
-0.039527614 -0.28625473 -0.68793559 90 54 46
-0.039904222 -0.28597462 -0.68796998 93 58 48
-0.045455247 -0.30489174 -0.68370801 155 114 136
-0.046134576 -0.30462149 -0.68374902 163 124 140
-0.046270426 -0.30531716 -0.68357348 162 115 136
-0.047967948 -0.30367851 -0.6839121 186 155 152
-0.044342391 -0.305448 -0.68362147 148 108 131
-0.044381909 -0.30619943 -0.6834352 145 96 126
-0.044717178 -0.30624264 -0.68340725 145 92 126
-0.044711206 -0.30439192 -0.68386132 151 118 138
-0.042238165 -0.30480462 -0.68390632 142 117 122
-0.042010158 -0.30511406 -0.6838395 143 120 122
-0.040598437 -0.30581731 -0.68374562 138 117 114
-0.038318064 -0.3063854 -0.68374324 126 99 100
-0.037478607 -0.30600047 -0.68385905 120 90 91
-0.038528148 -0.30553469 -0.68391633 124 95 96
-0.036869846 -0.30593622 -0.68389118 117 87 86
-0.045694243 -0.30988067 -0.68256557 155 137 144
-0.045231506 -0.3069593 -0.68320006 149 93 130
-0.045988597 -0.30902755 -0.68270135 161 132 148
-0.043125357 -0.30928478 -0.68286914 139 127 125
-0.041414067 -0.3078486 -0.68324494 140 125 121
-0.042537406 -0.30961603 -0.6828391 134 119 120
-0.043192111 -0.3097741 -0.68277085 137 123 123
-0.042385466 -0.31019479 -0.6827361 130 113 116
-0.043101069 -0.30959952 -0.68280977 137 124 123
-0.043813672 -0.30807534 -0.68307102 143 114 126
-0.043826554 -0.30904087 -0.68287826 142 126 128
-0.044846248 -0.30940402 -0.68275332 141 118 128
-0.04478037 -0.3099156 -0.68265498 141 125 129
-0.04359927 -0.30892178 -0.68291372 142 127 128
-0.043478161 -0.30830982 -0.68304169 143 121 126
-0.038268302 -0.30833456 -0.68334723 123 97 99
-0.037695237 -0.30752394 -0.68354297 121 93 96
-0.037792627 -0.30906311 -0.68322659 130 108 105
-0.038283445 -0.30872616 -0.6832673 125 101 102
-0.038668331 -0.3090888 -0.68317252 125 102 103
-0.039743941 -0.30762324 -0.68339378 131 109 109
-0.03995904 -0.30667004 -0.68356389 138 120 115
-0.038938761 -0.3081618 -0.68334198 122 96 100
-0.039208096 -0.30870473 -0.68321973 120 95 100
-0.040391769 -0.30725706 -0.68342251 137 120 116
-0.03617755 -0.31043079 -0.68304271 136 117 107
-0.034463905 -0.30906469 -0.68340588 120 94 87
-0.0367507 -0.31025001 -0.68304312 140 124 111
-0.036504768 -0.30834883 -0.68343842 128 104 98
-0.036820531 -0.30843192 -0.68340629 129 106 101
-0.03597508 -0.30882668 -0.68336761 129 107 98
-0.035311677 -0.30776286 -0.68361479 119 94 88
-0.046173926 -0.31358227 -0.68163872 172 155 160
-0.046183258 -0.31183037 -0.682091 159 149 151
-0.045496996 -0.31393299 -0.68160129 169 148 154
-0.04526598 -0.31238648 -0.68201929 156 141 143
-0.045229603 -0.31207898 -0.68210167 154 139 141
-0.046355415 -0.31384036 -0.68155777 175 158 163
-0.045817852 -0.31090486 -0.68233931 156 146 147
-0.041689172 -0.31152865 -0.68245351 133 112 117
-0.04127166 -0.31435108 -0.68173862 173 154 148
-0.041889288 -0.31392959 -0.68181497 166 146 144
-0.043574907 -0.313108 -0.6819374 152 128 135
-0.041372061 -0.31281912 -0.68213362 151 131 132
-0.041614439 -0.31184569 -0.68237478 138 116 121
-0.042847842 -0.31160545 -0.6823678 137 118 123
-0.043975521 -0.3134425 -0.68182784 156 133 139
-0.041791894 -0.3106066 -0.68268687 125 106 112
-0.043397982 -0.31184384 -0.68227446 142 123 127
-0.044420015 -0.31173891 -0.68224275 146 130 133
-0.039615206 -0.3135871 -0.68203503 169 152 144
-0.039197292 -0.31312379 -0.68217903 165 148 140
-0.037993979 -0.31330031 -0.6822117 170 153 146
-0.038230672 -0.31395045 -0.68203205 176 158 153
-0.040014401 -0.31385016 -0.68194282 171 153 146
-0.038970307 -0.31304887 -0.68221259 165 148 140
-0.040866852 -0.31095439 -0.68264884 127 107 111
-0.038181983 -0.31151882 -0.68265104 151 135 124
-0.039846525 -0.31205446 -0.68241823 148 130 126
-0.039975528 -0.31171587 -0.68249953 143 124 122
-0.040047985 -0.31306672 -0.68214232 161 143 136
-0.038510591 -0.31054762 -0.6828866 135 118 112
-0.033873547 -0.31301236 -0.68254632 152 128 119
-0.034486096 -0.31424481 -0.68220216 172 154 140
-0.034644034 -0.31348825 -0.68237805 162 140 131
-0.034164019 -0.31245545 -0.68266428 145 118 114
-0.035007775 -0.31306517 -0.6824581 157 133 128
-0.036239475 -0.31394881 -0.68215877 174 153 150
-0.035036158 -0.31236491 -0.68262881 147 119 119
-0.036170203 -0.31337836 -0.6823048 166 143 142
-0.035169266 -0.31079739 -0.68301737 131 106 101
-0.036193401 -0.3132 -0.68234855 164 142 140
-0.036118001 -0.3111355 -0.68287522 142 121 114
-0.036794297 -0.31189957 -0.68264163 155 137 129
-0.032614715 -0.31219238 -0.68283993 138 112 101
-0.033020161 -0.31240749 -0.6827544 141 115 105
-0.050719086 -0.31666526 -0.68037814 168 153 184
-0.050817542 -0.31671035 -0.68036342 167 150 182
-0.049638726 -0.31813854 -0.68014109 141 122 161
-0.049447633 -0.31637448 -0.68060386 170 160 182
-0.050676588 -0.31552517 -0.68067986 186 174 195
-0.051128022 -0.31596568 -0.68050307 181 168 194
-0.046452396 -0.31757742 -0.68054551 151 143 166
-0.045115553 -0.31778395 -0.68059832 157 152 173
-0.04549484 -0.31509876 -0.6812914 164 142 152
-0.046279024 -0.31681678 -0.68076462 155 141 161
-0.047980867 -0.31834942 -0.68021333 142 134 165
-0.047847405 -0.31639034 -0.68075478 161 147 167
-0.048663955 -0.31751779 -0.6803838 150 140 167
-0.047468964 -0.3163757 -0.68078852 158 143 163
-0.046410944 -0.31574425 -0.68104357 160 141 156
-0.042838406 -0.31720528 -0.6809085 166 156 168
-0.042780329 -0.31770346 -0.68079191 167 156 171
-0.04173683 -0.3161222 -0.6812613 172 156 160
-0.042740632 -0.31707701 -0.6809476 167 156 167
-0.041258715 -0.31572473 -0.68139672 174 156 157
-0.043276425 -0.31544486 -0.68133473 168 152 157
-0.044850212 -0.3176764 -0.68064702 158 154 173
-0.043073114 -0.31572998 -0.68126899 167 154 159
-0.043835804 -0.31672713 -0.68095845 163 154 166
-0.042262558 -0.31553105 -0.68136704 169 156 157
-0.037145369 -0.3148258 -0.68189889 181 162 162
-0.038611576 -0.31720406 -0.68126655 170 151 161
-0.037786201 -0.31565532 -0.68166429 178 159 163
-0.039400548 -0.31706756 -0.68120766 177 157 167
-0.039562654 -0.31605133 -0.68143016 179 159 164
-0.039498508 -0.31451157 -0.68180925 178 160 155
-0.03847602 -0.31492805 -0.68177348 181 162 161
-0.038796637 -0.31545016 -0.68162578 181 161 163
-0.040725932 -0.3170456 -0.68111336 177 157 165
-0.033945464 -0.31543192 -0.68198866 163 146 135
-0.036186647 -0.31574267 -0.68178195 169 152 151
-0.035710536 -0.31574008 -0.68181401 168 150 147
-0.035065621 -0.31622034 -0.68176138 161 144 140
-0.035343494 -0.31565014 -0.68185622 167 150 145
-0.036911312 -0.31653771 -0.68157595 165 147 153
-0.032448117 -0.31532919 -0.68210489 157 138 131
-0.033160366 -0.31537354 -0.68204218 157 138 133
-0.033201806 -0.31621259 -0.68185949 145 124 133
-0.044985887 -0.3189857 -0.68027312 153 147 171
-0.046196766 -0.31845784 -0.68032527 151 147 172
-0.044429589 -0.31851682 -0.68045336 158 153 175
-0.043995917 -0.31888089 -0.68038356 159 148 171
-0.048880041 -0.31933525 -0.67982137 148 135 160
-0.048991278 -0.31952244 -0.67975348 150 134 159
-0.050139882 -0.31880972 -0.67992049 139 109 153
-0.045044541 -0.31966111 -0.68007362 150 137 164
-0.048525412 -0.2864545 -0.6878103 122 99 87
-0.048525508 -0.28659222 -0.68778163 124 101 88
-0.044950895 -0.2869285 -0.68767816 146 124 109
-0.046248969 -0.28602496 -0.68788302 127 104 90
-0.041924201 -0.28692529 -0.68774152 120 85 66
-0.043053079 -0.28642803 -0.68782347 123 93 75
-0.041745849 -0.28637758 -0.68785208 112 78 62
-0.039922528 -0.28681782 -0.68781936 98 61 49
-0.040819038 -0.28675354 -0.68779737 108 71 54
-0.049980018 -0.29019693 -0.68710607 113 82 91
-0.049329471 -0.29034886 -0.68702191 119 86 102
-0.050413061 -0.29080001 -0.68701112 109 77 88
-0.049237084 -0.28758043 -0.68760836 122 100 87
-0.050312426 -0.2904025 -0.68708837 110 79 87
-0.045554839 -0.29010856 -0.68707448 149 137 113
-0.046474114 -0.29053548 -0.68697673 142 124 113
-0.04558409 -0.28864053 -0.68734366 146 126 113
-0.045756608 -0.29052803 -0.68699318 148 136 113
-0.047332972 -0.28957033 -0.68713605 133 103 113
-0.047358252 -0.28900898 -0.68725514 133 104 110
-0.047826242 -0.28992102 -0.68706411 129 97 113
-0.047093019 -0.28860715 -0.68733877 135 108 109
-0.047473129 -0.2880632 -0.68745917 133 108 104
-0.048437629 -0.28962389 -0.68713379 126 95 108
-0.045529507 -0.28722629 -0.68761975 145 123 110
-0.043230161 -0.29040566 -0.68703353 137 121 94
-0.043536548 -0.29029858 -0.68706018 140 127 96
-0.041557059 -0.28955841 -0.68719751 119 89 75
-0.042812716 -0.28931957 -0.68726361 133 112 85
-0.042528007 -0.28877473 -0.68737817 130 106 79
-0.042061735 -0.28728372 -0.68766695 124 91 71
-0.044150464 -0.28848055 -0.68740314 144 127 101
-0.044034373 -0.28940001 -0.68723661 145 131 100
-0.043784376 -0.28916422 -0.68728518 142 126 96
-0.042649768 -0.28713161 -0.68768257 129 98 80
-0.042744029 -0.28864044 -0.68740326 132 109 81
-0.039031655 -0.28961864 -0.6872347 96 68 58
-0.038946781 -0.28997847 -0.68714523 101 76 60
-0.039788939 -0.29022509 -0.68707955 103 74 66
-0.037580971 -0.29020157 -0.68709612 107 93 54
-0.039258886 -0.29091632 -0.68690944 113 94 68
-0.040657815 -0.28840271 -0.68745494 109 74 61
-0.061917026 -0.29434881 -0.68666112 95 58 56
-0.062170465 -0.29429665 -0.68668437 94 58 55
-0.058923572 -0.29359391 -0.68673801 95 56 57
-0.05803939 -0.29433998 -0.68653357 107 63 58
-0.058382649 -0.29396743 -0.68663329 102 60 57
-0.058567885 -0.29454565 -0.68649578 107 62 59
-0.057029195 -0.29425043 -0.68653125 111 67 55
-0.056943141 -0.29416966 -0.68654901 110 67 55
-0.058777157 -0.29311672 -0.68685323 91 54 55
-0.058501799 -0.29266918 -0.68696415 88 52 53
-0.059038155 -0.29332879 -0.68680966 92 54 56
-0.059999652 -0.29360291 -0.68679613 92 51 54
-0.054136056 -0.29459053 -0.68636525 101 70 65
-0.052971117 -0.29264057 -0.68678194 91 64 60
-0.053031031 -0.29236823 -0.68684614 91 63 59
-0.054126348 -0.29373512 -0.68656164 100 68 61
-0.054487158 -0.2937386 -0.68657064 103 68 59
-0.053777471 -0.29396966 -0.68649822 98 68 63
-0.056581166 -0.29187214 -0.68710321 87 55 49
-0.05662436 -0.29393557 -0.68659854 109 67 54
-0.055246301 -0.29126474 -0.6871953 84 55 50
-0.055734728 -0.29153118 -0.68715078 85 55 49
-0.055040468 -0.2929568 -0.68677109 102 65 54
-0.04971737 -0.29253641 -0.68657809 113 81 99
-0.049696982 -0.29209918 -0.68666506 115 82 103
-0.051126186 -0.2935954 -0.68643647 103 76 87
-0.049089178 -0.29439422 -0.68617243 110 77 88
-0.050604012 -0.29458743 -0.68621033 102 74 81
-0.049910858 -0.2945931 -0.68617404 106 75 83
-0.051736124 -0.29209727 -0.68682116 98 69 74
-0.049938712 -0.29209816 -0.68667835 114 82 101
-0.05247771 -0.29366666 -0.68651921 93 68 70
-0.050505374 -0.29177821 -0.6867969 108 77 91
-0.050956652 -0.29144073 -0.68691027 104 73 83
-0.045474686 -0.29392704 -0.68631577 125 95 101
-0.046777729 -0.29316214 -0.68644923 131 111 98
-0.044979163 -0.29416898 -0.68627501 124 91 103
-0.048032451 -0.29466116 -0.68612039 114 81 89
-0.045994192 -0.29466116 -0.68615639 117 81 97
-0.045986071 -0.29323134 -0.68644905 131 109 101
-0.047859967 -0.29246235 -0.68656826 126 99 103
-0.047928877 -0.29225272 -0.68660897 126 98 104
-0.046443272 -0.29120439 -0.68685114 142 127 111
-0.047954347 -0.29242942 -0.68657291 125 98 103
-0.048549343 -0.29225922 -0.68659467 121 88 104
-0.044127356 -0.29455748 -0.68620515 116 79 97
-0.043233484 -0.29459327 -0.68622583 117 85 95
-0.041537292 -0.29477268 -0.68624687 120 96 91
-0.042799391 -0.29323649 -0.68646038 115 80 90
-0.042374857 -0.29283383 -0.6865387 114 81 87
-0.042836741 -0.29209816 -0.68667561 121 93 91
-0.043382049 -0.29231101 -0.68663836 125 99 95
-0.042917181 -0.29241982 -0.68661076 119 88 91
-0.044128601 -0.29126194 -0.68686157 144 134 105
-0.043050941 -0.29179266 -0.68674058 127 103 94
-0.038193591 -0.29404283 -0.68630284 113 93 77
-0.037780173 -0.29333878 -0.68643367 114 98 72
-0.037814949 -0.29226705 -0.68666124 117 108 66
-0.037301358 -0.29146594 -0.68680829 118 112 60
-0.039106112 -0.29426003 -0.68629599 116 96 81
-0.039498907 -0.29320002 -0.68652666 119 105 76
-0.039310757 -0.29154441 -0.68679798 116 98 71
-0.039098885 -0.29152864 -0.68680161 116 100 70
-0.040886842 -0.29223117 -0.68667811 115 88 81
-0.039455362 -0.2932058 -0.68652588 119 106 76
-0.040922217 -0.29412803 -0.68636817 119 97 87
-0.061654862 -0.29821485 -0.68533713 183 165 145
-0.06118447 -0.29835409 -0.68526024 187 171 150
-0.061981313 -0.29726747 -0.68569475 160 133 120
-0.061290585 -0.29720443 -0.68567753 159 132 120
-0.061186299 -0.29796401 -0.68539983 178 158 140
-0.062036414 -0.29502603 -0.68646413 103 64 63
-0.061110198 -0.29524782 -0.68636084 110 68 71
-0.056894965 -0.29569858 -0.68610466 134 94 75
-0.058468707 -0.29758778 -0.68547845 173 148 125
-0.056803677 -0.29824623 -0.68528855 182 160 130
-0.057286114 -0.29737279 -0.68556255 166 139 113
-0.058897067 -0.29816857 -0.68528664 184 165 140
-0.059012372 -0.29850107 -0.68517852 191 174 148
-0.060204785 -0.29813173 -0.68529475 184 166 145
-0.058912337 -0.29657349 -0.685821 151 119 103
-0.058254693 -0.29538575 -0.68623 124 81 71
-0.059844963 -0.29794201 -0.68535399 181 161 140
-0.05942658 -0.29500163 -0.68639559 109 64 64
-0.054063402 -0.29732808 -0.68561286 141 116 104
-0.053046275 -0.29537901 -0.68612593 102 79 78
-0.053576473 -0.29687357 -0.6857484 129 103 96
-0.053593386 -0.29737741 -0.68563133 137 108 100
-0.05314827 -0.29745832 -0.68564099 133 101 97
-0.054575849 -0.2987847 -0.68524504 168 139 122
-0.055249233 -0.29493371 -0.68631548 110 72 62
-0.055323031 -0.29509461 -0.68626589 113 76 65
-0.055712849 -0.29703763 -0.68565315 152 127 106
-0.055823606 -0.29643187 -0.6858505 142 111 92
-0.05656343 -0.29543236 -0.6861912 128 86 68
-0.049322978 -0.29714414 -0.6856184 117 78 90
-0.050176341 -0.29815605 -0.68543351 126 85 94
-0.049525514 -0.29572904 -0.68590587 116 81 88
-0.051846333 -0.29847616 -0.68540406 140 100 101
-0.049343057 -0.29757348 -0.68553287 118 78 90
-0.049364693 -0.29844671 -0.68535852 120 77 92
-0.049835633 -0.29518929 -0.68604255 109 77 83
-0.051964693 -0.29678473 -0.68578327 122 89 90
-0.050929375 -0.29585564 -0.68594462 113 81 85
-0.051024545 -0.29692897 -0.68570244 128 92 94
-0.049420528 -0.29523447 -0.68601108 111 78 85
-0.052512709 -0.2968702 -0.68579137 120 89 89
-0.045599353 -0.29626781 -0.68583751 120 81 100
-0.046198361 -0.29667196 -0.68574697 119 79 98
-0.045282103 -0.29862335 -0.68535918 134 108 105
-0.044952799 -0.29868251 -0.68535137 136 113 106
-0.047598116 -0.29855058 -0.68534386 121 82 95
-0.045371797 -0.29785454 -0.68551552 129 100 103
-0.047644354 -0.29632246 -0.68579352 114 74 91
-0.046918701 -0.29593495 -0.68588394 115 74 94
-0.046304647 -0.29523546 -0.6860348 115 75 95
-0.048740573 -0.29765418 -0.6855076 115 73 89
-0.048799284 -0.29542691 -0.68595243 110 75 85
-0.042365175 -0.29704925 -0.6857577 124 103 95
-0.0443491 -0.29850119 -0.68540448 134 112 104
-0.04251625 -0.29850009 -0.68544835 121 100 94
-0.041411784 -0.29870516 -0.68543148 113 92 88
-0.042068124 -0.29851553 -0.68545586 118 97 91
-0.044021223 -0.29762152 -0.68559581 131 108 102
-0.043343294 -0.29652342 -0.68584085 126 102 99
-0.042754564 -0.29532602 -0.68610364 121 93 95
-0.044683941 -0.29804876 -0.6854887 133 108 105
-0.042289324 -0.29492962 -0.68619859 119 92 93
-0.0449147 -0.29818469 -0.68545401 133 108 105
-0.03976224 -0.29806167 -0.68553138 108 85 83
-0.040315278 -0.29518321 -0.68615299 117 96 87
-0.040631574 -0.29589549 -0.68601644 117 96 87
-0.039954741 -0.29602173 -0.68596089 114 92 85
-0.040666576 -0.29818973 -0.68553454 111 89 85
-0.040750649 -0.29854527 -0.68546325 110 89 85
-0.059685204 -0.29954621 -0.68482381 202 189 169
-0.058868892 -0.29907244 -0.68499339 198 183 158
-0.053199142 -0.29989794 -0.6849938 166 137 126
-0.054035477 -0.30043364 -0.68477607 183 162 142
-0.053830747 -0.30001226 -0.68491852 175 150 133
-0.053981394 -0.29924428 -0.68514496 167 137 123
-0.053701077 -0.30107605 -0.6846 187 169 149
-0.05369205 -0.29938972 -0.68511862 166 135 122
-0.049293671 -0.29931107 -0.68513256 126 86 100
-0.051504217 -0.30180904 -0.68441594 177 157 147
-0.049404629 -0.30040598 -0.68481559 149 113 117
-0.04953669 -0.30117008 -0.68459463 164 132 130
-0.051920742 -0.3021436 -0.68432045 184 167 153
-0.049226921 -0.29931945 -0.68512988 127 85 100
-0.050831717 -0.29973295 -0.68503451 144 108 112
-0.051920071 -0.30155739 -0.68449658 175 155 144
-0.051705662 -0.30073065 -0.68474621 163 136 131
-0.052404258 -0.29974759 -0.68506271 156 123 118
-0.052343786 -0.30145803 -0.68453598 177 156 144
-0.051508807 -0.29994649 -0.68498302 152 119 118
-0.046286713 -0.3007746 -0.68475062 160 137 129
-0.047579288 -0.30192849 -0.6843968 179 154 143
-0.046496913 -0.30227464 -0.6843366 169 150 145
-0.046023287 -0.30252495 -0.68428344 166 149 147
-0.04816182 -0.3023172 -0.684273 187 160 147
-0.045773398 -0.30013269 -0.68494099 152 129 121
-0.046889797 -0.29937062 -0.68513906 137 106 107
-0.046851076 -0.29899669 -0.68524796 130 97 101
-0.048440058 -0.29894182 -0.68524307 121 79 94
-0.047935922 -0.30154207 -0.6844961 176 148 137
-0.048622448 -0.30072388 -0.68472421 156 120 121
-0.047946792 -0.30134141 -0.68455416 172 143 134
-0.041855745 -0.30102599 -0.68485224 125 100 103
-0.041982837 -0.30111209 -0.68482417 126 102 105
-0.041478813 -0.30272427 -0.68448275 127 92 103
-0.041432448 -0.3004818 -0.68500531 119 94 96
-0.04103139 -0.29957566 -0.68524086 113 89 88
-0.043904543 -0.29964507 -0.68512428 134 114 110
-0.042734109 -0.30044425 -0.68493509 130 112 112
-0.043663949 -0.29963043 -0.68513399 132 112 108
-0.042898331 -0.30058992 -0.68489164 132 115 115
-0.043631803 -0.30023497 -0.68497056 135 117 115
-0.044304244 -0.29980931 -0.68507016 137 118 114
-0.040913515 -0.30121824 -0.68485862 118 87 92
-0.045663755 -0.30341956 -0.68406236 162 138 147
-0.047597766 -0.30276641 -0.6841678 183 160 152
-0.041719254 -0.30373746 -0.68421209 133 102 110
-0.041485641 -0.30303192 -0.68440521 128 92 103
-0.043628518 -0.30348822 -0.6841557 143 111 127
-0.041761123 -0.30277166 -0.68445313 130 96 106
-0.04437086 -0.30348507 -0.68410915 149 122 136
-0.039841007 -0.30422637 -0.68411613 129 102 99
-0.037771203 -0.30474931 -0.68407398 119 90 86
-0.039841902 -0.30461502 -0.68404746 129 102 101
-0.038966104 -0.30494285 -0.6840108 125 97 96
-0.039280787 -0.30295837 -0.68442482 120 88 87
-0.040708214 -0.30415389 -0.68414569 131 102 104
0 0 0 1 0 0 0 1 0 0 0 1 0 0 0 0 0 389 1 0 0
