ply
format ascii 1.0
comment PCL generated
element vertex 125
property float x
property float y
property float z
property uchar red
property uchar green
property uchar blue
element camera 1
property float view_px
property float view_py
property float view_pz
property float x_axisx
property float x_axisy
property float x_axisz
property float y_axisx
property float y_axisy
property float y_axisz
property float z_axisx
property float z_axisy
property float z_axisz
property float focal
property float scalex
property float scaley
property float centerx
property float centery
property int viewportx
property int viewporty
property float k1
property float k2
end_header
0.3199369 0.058451474 -0.96383107 64 50 45
0.32106784 0.057886586 -0.9639352 51 38 36
0.32213363 0.057405934 -0.96349472 39 30 29
0.32124233 0.05778126 -0.96414047 48 35 34
0.32217899 0.057394091 -0.9633863 39 30 29
0.3201085 0.058389504 -0.96359956 63 49 44
0.32122532 0.057931032 -0.96219832 53 44 38
0.31888497 0.058610726 -0.96309197 65 46 45
0.31936586 0.058679797 -0.96414548 69 53 48
0.3184543 0.058960743 -0.9645896 75 54 51
0.32034898 0.05814987 -0.96232152 56 44 40
0.31852338 0.058765639 -0.96352571 69 48 47
0.32272235 0.056975048 -0.96213067 41 32 28
0.32275754 0.056935944 -0.96214873 41 32 28
0.3223913 0.057230376 -0.96301782 39 31 28
0.32246041 0.053365279 -0.96237344 33 19 21
0.32242441 0.052875485 -0.96195292 34 20 21
0.32254526 0.053745925 -0.96267229 34 20 22
0.32336074 0.053074036 -0.96167439 41 26 25
0.32328436 0.054473083 -0.96149594 42 29 26
0.32309783 0.056420505 -0.9617731 41 30 27
0.32320219 0.054791287 -0.96200323 40 27 26
0.32283798 0.056236934 -0.96422642 35 21 23
0.32314616 0.05630013 -0.96142703 42 32 27
0.31843305 0.057142731 -0.95236349 28 17 22
0.32163695 0.053528201 -0.95349848 44 32 32
0.32218733 0.053875342 -0.95340359 46 34 32
0.31865361 0.056098528 -0.95307571 26 14 22
0.32107392 0.051915832 -0.95340568 44 32 34
0.32083705 0.052324302 -0.95348895 41 30 32
0.32216963 0.050488979 -0.95233482 51 40 37
0.32219151 0.051739302 -0.9525339 50 39 36
0.32212961 0.051449694 -0.95268226 51 39 37
0.32265085 0.049968902 -0.95267147 52 40 36
0.32261685 0.050842885 -0.95262671 49 37 34
0.32234406 0.049758546 -0.95196438 51 39 36
0.32234272 0.052537691 -0.95257133 49 37 35
0.32186347 0.057315722 -0.95904601 51 42 34
0.32192898 0.057202604 -0.95835406 52 43 35
0.32177615 0.057535831 -0.96045619 48 41 34
0.32144091 0.057674173 -0.96089661 48 40 34
0.31955841 0.058037326 -0.96045816 55 38 38
0.32050979 0.057795323 -0.9602682 53 39 37
0.31989691 0.058079597 -0.95891309 51 35 34
0.31976557 0.057973474 -0.95967877 54 38 37
0.32061213 0.057784211 -0.95833004 51 37 34
0.32175064 0.057272162 -0.95757383 51 42 34
0.32118955 0.057544075 -0.95786619 51 39 33
0.31859544 0.058433782 -0.96072686 55 34 39
0.31842205 0.05872833 -0.95995253 51 30 35
0.32280385 0.056659047 -0.95919269 46 38 31
0.32245421 0.057094824 -0.95952368 48 41 32
0.32253626 0.056993634 -0.95941824 48 40 32
0.3233394 0.05394458 -0.96112496 42 29 26
0.32320809 0.055272654 -0.96025884 45 32 27
0.32328212 0.054438774 -0.96051395 44 30 27
0.32330391 0.054307573 -0.96090144 43 30 27
0.3233923 0.053067632 -0.96053815 44 28 26
0.32317826 0.053564627 -0.95751339 51 34 29
0.32315275 0.05408629 -0.95804143 50 34 29
0.32305971 0.05442984 -0.95786566 50 35 29
0.32312086 0.055767797 -0.96008837 45 33 28
0.32266784 0.056606282 -0.95810866 48 40 32
0.32319817 0.054522142 -0.95894039 48 33 28
0.32337043 0.052733921 -0.95888102 48 30 27
0.32281962 0.052438013 -0.96074462 38 23 23
0.32274261 0.052225579 -0.95873845 43 26 25
0.32246235 0.051570944 -0.9575721 44 26 26
0.32241598 0.051480662 -0.95745802 44 26 27
0.3193793 0.057177238 -0.95410669 30 21 24
0.31902072 0.057544526 -0.95404255 29 20 24
0.32164612 0.057006683 -0.95659816 47 39 32
0.32180056 0.056795295 -0.95641285 46 39 31
0.32046044 0.058041494 -0.95728594 45 32 29
0.31863111 0.059011176 -0.95692766 37 20 24
0.31868193 0.058768831 -0.95641911 36 20 24
0.3207809 0.057358559 -0.95611393 43 34 30
0.31995532 0.058031507 -0.95651853 41 28 28
0.32060686 0.057366278 -0.95587635 41 32 29
0.32110721 0.057324655 -0.95651251 45 36 31
0.31868356 0.055473235 -0.9536587 25 14 23
0.31960788 0.055670764 -0.95434076 31 20 25
0.32007173 0.054534223 -0.95538187 35 26 29
0.31930915 0.055995751 -0.95386314 28 18 23
0.32002762 0.054673746 -0.95526797 35 25 28
0.32022506 0.056081232 -0.95481467 35 25 26
0.32094011 0.055419847 -0.95590264 41 32 30
0.31902015 0.052937884 -0.9542225 29 17 27
0.3199248 0.05325998 -0.95402569 34 22 29
0.32122642 0.054079838 -0.95418954 41 30 30
0.32146391 0.055312075 -0.95560068 43 34 31
0.32154551 0.055226129 -0.95543706 44 34 31
0.3216151 0.054401014 -0.95434034 43 32 31
0.32138491 0.055678289 -0.95611936 43 35 31
0.31945559 0.053812765 -0.95502532 32 21 28
0.32274422 0.053681705 -0.95421606 46 35 32
0.32242352 0.054194979 -0.954041 47 35 32
0.32285145 0.053508155 -0.95427221 46 35 32
0.32284394 0.053727876 -0.9545719 47 36 32
0.32292461 0.053220633 -0.95438552 47 34 31
0.32283422 0.053919181 -0.95484638 47 36 32
0.32268554 0.055834763 -0.9570893 49 40 33
0.3231245 0.053498778 -0.95689583 50 34 29
0.32243863 0.049506299 -0.95518398 52 39 37
0.32313725 0.051106781 -0.95588255 54 38 33
0.32294995 0.050674684 -0.95568722 53 37 33
0.32280257 0.050650131 -0.9558897 51 35 33
0.32304856 0.049540315 -0.95407724 58 45 39
0.32303637 0.051448636 -0.95430827 51 38 34
0.32307079 0.051127899 -0.95458889 53 39 35
0.32312518 0.051825833 -0.95525408 51 36 32
0.32318187 0.051307332 -0.95571768 54 38 33
0.323127 0.051181585 -0.95515323 54 39 34
0.32282972 0.0488079 -0.9537546 58 46 41
0.32137045 0.057359505 -0.96661407 52 34 30
0.31991938 0.057791106 -0.96857262 79 57 38
0.3189179 0.05866364 -0.96870673 85 66 47
0.32002476 0.057730231 -0.96849287 78 55 38
0.32073569 0.057320163 -0.96795416 69 46 32
0.32086074 0.057837483 -0.96615827 52 37 34
0.31875983 0.058884751 -0.96557415 75 55 50
0.32074043 0.057903904 -0.96589583 53 37 35
0.31927782 0.058638856 -0.96528047 68 49 47
0.31955335 0.058480315 -0.96611011 68 49 44
0.3187618 0.058827218 -0.96758324 82 63 49
0 0 0 1 0 0 0 1 0 0 0 1 0 0 0 0 0 125 1 0 0
