ply
format ascii 1.0
comment PCL generated
element vertex 229
property float x
property float y
property float z
property uchar red
property uchar green
property uchar blue
element camera 1
property float view_px
property float view_py
property float view_pz
property float x_axisx
property float x_axisy
property float x_axisz
property float y_axisx
property float y_axisy
property float y_axisz
property float z_axisx
property float z_axisy
property float z_axisz
property float focal
property float scalex
property float scaley
property float centerx
property float centery
property int viewportx
property int viewporty
property float k1
property float k2
end_header
-0.29037601 -0.45389086 -0.82041585 24 20 24
-0.29063091 -0.4569692 -0.82063401 13 11 13
-0.28982687 -0.45772177 -0.82043624 30 26 29
-0.28994942 -0.45669702 -0.82004267 26 23 25
-0.28960031 -0.45839864 -0.82058078 34 31 34
-0.29042375 -0.45535377 -0.81998903 20 17 18
-0.29067385 -0.45531929 -0.82002532 15 11 13
-0.28923923 -0.45942113 -0.82045299 38 35 39
-0.28925398 -0.45905435 -0.82056689 39 36 40
-0.28925139 -0.46268669 -0.81994599 22 17 21
-0.2890279 -0.46139753 -0.8198368 34 29 33
-0.28891334 -0.46230116 -0.81977844 28 23 27
-0.28912339 -0.46231538 -0.81988287 26 21 25
-0.28647938 -0.46232277 -0.81882685 50 41 49
-0.29067859 -0.46499884 -0.82058477 4 3 4
-0.28934416 -0.46432742 -0.81994355 18 14 18
-0.28919429 -0.46303955 -0.81991225 21 15 20
-0.29070598 -0.4638783 -0.82063603 5 3 4
-0.28898066 -0.46379095 -0.81978077 22 17 22
-0.29096609 -0.46666801 -0.82067305 0 0 0
-0.28880197 -0.46463841 -0.81966829 25 19 24
-0.28733289 -0.46347034 -0.81899846 45 36 44
-0.28857908 -0.46666405 -0.81965631 61 56 59
-0.28929707 -0.46678007 -0.81996518 44 41 43
-0.28876466 -0.46607625 -0.81971103 47 42 46
-0.28888613 -0.46552092 -0.81973982 36 31 35
-0.28848839 -0.470579 -0.82051063 61 57 59
-0.28984249 -0.46706787 -0.8202191 30 28 29
-0.29017207 -0.46728167 -0.82037622 21 19 20
-0.28831667 -0.46715167 -0.8195796 70 64 67
-0.28918913 -0.46777368 -0.82000017 46 43 45
-0.28849387 -0.46725821 -0.81966341 65 60 63
-0.28915957 -0.47349095 -0.82031888 47 42 44
-0.28944057 -0.47318611 -0.82066035 39 35 36
-0.28908259 -0.47456181 -0.82018691 46 40 44
-0.2893306 -0.47405639 -0.82037163 42 37 39
-0.28827029 -0.47472623 -0.81965947 63 56 62
-0.28996363 -0.4765166 -0.81985986 23 21 23
-0.28990477 -0.47630283 -0.81991559 25 22 25
-0.29076347 -0.47590128 -0.82056814 5 5 5
-0.29005072 -0.47602558 -0.82011354 21 19 21
-0.28791913 -0.47552094 -0.81911725 71 64 70
-0.29061416 -0.478358 -0.81945634 10 10 10
-0.29866177 -0.44097275 -0.82893181 2 2 2
-0.2984882 -0.43954012 -0.8288756 0 0 2
-0.29817909 -0.43975171 -0.82863688 1 0 5
-0.29869363 -0.44362566 -0.82876343 1 1 2
-0.29370022 -0.43380323 -0.82458711 21 17 24
-0.29313433 -0.43308127 -0.82459134 31 26 35
-0.29317102 -0.43378639 -0.82417989 26 21 28
-0.29215935 -0.43549582 -0.82441807 33 31 41
-0.29430005 -0.43548867 -0.82450014 7 7 9
-0.29367414 -0.4344053 -0.82429695 18 15 19
-0.29248932 -0.43539396 -0.82441407 29 28 36
-0.29168084 -0.43467355 -0.82426363 41 38 49
-0.29337841 -0.43900958 -0.82414645 23 23 27
-0.29262921 -0.43887082 -0.8240816 35 35 41
-0.29343674 -0.43837547 -0.82424527 19 19 23
-0.29354817 -0.43930039 -0.82412338 22 22 26
-0.29304209 -0.43840569 -0.8241961 26 26 31
-0.29457065 -0.43779823 -0.82436073 4 4 5
-0.29463309 -0.43762881 -0.82437515 3 3 4
-0.2925956 -0.43662646 -0.82436693 27 26 34
-0.29450428 -0.43823546 -0.82432711 5 4 6
-0.29295886 -0.43669552 -0.82437617 23 22 29
-0.2922059 -0.4432947 -0.82450312 43 42 44
-0.29122472 -0.44216019 -0.8244158 60 59 63
-0.2910279 -0.44113994 -0.82420802 64 63 70
-0.29426938 -0.44319701 -0.82416821 10 10 11
-0.29167557 -0.44136056 -0.82415539 53 53 59
-0.2926586 -0.44138107 -0.82400167 37 37 43
-0.29459119 -0.44151029 -0.82413733 5 5 6
-0.29440865 -0.44252089 -0.82407624 8 8 9
-0.29284045 -0.43977785 -0.82400793 35 35 40
-0.29388115 -0.43977377 -0.82412612 17 17 20
-0.29491529 -0.44113001 -0.82418925 0 0 0
-0.29420602 -0.44183147 -0.82408077 12 12 13
-0.2907981 -0.44100261 -0.82404107 67 64 73
-0.29209268 -0.44657427 -0.82416099 33 21 38
-0.29143536 -0.44623154 -0.82335591 38 25 40
-0.29105398 -0.44619593 -0.82276565 39 25 40
-0.29187742 -0.44680652 -0.82363749 32 18 36
-0.29443598 -0.44388604 -0.82442069 7 7 7
-0.29476285 -0.44389218 -0.8243739 2 2 2
-0.29081193 -0.44554475 -0.82304728 48 34 48
-0.29087874 -0.44482309 -0.82364017 53 43 54
-0.29042053 -0.44391796 -0.82399017 66 57 67
-0.29057717 -0.44400939 -0.82403499 63 55 65
-0.29259244 -0.44743153 -0.82435256 26 12 32
-0.29199475 -0.44848555 -0.82277846 25 11 26
-0.29208875 -0.44833204 -0.82301897 25 11 27
-0.2935977 -0.45016125 -0.82440734 18 12 20
-0.29283416 -0.45050952 -0.82377559 24 19 28
-0.29280627 -0.45079055 -0.82384324 26 21 30
-0.2926825 -0.45046401 -0.82368451 26 20 29
-0.29184905 -0.4542076 -0.8211655 14 12 15
-0.29246375 -0.45475659 -0.82114953 9 7 9
-0.29457709 -0.45499676 -0.82234341 1 1 1
-0.29272538 -0.45499235 -0.82113439 6 4 5
-0.29250726 -0.45450792 -0.82137465 11 9 11
-0.29196075 -0.45336083 -0.82192385 22 20 26
-0.2928758 -0.45313844 -0.82269883 22 20 27
-0.29396129 -0.4536829 -0.82291752 11 10 14
-0.29426134 -0.45320171 -0.82338375 9 8 11
-0.29288515 -0.45207396 -0.82340956 25 22 29
-0.29378313 -0.45186457 -0.8240062 16 14 19
-0.29416043 -0.45247373 -0.82380444 11 10 13
-0.29457402 -0.45317084 -0.82355559 6 5 7
-0.29239357 -0.45570046 -0.82116526 4 3 4
-0.29198989 -0.45603371 -0.82107008 4 3 4
-0.29147977 -0.4572148 -0.82127446 4 4 5
-0.2910879 -0.45812064 -0.82142168 5 5 6
-0.29287657 -0.45592922 -0.82159239 3 2 2
-0.29140529 -0.4574354 -0.82132345 4 4 5
-0.29203981 -0.45800865 -0.8219679 3 5 5
-0.29489398 -0.45738009 -0.82340372 0 0 0
-0.29427546 -0.45638284 -0.82264191 0 1 1
-0.29416695 -0.45744392 -0.82299978 0 1 1
-0.29482159 -0.45792076 -0.82357591 0 0 0
-0.29444161 -0.45573625 -0.82248294 0 0 0
-0.29093063 -0.45892566 -0.82167029 6 8 9
-0.29484901 -0.4596104 -0.82409775 0 0 0
-0.29268861 -0.46158427 -0.82229298 1 1 1
-0.29273945 -0.46175575 -0.8223747 2 1 2
-0.2946761 -0.45950288 -0.82390553 0 0 0
-0.2923421 -0.46251833 -0.82211465 2 1 2
-0.29452959 -0.46098456 -0.82402557 1 1 1
-0.29343674 -0.46171367 -0.82306421 2 1 2
-0.29222023 -0.46222395 -0.82193989 2 1 2
-0.29222286 -0.46024612 -0.82217467 2 3 3
-0.29252902 -0.45969239 -0.82248235 2 3 3
-0.29262754 -0.46103725 -0.82223243 1 1 2
-0.2923106 -0.46075183 -0.82211065 2 2 3
-0.2932528 -0.45918226 -0.82302672 2 2 3
-0.29115677 -0.45993143 -0.82161707 4 5 6
-0.29099342 -0.46278545 -0.82086587 3 2 3
-0.29054177 -0.46185949 -0.82078755 11 9 10
-0.29042277 -0.45953247 -0.82124096 16 16 17
-0.29019082 -0.4596003 -0.82107502 21 20 21
-0.29138482 -0.46540871 -0.82102668 1 0 1
-0.29187274 -0.46604037 -0.82136607 0 0 0
-0.29296347 -0.46617955 -0.82217818 0 0 0
-0.29262334 -0.46624991 -0.82192016 0 0 0
-0.29181042 -0.46559805 -0.82133794 0 0 0
-0.29280022 -0.46629211 -0.82205105 0 0 0
-0.29367548 -0.46381509 -0.82324505 2 1 2
-0.29172164 -0.46355575 -0.82136744 2 1 2
-0.29224652 -0.46316156 -0.82200724 2 1 2
-0.29227039 -0.46407759 -0.82176369 2 1 2
-0.29328504 -0.4645083 -0.8226524 1 1 1
-0.29362297 -0.46525604 -0.82277203 1 0 1
-0.29310009 -0.46387911 -0.82265109 2 1 2
-0.29406917 -0.4638916 -0.82361633 2 1 2
-0.29488415 -0.46452048 -0.82423937 0 0 0
-0.29455343 -0.46682683 -0.82335484 0 0 0
-0.29168659 -0.46880546 -0.82187027 11 11 11
-0.29215387 -0.46918279 -0.82234687 13 14 14
-0.29234013 -0.46747383 -0.82191342 3 3 3
-0.29304609 -0.46818864 -0.82268196 7 8 8
-0.2912398 -0.46722838 -0.82100666 2 2 2
-0.29289436 -0.46799114 -0.82250214 6 6 6
-0.2943511 -0.46771878 -0.8232491 3 3 3
-0.29248226 -0.46955794 -0.82248694 13 14 14
-0.29490069 -0.46803322 -0.82314283 0 0 0
-0.29453415 -0.46739337 -0.82337987 2 2 2
-0.29267627 -0.47040474 -0.82216519 12 13 13
-0.29048175 -0.46862224 -0.821015 18 17 18
-0.28935945 -0.4698247 -0.82080626 41 39 40
-0.29042107 -0.47010839 -0.82148021 27 27 27
-0.29038134 -0.46853897 -0.82093233 19 18 18
-0.29183763 -0.47199121 -0.82177401 16 16 17
-0.29293215 -0.47397527 -0.82141113 8 8 8
-0.29101902 -0.47204325 -0.82172179 19 19 19
-0.29270089 -0.47396189 -0.82140237 9 9 9
-0.29337746 -0.47377965 -0.82147485 7 7 7
-0.29455447 -0.47071859 -0.82209891 2 2 2
-0.29425216 -0.47251058 -0.8217538 3 3 3
-0.29425079 -0.47090128 -0.82205623 3 3 3
-0.29492131 -0.4715645 -0.82195014 0 0 0
-0.29279169 -0.47085646 -0.82202429 11 12 12
-0.29081589 -0.47408217 -0.8211996 18 16 17
-0.28964728 -0.47080645 -0.82123822 41 40 41
-0.29038391 -0.47124511 -0.8215571 29 29 29
-0.28946841 -0.47189549 -0.82093525 41 39 40
-0.2947326 -0.43408927 -0.82513934 17 15 21
-0.29327801 -0.43211293 -0.82521254 45 39 51
-0.29429775 -0.43398333 -0.82490098 18 16 22
-0.2954635 -0.44722375 -0.82610792 2 4 6
-0.29718372 -0.44635549 -0.82728493 1 2 2
-0.2979801 -0.44624481 -0.82774085 0 1 1
-0.29797646 -0.44586036 -0.82785642 0 1 1
-0.29636636 -0.44409102 -0.82562131 2 3 6
-0.29731011 -0.44466501 -0.82680863 1 1 3
-0.29575124 -0.4466123 -0.82627875 2 3 5
-0.29704946 -0.44523802 -0.82684237 1 2 3
-0.29668611 -0.44445905 -0.82610935 2 2 5
-0.29629841 -0.44590014 -0.82645065 2 3 4
-0.29614672 -0.44590932 -0.82630986 2 3 5
-0.29850435 -0.4449805 -0.82811868 0 0 0
-0.2974267 -0.44383854 -0.82702774 4 4 6
-0.29802412 -0.44453517 -0.82760185 1 1 2
-0.29545927 -0.44377172 -0.82464665 2 2 5
-0.2933768 -0.4444797 -0.82483667 25 24 26
-0.2931892 -0.44454876 -0.82489204 28 28 29
-0.29422861 -0.44577804 -0.82527101 12 13 15
-0.29481745 -0.44555283 -0.82509357 2 3 4
-0.29171044 -0.4436352 -0.82472152 51 50 52
-0.29328075 -0.44664121 -0.82508218 23 17 27
-0.29330987 -0.44692221 -0.82502735 21 14 26
-0.29415274 -0.44696677 -0.82546937 12 11 16
-0.29289702 -0.44579357 -0.82508826 31 28 34
-0.29548484 -0.45082352 -0.82546169 1 1 2
-0.29521388 -0.44856656 -0.82574028 2 3 5
-0.2960588 -0.45093638 -0.82583112 2 1 3
-0.29528406 -0.45007819 -0.8254776 2 1 2
-0.29618424 -0.44965309 -0.82618076 3 3 5
-0.29543427 -0.45004439 -0.82558721 2 1 3
-0.29558885 -0.44881079 -0.82594657 3 3 5
-0.29664922 -0.44846818 -0.82666147 3 4 6
-0.29606113 -0.44758734 -0.82639515 2 3 5
-0.29834801 -0.45020276 -0.82747251 4 3 8
-0.29647854 -0.44824773 -0.82658237 3 4 6
-0.29608762 -0.44769973 -0.82640344 2 3 6
-0.29791009 -0.44871315 -0.82731706 2 2 5
-0.29451901 -0.45040089 -0.82497358 8 7 9
-0.29368398 -0.44799736 -0.82500237 16 10 21
-0.29410657 -0.44798017 -0.82523292 12 8 16
-0.29376552 -0.44982034 -0.82469743 17 12 20
-0.29402101 -0.44915485 -0.82496214 13 10 17
0 0 0 1 0 0 0 1 0 0 0 1 0 0 0 0 0 229 1 0 0
