ply
format ascii 1.0
comment PCL generated
element vertex 223
property float x
property float y
property float z
property uchar red
property uchar green
property uchar blue
element camera 1
property float view_px
property float view_py
property float view_pz
property float x_axisx
property float x_axisy
property float x_axisz
property float y_axisx
property float y_axisy
property float y_axisz
property float z_axisx
property float z_axisy
property float z_axisz
property float focal
property float scalex
property float scaley
property float centerx
property float centery
property int viewportx
property int viewporty
property float k1
property float k2
end_header
-0.23718409 0.017871656 -0.8066619 169 158 151
-0.24057199 0.013737505 -0.80888486 191 184 188
-0.23640823 0.017168473 -0.80511165 176 172 163
-0.23818159 0.015636971 -0.80664599 182 177 174
-0.23775807 0.014106834 -0.80571967 176 168 168
-0.23691462 0.01679451 -0.80557334 178 173 166
-0.23784861 0.014881801 -0.8060503 178 172 170
-0.23797864 0.014415079 -0.80605739 178 171 170
-0.23963465 0.013888114 -0.80775142 186 179 183
-0.23778298 0.017252166 -0.80725658 172 160 154
-0.23888481 0.016259685 -0.80824953 174 162 159
-0.23893473 0.015033329 -0.80734032 184 178 178
-0.23686004 0.017177965 -0.80569339 177 172 164
-0.23908967 0.015478181 -0.80795205 180 170 170
-0.23682696 0.017224113 -0.80567676 177 172 163
-0.24005282 0.014550908 -0.80871439 184 175 178
-0.24023701 0.013199469 -0.80786884 186 180 185
-0.24032249 0.011591748 -0.80628604 178 169 177
-0.24060889 0.012965652 -0.80810553 185 177 183
-0.24097152 0.012937353 -0.80869251 183 174 181
-0.2410859 0.011535735 -0.80729276 171 160 168
-0.24146928 0.010965727 -0.80734527 163 150 160
-0.24161828 0.011447069 -0.80817354 165 152 162
-0.24188852 0.011100325 -0.80827391 160 145 156
-0.24164169 0.010315288 -0.80691594 157 141 152
-0.24131176 0.010184181 -0.80615628 159 145 155
-0.2398316 0.012352169 -0.80653536 180 173 179
-0.23978205 0.012902658 -0.80705225 183 175 181
-0.24010926 0.011515437 -0.80597562 178 170 178
-0.23866247 0.012817428 -0.80571288 176 168 171
-0.23892343 0.013357869 -0.80656624 180 172 175
-0.23893163 0.011993388 -0.80515689 174 165 170
-0.24451327 0.0062102703 -0.80820924 132 103 126
-0.24437129 0.0066050873 -0.80814803 129 100 122
-0.24341802 0.0064851269 -0.80607164 124 94 107
-0.24347456 0.0083915144 -0.80810261 132 107 125
-0.24312316 0.0090034567 -0.80823058 134 111 127
-0.2434057 0.0082023954 -0.80781132 131 106 122
-0.24112928 0.0097645968 -0.80533731 158 144 153
-0.24215473 0.0088253412 -0.80626202 144 123 135
-0.24290375 0.0091458065 -0.80797499 137 115 130
-0.24154352 0.0090557812 -0.80537128 151 133 143
-0.24301416 0.0075380374 -0.8065213 130 103 115
-0.2425717 0.0079006152 -0.80607831 136 111 122
-0.2430699 0.0083266106 -0.80743718 132 107 121
-0.24512477 0.0025047753 -0.80887395 163 141 147
-0.24487291 0.0036509873 -0.80842173 150 124 136
-0.24507074 0.003178536 -0.80887431 159 136 147
-0.24455991 0.0032492434 -0.80722123 140 112 118
-0.24425159 0.0029815682 -0.80599809 132 100 103
-0.24427253 0.0042174938 -0.80661058 126 94 103
-0.24451564 0.0029333804 -0.80692494 141 111 116
-0.24443969 0.0039303228 -0.80708575 133 103 112
-0.24456303 0.003407428 -0.80730116 140 111 118
-0.24413198 0.0030076173 -0.80559033 129 95 97
-0.24367116 0.0042325966 -0.80527854 126 93 97
-0.24402 0.0033418422 -0.80552423 128 94 97
-0.24406815 0.0045503844 -0.80614352 121 87 97
-0.24539264 0.0012454703 -0.80877459 163 138 147
-0.24179131 0.015018484 -0.81725734 170 154 153
-0.24206837 0.014540314 -0.81699342 166 151 149
-0.24276061 0.014524481 -0.82048839 151 126 115
-0.24239084 0.015100362 -0.82052779 153 129 120
-0.24424376 0.012269909 -0.81996 176 157 148
-0.24435115 0.01213803 -0.81985301 176 158 150
-0.24446473 0.012093397 -0.82016975 176 158 148
-0.24461927 0.01197192 -0.82039529 178 160 151
-0.24342048 0.013412958 -0.82007819 156 132 119
-0.24400212 0.012353566 -0.81908232 176 158 153
-0.24371392 0.012558158 -0.81830806 173 156 153
-0.243788 0.012284191 -0.81755477 176 161 162
-0.24381399 0.012746317 -0.8196919 170 152 142
-0.24107711 0.0068701054 -0.80101854 181 165 174
-0.24059667 0.0061815567 -0.7991547 156 137 147
-0.24054295 0.0074954275 -0.79986578 151 129 143
-0.24130507 0.0041825641 -0.79936045 180 162 161
-0.2410249 0.0047887014 -0.79913741 170 151 155
-0.24081764 0.0053286622 -0.79906434 164 145 151
-0.24132027 0.0048891413 -0.80011535 188 172 174
-0.2405359 0.005689912 -0.79859066 152 131 140
-0.24179864 0.0025292682 -0.79957908 167 145 141
-0.24166259 0.0036290211 -0.80015504 178 159 158
-0.24143718 0.0035123755 -0.79915899 176 156 154
-0.24156377 0.0021398838 -0.79827178 162 139 132
-0.24173509 0.0031048101 -0.79991025 172 153 150
-0.24161257 0.0028105574 -0.79913664 169 148 144
-0.24217808 0.00059254817 -0.80000859 162 148 143
-0.24169074 -0.0016112741 -0.79769915 163 166 157
-0.24234591 0.0006705639 -0.80041158 160 143 138
-0.2419571 0.00060051144 -0.79931194 162 150 144
-0.24182826 0.0019040765 -0.79910368 161 138 132
-0.24169141 0.0013453588 -0.79844421 161 142 135
-0.2418766 0.0016776384 -0.79924107 161 141 134
-0.2420965 0.00085909013 -0.7999137 163 149 143
-0.24168622 0.0010776834 -0.79836369 161 144 137
-0.24220334 -0.0027604476 -0.79845375 154 141 141
-0.24178986 -0.002651599 -0.79759085 160 156 153
-0.2420356 -0.0030977698 -0.79803663 156 143 145
-0.24240348 -0.0026269618 -0.79890418 152 136 136
-0.23989013 0.018611519 -0.81585395 188 172 173
-0.24049702 0.015988518 -0.81469202 189 177 173
-0.24026978 0.015946031 -0.81364512 174 163 154
-0.24089402 0.015196048 -0.81432259 191 179 178
-0.2419589 0.014127186 -0.81557721 172 159 156
-0.24149485 0.01441648 -0.81464195 183 171 169
-0.24197607 0.01437543 -0.81620669 171 157 154
-0.2414981 0.01468932 -0.8152799 182 169 168
-0.24049346 0.016687579 -0.81640649 203 188 190
-0.24189597 0.013746805 -0.81448656 174 162 160
-0.23973946 0.017487934 -0.81626588 189 172 176
-0.24003267 0.016298328 -0.81369948 171 158 150
-0.24015394 0.016361456 -0.81427604 179 167 160
-0.24419597 0.010655116 -0.8150835 180 157 175
-0.24495088 0.010043967 -0.81534398 181 163 178
-0.24516466 0.010169533 -0.81596971 184 169 180
-0.24458189 0.010239188 -0.81502539 180 159 176
-0.24402852 0.010083036 -0.81379956 175 147 170
-0.24373804 0.0099656135 -0.81321281 172 141 165
-0.24366084 0.011940791 -0.81625032 175 158 166
-0.24300928 0.012998408 -0.81655562 164 148 148
-0.24350873 0.011021748 -0.81442988 170 145 160
-0.24217391 0.013379253 -0.81469005 171 157 156
-0.24295165 0.012072971 -0.81477022 166 145 152
-0.24275696 0.011637194 -0.81323135 175 153 166
-0.24213393 0.012907716 -0.81361324 177 162 165
-0.24223666 0.012412042 -0.81298041 180 162 170
-0.2445565 0.0087635312 -0.81297708 163 134 155
-0.24524558 0.0077159605 -0.81315356 153 126 140
-0.24542087 0.0083597004 -0.81410748 154 121 141
-0.24582635 0.0092867985 -0.81589568 175 159 169
-0.24468796 0.0094566699 -0.81399328 171 143 165
-0.24387169 0.0096810823 -0.81292957 171 140 165
-0.23673862 0.015764348 -0.80489385 172 166 161
-0.23717089 0.014062242 -0.80471474 168 159 159
-0.23687284 0.015193607 -0.80468404 169 162 158
-0.23615818 0.016837671 -0.80389762 165 159 152
-0.2407008 0.0099470261 -0.80396223 155 138 149
-0.23947425 0.011266939 -0.80420178 163 153 161
-0.23841147 0.012435418 -0.80454439 166 157 161
-0.23927322 0.011490775 -0.80430305 164 154 161
-0.24001612 0.010620663 -0.80322397 155 138 154
-0.23960392 0.011076221 -0.80345535 155 142 154
-0.24134864 0.0074462336 -0.80307376 177 163 169
-0.24164382 0.0080138352 -0.80438614 156 138 146
-0.24146131 0.0076578711 -0.80356866 169 153 161
-0.24165264 0.0083329063 -0.8047871 151 132 141
-0.2416691 0.0071460023 -0.80340129 168 150 157
-0.24131113 0.0081515238 -0.80383778 169 153 161
-0.24199854 0.0071722232 -0.80413896 153 132 140
-0.24091151 0.0094193555 -0.80358696 155 136 148
-0.24121781 0.0067113014 -0.80147874 187 172 179
-0.24107584 0.0073249629 -0.80119056 174 155 165
-0.24102528 0.0077830385 -0.80156022 168 150 160
-0.24298272 0.0049016206 -0.8041479 131 102 108
-0.24354506 0.003348287 -0.80456769 134 102 103
-0.24317384 0.0043231575 -0.80426353 132 102 106
-0.2433279 0.0039942595 -0.80443031 132 102 104
-0.24201979 0.0050032684 -0.80213881 172 153 157
-0.24214643 0.0028394423 -0.80121315 170 151 149
-0.24209107 0.0037417896 -0.80159372 171 152 153
-0.24224001 0.0046192249 -0.80239844 163 142 146
-0.24163628 0.0056236568 -0.80165988 188 172 177
-0.24436679 0.00043343613 -0.80460411 135 89 104
-0.24430037 0.0010376861 -0.80487114 135 93 102
-0.24391115 0.001774091 -0.80452758 137 105 101
-0.24270751 0.014486367 -0.82077414 147 121 110
-0.24101043 0.0028094675 -0.79717058 151 125 122
-0.24049979 0.0037147505 -0.79682493 139 111 114
-0.24087684 0.0033273867 -0.79723603 147 122 121
-0.24023244 0.0034741149 -0.79624832 134 102 109
-0.24133947 0.0010489061 -0.79715508 159 141 133
-0.2409457 0.0016176855 -0.79655612 151 124 121
-0.24108897 -0.0004220634 -0.79659802 154 143 139
-0.24083191 -0.0011496998 -0.79597753 152 144 138
-0.24042247 -0.0019308991 -0.79504448 149 143 134
-0.24084844 -0.00060109433 -0.7961117 151 139 135
-0.24015941 -0.0017033202 -0.79462337 146 135 128
-0.2398638 -0.0010431915 -0.79434544 146 126 122
-0.23956744 3.7240214e-05 -0.7941606 147 117 119
-0.23963852 0.00080127222 -0.79440945 146 114 118
-0.24095613 -0.0019619828 -0.79606307 156 155 146
-0.24079536 -0.0024970893 -0.7955541 156 143 147
-0.24142975 -0.0030754113 -0.79667133 163 149 159
-0.24030693 0.014698986 -0.80986792 182 173 172
-0.24081114 0.014420691 -0.81186807 179 170 166
-0.24040395 0.014984756 -0.81157416 174 166 159
-0.24072395 0.013999041 -0.81020123 186 178 180
-0.23971026 0.016033139 -0.81049031 170 158 152
-0.24000485 0.015386944 -0.81019998 176 165 162
-0.23978515 0.016089886 -0.81120008 168 156 147
-0.24004501 0.014984074 -0.80904442 183 172 173
-0.23993269 0.015325734 -0.80949289 179 168 166
-0.24318117 0.010325247 -0.81144619 161 136 154
-0.24243774 0.011644454 -0.81156003 166 148 158
-0.24339974 0.0099470019 -0.81144691 160 133 153
-0.24266556 0.011279412 -0.81166452 166 146 158
-0.24358401 0.0099742338 -0.81267744 170 140 163
-0.24319266 0.0098372614 -0.80978274 145 122 140
-0.24111263 0.013155151 -0.80955642 183 174 180
-0.2427585 0.010403341 -0.80923128 146 127 142
-0.24159385 0.012856377 -0.81097853 177 165 170
-0.24199907 0.011916249 -0.81011075 165 151 160
-0.24218868 0.01163 -0.81016558 161 146 155
-0.24098426 0.013233949 -0.8091743 185 176 182
-0.24414717 0.0086639822 -0.81025845 144 117 142
-0.24459761 0.0069614532 -0.80945128 145 118 145
-0.24421515 0.008765107 -0.81142116 157 128 154
-0.24510248 0.0061554695 -0.81012642 146 119 141
-0.24523565 0.0065072998 -0.81113803 146 120 138
-0.2446451 0.0070594293 -0.81031716 154 126 152
-0.24469735 0.0083440691 -0.81270349 160 130 151
-0.24371029 0.0096272109 -0.81172794 161 132 155
-0.24408849 0.0088343471 -0.81053597 147 120 145
-0.24345395 0.0093419896 -0.80920255 138 115 135
-0.24387018 0.0087211924 -0.80904472 134 110 133
-0.24570201 0.0037307399 -0.81084651 151 129 132
-0.24535134 0.0024470615 -0.80951256 163 142 145
-0.24551687 0.0040766578 -0.81042868 152 128 136
-0.24568592 0.0042781089 -0.8109867 149 126 131
-0.24529694 0.0035071473 -0.80962825 157 134 143
-0.24539496 0.0049425624 -0.8102712 147 123 137
-0.2455897 0.0048565422 -0.81083691 146 122 132
-0.24509783 0.0044005779 -0.80924481 154 129 146
0 0 0 1 0 0 0 1 0 0 0 1 0 0 0 0 0 223 1 0 0
