ply
format ascii 1.0
comment PCL generated
element vertex 255
property float x
property float y
property float z
property uchar red
property uchar green
property uchar blue
element camera 1
property float view_px
property float view_py
property float view_pz
property float x_axisx
property float x_axisy
property float x_axisz
property float y_axisx
property float y_axisy
property float y_axisz
property float z_axisx
property float z_axisy
property float z_axisz
property float focal
property float scalex
property float scaley
property float centerx
property float centery
property int viewportx
property int viewporty
property float k1
property float k2
end_header
-0.35746562 0.045439251 -0.89503932 3 3 2
-0.35778996 0.048140675 -0.89763063 80 73 59
-0.35773084 0.047048457 -0.8968482 56 51 41
-0.35749465 0.047846165 -0.89636534 47 43 35
-0.35788214 0.046391647 -0.89826447 42 38 31
-0.35784963 0.046820853 -0.89779377 54 50 40
-0.3578895 0.046567511 -0.898283 47 43 35
-0.3578513 0.047245543 -0.89767414 67 61 49
-0.35787165 0.047587257 -0.89777201 77 70 57
-0.35619631 0.045365017 -0.89495617 42 35 32
-0.35607666 0.047176443 -0.89587295 77 67 58
-0.35676757 0.045794927 -0.8951264 29 24 21
-0.35729948 0.043362439 -0.89551699 62 54 50
-0.35644469 0.0437169 -0.89538556 78 67 62
-0.36582997 0.050655738 -0.91150469 32 28 27
-0.3665522 0.045938987 -0.91192508 6 5 5
-0.36695457 0.045121301 -0.91344458 51 43 40
-0.36710519 0.045708235 -0.91426963 55 47 44
-0.36691153 0.046024825 -0.91351622 35 30 28
-0.36716655 0.044945151 -0.9143182 71 60 56
-0.36698702 0.04157754 -0.91195738 88 76 73
-0.36715037 0.043189183 -0.91353583 78 67 64
-0.36712405 0.042223778 -0.91302967 80 70 66
-0.36708474 0.042359516 -0.91283667 82 71 68
-0.36717883 0.041319106 -0.91304308 79 69 65
-0.36694041 0.042277176 -0.91192091 89 77 74
-0.36711711 0.044604439 -0.91392338 71 61 57
-0.36685807 0.0438543 -0.91238642 61 52 50
-0.36710852 0.044350412 -0.91374791 74 64 60
-0.36687565 0.042447999 -0.91169876 83 72 69
-0.36693978 0.043258823 -0.91241902 77 66 63
-0.36917159 0.037946019 -0.91255188 53 43 41
-0.36960909 0.037601061 -0.9133451 80 64 62
-0.36948216 0.037395902 -0.91206801 43 34 33
-0.36948457 0.037587918 -0.91273475 61 49 48
-0.3684195 0.039439715 -0.9138276 95 79 76
-0.3683379 0.039404489 -0.91317594 101 83 81
-0.36819193 0.039818414 -0.91404587 88 74 70
-0.36793798 0.040127758 -0.91380656 85 73 69
-0.36880404 0.038671229 -0.91311502 82 67 65
-0.36867419 0.038641054 -0.91233718 67 55 53
-0.36865869 0.03863262 -0.91222799 64 53 51
-0.36764592 0.039858241 -0.91109377 76 65 64
-0.3685911 0.038453102 -0.9112702 42 35 34
-0.36753491 0.039878279 -0.91058362 67 58 57
-0.37131712 0.034295071 -0.91298729 23 19 18
-0.37024012 0.035197832 -0.91270262 59 48 46
-0.37173599 0.035195667 -0.91425616 48 39 38
-0.37208509 0.034779556 -0.91423416 33 26 25
-0.37114707 0.03570288 -0.91411299 68 55 53
-0.37157431 0.034626231 -0.91356117 32 25 25
-0.37031037 0.034814686 -0.91242117 47 38 36
-0.37185618 0.034833167 -0.91404575 36 29 28
-0.37004146 0.03513531 -0.91229969 53 43 41
-0.37015581 0.036973353 -0.91405654 106 86 83
-0.3699294 0.035757739 -0.91220987 50 40 39
-0.36966929 0.03649183 -0.91152269 29 23 23
-0.37306842 0.038819376 -0.92261142 92 78 74
-0.37371391 0.038145192 -0.92344618 93 80 75
-0.37555739 0.037149891 -0.9260419 59 54 48
-0.37522501 0.037399385 -0.92570144 63 56 50
-0.37484854 0.037559312 -0.92509305 71 63 57
-0.374598 0.038138192 -0.92554605 57 51 46
-0.37357697 0.039205637 -0.92504686 55 47 44
-0.37484595 0.037562333 -0.92509234 71 63 57
-0.37258542 0.040726487 -0.92497647 15 13 11
-0.37304616 0.040031668 -0.92512178 42 36 33
-0.37297893 0.039389502 -0.9235003 69 59 55
-0.37281576 0.040520966 -0.92530984 21 18 16
-0.37289217 0.039723098 -0.92389011 55 47 44
-0.37697506 0.034901284 -0.92503071 66 58 53
-0.37713283 0.034729239 -0.92525923 72 62 57
-0.37782624 0.033817176 -0.92550635 87 76 69
-0.37529221 0.036501113 -0.92444521 97 85 78
-0.37615445 0.035632275 -0.92523289 98 86 79
-0.37645024 0.035483692 -0.92572165 93 81 74
-0.37558046 0.03595607 -0.92406893 101 87 81
-0.37512693 0.036260441 -0.92283142 91 78 73
-0.37568805 0.035856772 -0.9236663 87 75 70
-0.37611991 0.035547137 -0.92433578 85 73 68
-0.37906203 0.031776112 -0.92603689 72 63 57
-0.37846556 0.032800708 -0.92562073 97 85 77
-0.37839246 0.032959767 -0.92560238 97 85 76
-0.36082837 0.048849005 -0.90138716 17 16 13
-0.36220995 0.046400353 -0.90271622 0 0 0
-0.36176807 0.048102081 -0.90227395 0 0 0
-0.36166176 0.045966886 -0.90216881 0 0 0
-0.36113226 0.045273192 -0.9016645 0 0 0
-0.3613053 0.045368753 -0.90181589 0 0 0
-0.35932603 0.046222031 -0.90008324 0 0 0
-0.36062506 0.045492381 -0.90122044 0 0 0
-0.36054432 0.047308732 -0.90114892 0 0 0
-0.35995898 0.047269639 -0.90063667 0 0 0
-0.35796979 0.046813063 -0.89884549 54 49 40
-0.35839146 0.04832194 -0.89918488 84 77 63
-0.36048326 0.048159871 -0.90108687 8 7 6
-0.35911065 0.048740067 -0.89982527 72 66 54
-0.35941416 0.04770444 -0.90013015 31 28 23
-0.3597832 0.048670247 -0.9004373 47 43 35
-0.36125988 0.04484259 -0.9016915 0 0 0
-0.36058232 0.044222761 -0.90043592 0 0 0
-0.3592968 0.0443497 -0.89944661 0 0 0
-0.36011884 0.043390233 -0.89914042 0 0 0
-0.36126062 0.042405784 -0.89908731 0 0 0
-0.36094123 0.044921488 -0.90149695 0 0 0
-0.37091142 0.041227002 -0.91888499 80 68 66
-0.37145698 0.041142356 -0.92123127 24 20 20
-0.37129927 0.041376173 -0.92071342 36 31 30
-0.37092286 0.042609528 -0.91999465 54 45 44
-0.3713997 0.041328005 -0.92112035 27 23 22
-0.37059486 0.042246453 -0.91875559 63 54 52
-0.37092787 0.043958575 -0.92114323 22 19 18
-0.37084165 0.044533361 -0.92139304 9 7 7
-0.37058756 0.043185383 -0.9195357 41 35 34
-0.37053251 0.04462596 -0.92061049 7 5 5
-0.37032518 0.043832947 -0.91935664 25 22 21
-0.37338066 0.037282117 -0.92093748 87 75 70
-0.37302598 0.038526081 -0.92196447 94 79 75
-0.37240198 0.038504954 -0.92043936 43 36 34
-0.37242728 0.038373951 -0.92031825 44 38 35
-0.37234032 0.039290626 -0.92138427 42 36 34
-0.3719607 0.040092137 -0.9215799 15 13 12
-0.3720156 0.038935486 -0.92003304 19 16 15
-0.37137902 0.039650317 -0.91844636 68 58 56
-0.37145936 0.040170409 -0.91969383 47 40 39
-0.37165862 0.040095154 -0.92044544 28 24 23
-0.37170753 0.039976761 -0.92045832 26 22 21
-0.37145799 0.040588107 -0.92040461 37 31 30
-0.37394199 0.035457443 -0.91862756 44 38 35
-0.3739807 0.035314798 -0.91844064 40 35 33
-0.37457043 0.035151485 -0.91924965 49 43 40
-0.37584421 0.033254061 -0.91847682 47 41 37
-0.37520701 0.034109481 -0.91875702 51 44 41
-0.37415215 0.036316972 -0.92057747 69 59 56
-0.37414816 0.036577199 -0.92124355 90 77 73
-0.37372887 0.036717035 -0.92053878 74 63 60
-0.37449721 0.036093991 -0.92087716 74 63 60
-0.37584135 0.034867726 -0.92093146 47 40 38
-0.3747474 0.036467113 -0.92215741 93 80 75
-0.37301955 0.036865585 -0.91930032 51 44 41
-0.37588522 0.03281597 -0.91845149 42 37 33
-0.36240456 0.049026839 -0.90436947 37 33 27
-0.36254784 0.05001349 -0.90548116 62 56 46
-0.36242816 0.046438158 -0.905316 63 55 47
-0.36230204 0.045622591 -0.90348065 17 15 12
-0.3624095 0.046359781 -0.9049769 54 47 40
-0.3622992 0.04515858 -0.90415287 37 31 28
-0.36245969 0.046823163 -0.90548497 66 58 49
-0.36228472 0.047526889 -0.90327662 12 11 9
-0.36227664 0.045619193 -0.90320826 10 9 7
-0.36225682 0.046508949 -0.90301329 6 5 4
-0.3624866 0.047587182 -0.90521908 57 51 41
-0.36232373 0.046981402 -0.90365475 21 19 15
-0.36499736 0.049463559 -0.90918159 30 27 24
-0.36453238 0.045175131 -0.90874928 26 21 20
-0.36469606 0.046391331 -0.90876687 20 16 15
-0.36419603 0.046668623 -0.90823597 38 31 29
-0.36389324 0.046064179 -0.90800679 49 40 38
-0.36442605 0.04753314 -0.90836155 30 24 23
-0.36350465 0.047701061 -0.90750009 61 53 46
-0.36361977 0.048663191 -0.90754867 56 50 40
-0.3632004 0.047861047 -0.90721327 72 62 53
-0.36359683 0.04790752 -0.90757203 58 50 43
-0.36639687 0.043709192 -0.91048968 30 26 25
-0.36648679 0.041959111 -0.91036141 74 64 62
-0.36598617 0.041204367 -0.9090398 62 54 53
-0.36579835 0.042170413 -0.9091689 46 40 39
-0.36615533 0.041431859 -0.90949637 67 59 57
-0.36591864 0.043188561 -0.9099406 43 37 36
-0.36514375 0.042171367 -0.90794319 22 19 19
-0.36504465 0.042571854 -0.90804362 18 16 15
-0.36383128 0.043098755 -0.90709567 52 44 41
-0.36361066 0.043663371 -0.90718138 60 50 47
-0.36408287 0.042944442 -0.90726268 43 36 34
-0.36453173 0.04443296 -0.90851444 26 21 20
-0.36339533 0.043854408 -0.9070704 68 56 53
-0.36444053 0.044001989 -0.90819061 29 24 23
-0.36802575 0.045412373 -0.91600913 42 36 33
-0.36861199 0.045583319 -0.91704619 20 17 16
-0.3673687 0.045776539 -0.91552842 53 45 42
-0.36766997 0.047830511 -0.91800427 6 5 5
-0.36733457 0.045475453 -0.91517574 60 51 48
-0.36833805 0.047249015 -0.91807336 5 4 4
-0.36772496 0.045589428 -0.91569507 50 42 40
-0.3671124 0.046318948 -0.914913 47 40 37
-0.36703411 0.047443975 -0.91454309 26 22 20
-0.36702099 0.047705136 -0.91489691 21 18 16
-0.36942133 0.044569094 -0.91791475 8 7 6
-0.3692821 0.043218877 -0.91732037 38 32 31
-0.37005764 0.042766977 -0.9180367 51 43 42
-0.36979455 0.043257564 -0.91789478 39 33 32
-0.36858779 0.042182919 -0.91619295 54 47 44
-0.36904767 0.043134425 -0.91702837 38 32 31
-0.36903986 0.044313848 -0.91737264 12 10 10
-0.36748004 0.041907243 -0.91462868 65 58 53
-0.36741877 0.041595422 -0.9144969 67 60 55
-0.36861202 0.043832336 -0.91669297 20 18 17
-0.36750257 0.04304653 -0.91477591 63 55 51
-0.36869356 0.044384174 -0.9168815 17 15 14
-0.36936906 0.039206177 -0.91525239 100 82 79
-0.36932161 0.038387246 -0.91451907 105 85 82
-0.37009382 0.039411638 -0.9162209 101 84 81
-0.36968234 0.039356776 -0.91572344 100 83 80
-0.36945334 0.040485173 -0.91640776 91 76 74
-0.37069237 0.038182262 -0.91608334 99 81 78
-0.3708258 0.040162422 -0.91774333 93 78 76
-0.37126395 0.038003389 -0.91700715 75 62 60
-0.37193966 0.037283156 -0.91773576 47 39 37
-0.37023562 0.037113082 -0.9144792 118 95 92
-0.37144411 0.038070418 -0.91738653 67 56 54
-0.36891454 0.039926481 -0.91532815 91 76 73
-0.36796325 0.040858723 -0.91496503 74 65 61
-0.36835483 0.040528215 -0.91515881 81 69 66
-0.37321001 0.035942145 -0.91799998 30 26 25
-0.37537658 0.033557132 -0.91815907 46 40 37
-0.37488005 0.033462726 -0.91703385 32 28 25
-0.37525424 0.03368276 -0.91813475 45 39 36
-0.37341014 0.035388775 -0.91744894 26 23 21
-0.37326184 0.036041737 -0.91826981 33 29 27
-0.37180209 0.036752865 -0.91676092 67 56 53
-0.37232026 0.035171673 -0.91513491 36 29 28
-0.37160349 0.0366427 -0.91621566 75 62 59
-0.37292284 0.035989143 -0.91756254 31 27 25
-0.37247184 0.035577632 -0.91607094 37 31 30
-0.37207904 0.035411801 -0.91508466 46 37 36
-0.37114066 0.03644599 -0.91505134 85 69 66
-0.37555459 0.031381208 -0.91730613 27 24 21
-0.37508956 0.032143947 -0.91644126 25 22 20
-0.37498564 0.032547664 -0.91645217 26 23 20
-0.37530741 0.032534055 -0.91707039 34 30 27
-0.37554824 0.032735504 -0.91764462 41 36 33
-0.37315339 0.042769201 -0.93006939 84 67 74
-0.37365428 0.04137611 -0.92817295 42 34 37
-0.37407526 0.041025344 -0.92811036 37 30 32
-0.3735784 0.039942537 -0.92628634 28 25 23
-0.37512341 0.039805613 -0.92828923 52 44 45
-0.37472075 0.040536329 -0.92849457 47 38 41
-0.37561437 0.037783928 -0.92684472 58 52 48
-0.37500957 0.039093778 -0.92737722 49 43 42
-0.37380478 0.040488772 -0.92715544 31 26 27
-0.37366813 0.040664606 -0.92714888 29 24 25
-0.37493405 0.040204395 -0.92844403 50 41 43
-0.37584487 0.038284715 -0.92934126 116 101 96
-0.37576187 0.039262693 -0.92996949 107 91 89
-0.37568247 0.038229093 -0.92796826 78 68 64
-0.37600854 0.037583396 -0.92972457 147 128 120
-0.37577686 0.038194682 -0.9286781 99 87 82
-0.37786171 0.033330463 -0.92700654 89 78 70
-0.37713239 0.034013674 -0.92760473 65 56 51
-0.37757877 0.033383731 -0.92766261 70 61 55
-0.37649012 0.035246059 -0.92713368 60 53 47
-0.37633574 0.035322648 -0.92923862 71 62 57
-0.37621394 0.035796698 -0.92892146 82 72 66
-0.37624425 0.036381081 -0.92997462 137 120 111
-0.37613919 0.036821045 -0.92974418 149 131 121
0 0 0 1 0 0 0 1 0 0 0 1 0 0 0 0 0 255 1 0 0
