ply
format ascii 1.0
comment PCL generated
element vertex 229
property float x
property float y
property float z
property uchar red
property uchar green
property uchar blue
element camera 1
property float view_px
property float view_py
property float view_pz
property float x_axisx
property float x_axisy
property float x_axisz
property float y_axisx
property float y_axisy
property float y_axisz
property float z_axisx
property float z_axisy
property float z_axisz
property float focal
property float scalex
property float scaley
property float centerx
property float centery
property int viewportx
property int viewporty
property float k1
property float k2
end_header
0.046584886 -0.086456865 -0.72494674 206 210 242
0.046978794 -0.086792327 -0.7254473 197 201 241
0.046544906 -0.087377816 -0.72601378 190 198 239
0.046530604 -0.086849853 -0.72539186 200 205 241
0.047027111 -0.087086216 -0.72580451 191 196 240
0.048573054 -0.086018451 -0.72495937 207 208 242
0.048228085 -0.086249508 -0.72514099 203 204 242
0.048362568 -0.087273449 -0.72638839 178 179 237
0.046186473 -0.08588744 -0.72416955 221 224 245
0.048137154 -0.086940475 -0.72593445 187 188 239
0.05027369 -0.08620318 -0.72560054 213 219 244
0.048925392 -0.085949257 -0.72496921 208 210 242
0.049726974 -0.086640403 -0.72598368 198 202 241
0.04935351 -0.085622653 -0.72468781 220 222 245
0.049705435 -0.086603627 -0.72593492 199 203 241
0.048896477 -0.087523691 -0.72682512 170 171 236
0.051420867 -0.086716473 -0.72648937 211 219 244
0.046029236 -0.087910667 -0.72653049 182 194 237
0.078523517 -0.087749071 -0.73880768 131 147 217
0.081698276 -0.087550811 -0.74058408 120 123 196
0.083959542 -0.085909061 -0.73985422 185 188 224
0.082982548 -0.08782316 -0.74173582 108 107 189
0.083690144 -0.085297517 -0.7388919 210 216 236
0.082715355 -0.087756529 -0.74148321 111 111 190
0.081642315 -0.087146968 -0.74002433 137 141 204
0.083118297 -0.086064726 -0.73953414 179 184 222
0.080691367 -0.087202974 -0.73950714 138 145 207
0.082874678 -0.085636765 -0.73882693 199 206 233
0.081010096 -0.086726099 -0.73908579 160 168 219
0.0842795 -0.086964339 -0.74140722 139 139 202
0.084344946 -0.086092338 -0.74031031 174 176 218
0.084030181 -0.087880239 -0.74245697 104 102 186
0.084692217 -0.087639607 -0.74250907 114 113 191
0.086669065 -0.08677116 -0.74247909 154 154 213
0.085575275 -0.086615592 -0.74168032 150 149 207
0.075771309 -0.089532934 -0.74107629 98 92 139
0.075494215 -0.089128777 -0.73995 111 113 167
0.075843945 -0.089997306 -0.74222422 88 72 110
0.074731983 -0.088762909 -0.73867261 116 125 187
0.074857391 -0.088945158 -0.73916095 116 122 180
0.07927081 -0.088569336 -0.74099231 90 84 160
0.080072425 -0.08890906 -0.74227697 69 49 129
0.078446232 -0.088695489 -0.74074757 89 84 159
0.076778509 -0.088376768 -0.73895895 114 125 196
0.078477733 -0.088559084 -0.74045998 95 93 168
0.078063115 -0.088892944 -0.74096823 87 79 151
0.076931939 -0.08883892 -0.74013633 99 100 166
0.078103662 -0.089381017 -0.74215448 76 59 121
0.078539878 -0.089070648 -0.74168742 78 64 135
0.07875403 -0.089268781 -0.74229187 72 53 121
0.079534166 -0.089120083 -0.74242324 67 46 122
0.081401542 -0.087949425 -0.74096686 104 106 187
0.080448255 -0.088412203 -0.7414059 88 79 159
0.080988616 -0.088273227 -0.74143094 92 86 167
0.080852993 -0.088120162 -0.74100733 98 96 177
0.071611039 -0.087705016 -0.73486269 186 200 234
0.075352542 -0.086210549 -0.73515463 206 216 239
0.073661879 -0.087271251 -0.7354936 186 199 232
0.074478574 -0.086738013 -0.73530531 196 208 236
0.075198524 -0.086565122 -0.73548931 195 207 237
0.076097421 -0.086041994 -0.73535717 205 215 240
0.073556066 -0.08679162 -0.73489398 203 214 238
0.073245354 -0.087229297 -0.73522449 191 203 233
0.076562889 -0.08639247 -0.73604465 188 200 236
0.076603167 -0.087270781 -0.73710322 158 174 229
0.077708386 -0.085553735 -0.73574424 206 215 240
0.077322826 -0.08645118 -0.73656923 179 192 234
0.077492535 -0.087374821 -0.73774761 148 165 225
0.078356296 -0.085695833 -0.73629397 196 205 237
0.078287646 -0.086298704 -0.73695779 178 189 232
0.079152763 -0.085241184 -0.7362377 207 215 239
0.07871373 -0.086340666 -0.73726153 175 186 231
0.079901062 -0.085645191 -0.73715794 197 205 235
0.079096116 -0.086545914 -0.73773032 169 181 228
0.078478433 -0.087542422 -0.73852605 139 156 221
0.081095248 -0.086022131 -0.73826993 188 197 232
0.080310799 -0.086558849 -0.73845947 171 182 227
0.063891284 -0.089694306 -0.73547232 118 116 158
0.062225189 -0.089784816 -0.73484451 118 110 150
0.061535075 -0.090129681 -0.73546755 118 106 135
0.063529968 -0.089602299 -0.73501599 118 116 161
0.068343423 -0.089284927 -0.73643768 139 136 181
0.068075262 -0.088852741 -0.73522037 152 157 199
0.067929648 -0.089738265 -0.73745513 126 116 160
0.068208486 -0.08970172 -0.73746473 127 117 162
0.067789897 -0.089085698 -0.73571604 145 147 187
0.06469629 -0.089719348 -0.73596448 116 111 154
0.066014424 -0.08982221 -0.73694116 125 116 148
0.065491363 -0.089562088 -0.73592693 124 121 162
0.071663961 -0.088543452 -0.73653609 152 161 204
0.071008958 -0.089044042 -0.73725253 132 138 184
0.071440287 -0.088904753 -0.73720181 137 144 189
0.071683273 -0.08887022 -0.73727053 138 145 189
0.070926301 -0.08802224 -0.73494089 176 190 229
0.068921752 -0.089125007 -0.73632836 140 141 186
0.068702817 -0.088841952 -0.73548061 150 156 199
0.069006145 -0.089287266 -0.73679256 135 133 179
0.068973377 -0.088893749 -0.73575789 147 152 196
0.068785205 -0.089574859 -0.73741889 128 121 167
0.074032426 -0.088916533 -0.73864651 116 124 181
0.072611094 -0.088265501 -0.73647523 158 169 212
0.072786413 -0.088229366 -0.73648697 158 170 213
0.075351693 -0.088473082 -0.7383576 122 134 198
0.073529437 -0.087911211 -0.73619401 165 180 226
0.076962315 -0.088109054 -0.73848963 125 141 211
0.05157372 -0.087500945 -0.72738236 190 200 240
0.050859746 -0.087562524 -0.72731018 181 189 238
0.04954632 -0.0875834 -0.72705877 171 175 236
0.055466313 -0.087458529 -0.72797751 217 227 245
0.056298003 -0.087861285 -0.72840804 220 230 245
0.05326926 -0.087022498 -0.72724485 213 225 245
0.053206023 -0.087238878 -0.72744113 208 220 244
0.060331561 -0.08725334 -0.72910815 212 221 240
0.061541017 -0.087291487 -0.72965312 207 218 240
0.061317042 -0.087121584 -0.72936207 210 220 240
0.061998446 -0.087340809 -0.72994494 205 217 240
0.062526844 -0.087687165 -0.73057616 198 213 239
0.062820837 -0.08592511 -0.72892106 222 230 244
0.063063838 -0.086928271 -0.73000795 208 220 241
0.063395992 -0.086693041 -0.7299189 212 223 242
0.064007193 -0.087086685 -0.7307089 209 222 243
0.063118428 -0.08744327 -0.73060787 202 216 240
0.065007158 -0.086288035 -0.73031193 221 231 245
0.064772032 -0.086757064 -0.73073423 215 227 244
0.047918763 -0.088228695 -0.72794622 144 146 212
0.046543524 -0.088032946 -0.72700703 169 179 229
0.047757018 -0.08844021 -0.72849137 132 132 198
0.047884092 -0.088651367 -0.72911781 117 114 183
0.048912097 -0.088122211 -0.7278958 140 139 216
0.049740229 -0.088413984 -0.72866338 131 131 204
0.050451022 -0.088469081 -0.72877491 136 138 207
0.05120831 -0.08884301 -0.72977698 121 123 189
0.049911711 -0.088089354 -0.72787046 152 156 224
0.051861085 -0.088065617 -0.72818035 172 183 230
0.051507425 -0.088299088 -0.72860634 155 163 218
0.055590201 -0.089095682 -0.73055977 152 158 197
0.053931728 -0.088445485 -0.7291621 171 182 220
0.055287056 -0.088827774 -0.7299906 164 172 208
0.053408772 -0.088080294 -0.72839785 186 200 234
0.055330813 -0.088286459 -0.72901195 192 202 229
0.056014862 -0.088081747 -0.72873527 208 218 238
0.054992054 -0.088165522 -0.72875303 195 206 233
0.059643116 -0.088513799 -0.73063105 173 183 213
0.057303388 -0.088087842 -0.72905731 209 218 236
0.056998249 -0.08856684 -0.7298041 187 194 219
0.060212582 -0.088444144 -0.73070532 174 183 214
0.060336877 -0.088238917 -0.73034924 184 195 223
0.060439207 -0.088182844 -0.73027265 186 197 225
0.061777055 -0.087933667 -0.73047048 195 209 236
0.085410275 -0.087591149 -0.74283844 117 116 192
0.08701095 -0.086899132 -0.74282855 149 149 210
0.087532416 -0.087124348 -0.74339867 139 137 202
0.088467531 -0.087588519 -0.74453706 114 111 187
0.091219112 -0.087507531 -0.74611825 100 103 188
0.090122625 -0.087510198 -0.7454505 107 108 189
0.08825849 -0.087850034 -0.74474186 103 99 180
0.092141487 -0.087143943 -0.74620116 113 118 195
0.079781428 -0.089146204 -0.74262905 65 42 118
0.079688415 -0.089457914 -0.74320006 67 46 111
0.079306699 -0.089813888 -0.74370903 70 51 104
0.07998351 -0.089483388 -0.74340391 66 45 111
0.079789825 -0.089933097 -0.74419677 69 50 100
0.079220384 -0.089751124 -0.74353951 70 50 105
0.08021979 -0.08914005 -0.74284917 66 44 120
0.08332222 -0.088243872 -0.74278241 95 90 170
0.08116772 -0.088979788 -0.74305439 75 59 132
0.080555506 -0.088964269 -0.74268538 68 48 127
0.087885372 -0.088723302 -0.74645889 75 62 131
0.087519914 -0.088518493 -0.74579436 82 71 143
0.087603383 -0.087927267 -0.74449509 102 97 177
0.089236572 -0.088296995 -0.74632519 79 73 153
0.088744819 -0.088246591 -0.74590617 85 78 157
0.063539341 -0.087750152 -0.73114133 194 209 239
0.06611184 -0.087458484 -0.73196441 194 207 240
0.066146672 -0.086878359 -0.73139977 206 217 242
0.065664701 -0.087232381 -0.73155493 198 211 241
0.067943364 -0.086642489 -0.73190308 212 221 242
0.067331046 -0.087670885 -0.7326777 190 204 239
0.064806677 -0.087638624 -0.73160881 189 205 239
0.06870348 -0.086726792 -0.73231959 208 217 241
0.070931286 -0.086913466 -0.73364943 199 210 239
0.070873268 -0.086891375 -0.73359603 199 210 239
0.069045551 -0.087175772 -0.73293489 197 209 240
0.069881812 -0.086794406 -0.73297578 203 213 240
0.072106943 -0.087299466 -0.73472142 197 209 236
0.056266632 -0.09002509 -0.73282349 133 127 150
0.055851784 -0.090358943 -0.73365557 122 111 130
0.055618852 -0.090755962 -0.73463678 110 94 107
0.058611192 -0.0898389 -0.73329651 136 131 150
0.059749488 -0.089646637 -0.73336273 136 130 157
0.060335521 -0.08953815 -0.73337364 136 130 161
0.057961326 -0.090027019 -0.73344958 133 127 143
0.060061764 -0.089424677 -0.73296869 142 138 167
0.058930725 -0.089856237 -0.7334888 134 127 149
0.058790106 -0.08921852 -0.73186427 153 156 182
0.059329022 -0.089177996 -0.73202342 154 156 181
0.057180129 -0.090219975 -0.7335481 129 122 137
0.058563478 -0.089401484 -0.73220426 149 150 174
0.057169054 -0.089895204 -0.73274624 138 134 155
0.058956344 -0.088908508 -0.73118365 161 167 198
0.064261675 -0.088513002 -0.73292875 157 168 211
0.063499905 -0.088350542 -0.7322222 169 181 218
0.062439073 -0.088519998 -0.73200291 164 174 210
0.063388839 -0.089051679 -0.73359489 135 141 186
0.06366317 -0.088723175 -0.73308134 151 160 201
0.060604762 -0.08853586 -0.73105764 168 177 209
0.060851432 -0.088744015 -0.73167622 159 166 199
0.060717322 -0.088579185 -0.73121411 166 174 207
0.060609382 -0.08871416 -0.73149413 162 168 200
0.062561728 -0.089022249 -0.73312724 140 145 187
0.061979096 -0.089329936 -0.73361331 134 132 172
0.067463711 -0.08872024 -0.73460209 152 160 205
0.067412309 -0.088796519 -0.7347427 149 156 201
0.06695509 -0.088576749 -0.73410702 158 167 211
0.066027261 -0.088498943 -0.73359036 159 170 213
0.066155389 -0.08864668 -0.73394948 153 162 207
0.067930639 -0.088052705 -0.73345774 179 192 232
0.067543052 -0.088188171 -0.73356128 174 187 227
0.068454228 -0.088330492 -0.73422289 169 180 221
0.069442406 -0.088266283 -0.7346158 170 182 222
0.092374563 -0.087651707 -0.74715024 91 92 174
0.092626542 -0.087168515 -0.74657989 113 117 193
0.091509894 -0.088062018 -0.74733454 79 78 162
0.089083724 -0.088793807 -0.74754065 75 61 125
0.091127805 -0.088171571 -0.74735981 78 75 157
0.090470299 -0.088193886 -0.74693036 78 74 157
0.088684924 -0.088562794 -0.74660969 76 65 139
0.088666931 -0.088800877 -0.74724907 75 61 125
0.088793255 -0.088841029 -0.74744225 75 61 123
0 0 0 1 0 0 0 1 0 0 0 1 0 0 0 0 0 229 1 0 0
