ply
format ascii 1.0
comment PCL generated
element vertex 748
property float x
property float y
property float z
property uchar red
property uchar green
property uchar blue
element camera 1
property float view_px
property float view_py
property float view_pz
property float x_axisx
property float x_axisy
property float x_axisz
property float y_axisx
property float y_axisy
property float y_axisz
property float z_axisx
property float z_axisy
property float z_axisz
property float focal
property float scalex
property float scaley
property float centerx
property float centery
property int viewportx
property int viewporty
property float k1
property float k2
end_header
-0.03437902 -0.34899768 -0.67542905 160 147 173
-0.034000903 -0.34916741 -0.6754604 160 148 172
-0.035586476 -0.34922898 -0.67527854 157 142 168
-0.033847302 -0.34706879 -0.6756146 172 156 198
-0.033289164 -0.34886917 -0.67555964 163 152 177
-0.033539958 -0.34878704 -0.67553687 163 151 177
-0.03671157 -0.34857374 -0.6751855 163 148 176
-0.029532537 -0.34810826 -0.67610973 167 155 178
-0.031606194 -0.34722191 -0.67587334 174 159 201
-0.031203175 -0.34730488 -0.675928 173 158 196
-0.031573277 -0.34687874 -0.67591286 174 159 199
-0.03002093 -0.34929603 -0.67592758 164 154 180
-0.029747277 -0.34953997 -0.67594481 163 153 178
-0.032504588 -0.34945172 -0.67561603 161 151 171
-0.0304671 -0.34924787 -0.67587656 164 154 180
-0.030627413 -0.3494572 -0.67584348 163 153 177
-0.029011747 -0.34886438 -0.67611223 166 155 177
-0.042289652 -0.35250834 -0.67412788 188 188 198
-0.04107165 -0.35220563 -0.67425895 184 186 193
-0.042197786 -0.35342193 -0.67411011 183 184 192
-0.043554366 -0.3534503 -0.6739732 189 187 199
-0.038114179 -0.35267222 -0.67474771 151 142 167
-0.038556062 -0.35252944 -0.67468333 156 149 170
-0.040225685 -0.35272697 -0.67439932 171 171 180
-0.038285431 -0.35214505 -0.67474908 155 146 168
-0.038120952 -0.35073349 -0.6748547 158 147 167
-0.038850933 -0.35282141 -0.67461884 158 152 172
-0.038371678 -0.35075676 -0.6748094 160 151 169
-0.040215991 -0.35249197 -0.67440808 173 172 182
-0.040001951 -0.35089299 -0.67449582 179 176 188
-0.038219031 -0.34966886 -0.67487043 164 153 174
-0.040747203 -0.351769 -0.67432845 183 184 192
-0.034537382 -0.35332799 -0.67519253 149 136 164
-0.034221541 -0.35113811 -0.6753276 153 142 166
-0.035934579 -0.35338014 -0.67501682 143 131 163
-0.033917293 -0.3519761 -0.67532873 153 141 165
-0.035035111 -0.35178402 -0.67519832 149 138 164
-0.037003286 -0.35055625 -0.67504197 149 134 161
-0.036092289 -0.3514877 -0.67509222 147 135 163
-0.036693096 -0.35144973 -0.67502695 146 133 162
-0.036270853 -0.34970227 -0.67517179 153 138 162
-0.036835406 -0.35093948 -0.67503941 148 133 161
-0.029349841 -0.35218152 -0.67580634 164 148 171
-0.029583549 -0.35259724 -0.67575479 163 147 170
-0.03137454 -0.35225168 -0.67561162 158 145 169
-0.029742099 -0.35268161 -0.67573386 163 147 170
-0.030195624 -0.35305744 -0.67566448 162 145 168
-0.031166274 -0.35043368 -0.67573202 160 149 173
-0.032727692 -0.35053423 -0.67553818 159 148 168
-0.03182409 -0.35195291 -0.67558575 157 145 170
-0.032197598 -0.35169727 -0.67555159 157 145 169
-0.030487185 -0.34988567 -0.67583847 162 152 175
-0.026330866 -0.35304669 -0.67616671 164 150 171
-0.028264109 -0.35061643 -0.67607284 167 155 178
-0.027810445 -0.35331035 -0.67593974 164 148 169
-0.027713412 -0.35167083 -0.67607313 166 152 175
-0.028396321 -0.35006478 -0.6760937 167 156 179
-0.049315941 -0.35637319 -0.67359447 185 173 201
-0.049453903 -0.35623062 -0.67358088 188 177 204
-0.050656762 -0.35724452 -0.67353839 182 173 198
-0.049816709 -0.35695347 -0.67358214 180 168 197
-0.045792442 -0.35490945 -0.67380404 184 175 197
-0.045557134 -0.35494509 -0.67381889 184 175 196
-0.045580134 -0.35506314 -0.67381942 182 174 195
-0.045122657 -0.35645977 -0.67387009 169 162 181
-0.0466002 -0.35676858 -0.67378551 169 156 184
-0.048252657 -0.35558736 -0.67364395 188 177 204
-0.047561474 -0.3554115 -0.67369193 186 175 201
-0.041117601 -0.35702005 -0.67421049 165 165 177
-0.042030733 -0.3563166 -0.67413712 166 166 178
-0.042949203 -0.35702744 -0.67406046 163 160 175
-0.04263109 -0.35614038 -0.6740883 167 165 178
-0.042326137 -0.3573983 -0.67411071 163 160 175
-0.043712068 -0.35480922 -0.67397666 178 175 188
-0.04396046 -0.35581943 -0.67396826 170 166 181
-0.044209715 -0.35510254 -0.67393148 178 173 188
-0.043477267 -0.3553617 -0.6740092 172 169 183
-0.043695644 -0.35549745 -0.67398953 172 168 182
-0.044114504 -0.35487786 -0.67393738 179 175 190
-0.038759679 -0.35581133 -0.67455697 152 146 168
-0.039026976 -0.3555353 -0.67454195 151 145 169
-0.037738997 -0.35476816 -0.67472726 146 136 165
-0.037164312 -0.35711214 -0.67466545 157 146 165
-0.038127825 -0.35629213 -0.67460179 154 146 167
-0.037805654 -0.35464281 -0.67472655 145 135 165
-0.040810071 -0.35643026 -0.6742537 165 165 178
-0.040061597 -0.35417131 -0.67438078 165 164 178
-0.04011343 -0.35619327 -0.67436814 159 156 174
-0.040979076 -0.35630408 -0.67422634 167 168 179
-0.03948072 -0.3544732 -0.67447519 158 155 174
-0.035044324 -0.35608673 -0.67498803 156 143 162
-0.034280863 -0.3559055 -0.67509645 155 141 160
-0.034223635 -0.35461581 -0.6751647 155 142 164
-0.034195472 -0.35668245 -0.675071 155 141 157
-0.03527889 -0.35582638 -0.67496961 156 144 164
-0.036029134 -0.35441366 -0.67495084 147 135 163
-0.034078173 -0.3536998 -0.67523146 151 138 164
-0.035988886 -0.35521251 -0.67491293 151 139 164
-0.035582408 -0.35368681 -0.67504537 145 132 163
-0.036607195 -0.35525176 -0.67483401 149 138 164
-0.02995866 -0.35423744 -0.67561972 163 144 165
-0.031438891 -0.35623601 -0.67538452 160 143 159
-0.02992883 -0.35544384 -0.67556 165 146 166
-0.030035364 -0.35482639 -0.67558241 163 145 165
-0.030007053 -0.35607308 -0.67552048 166 147 166
-0.029307477 -0.35616663 -0.67557794 169 150 170
-0.031011492 -0.35400909 -0.6755321 160 143 164
-0.032515526 -0.35637945 -0.67527956 155 140 155
-0.033054948 -0.35662362 -0.67521751 154 139 153
-0.030888174 -0.3541505 -0.67553699 160 143 164
-0.030670907 -0.35454181 -0.6755389 161 143 163
-0.025553903 -0.35528696 -0.67614889 166 158 176
-0.026214248 -0.35406047 -0.67612004 164 152 171
-0.026661269 -0.35579732 -0.67596549 167 159 177
-0.02735924 -0.35409406 -0.6759575 165 151 171
-0.027003119 -0.35464251 -0.67597848 166 154 173
-0.027554248 -0.3565293 -0.67580289 169 158 176
-0.029177118 -0.35631362 -0.67558801 169 150 171
-0.027243264 -0.35738215 -0.67580205 170 160 178
-0.027004207 -0.35629138 -0.67589176 168 160 177
-0.026579002 -0.35626939 -0.67595214 168 162 179
-0.029191265 -0.35577586 -0.67561382 168 149 170
-0.053614318 -0.35889843 -0.67348707 187 183 197
-0.053586822 -0.3593775 -0.67351383 180 175 192
-0.054290947 -0.36045563 -0.67356819 175 166 184
-0.052908845 -0.36102301 -0.67360979 149 139 173
-0.053528056 -0.36089793 -0.67359829 159 149 177
-0.053714465 -0.35811493 -0.67343909 196 194 204
-0.053851075 -0.35815164 -0.67343873 196 194 205
-0.055167053 -0.35927278 -0.67348826 196 190 199
-0.050258823 -0.35888314 -0.67365062 157 140 180
-0.050226171 -0.35912508 -0.67366648 155 138 178
-0.049846418 -0.35852641 -0.67365724 159 141 181
-0.050723847 -0.36075035 -0.67372638 144 129 166
-0.05050645 -0.36113086 -0.6737622 141 126 162
-0.051935188 -0.35907936 -0.67355454 167 158 187
-0.051614154 -0.35807043 -0.67351925 178 171 195
-0.05055517 -0.35800943 -0.67358339 171 158 190
-0.050338801 -0.35850963 -0.67362487 162 147 184
-0.050509743 -0.35840023 -0.67360783 165 151 186
-0.045845337 -0.36104771 -0.67397684 152 141 162
-0.044944778 -0.36016455 -0.67398077 158 148 167
-0.045443397 -0.35815939 -0.67390257 157 149 169
-0.04604388 -0.36029428 -0.67394704 152 141 163
-0.048635039 -0.36132079 -0.6738894 137 121 153
-0.048110243 -0.35965872 -0.6738317 148 132 164
-0.045777127 -0.35790896 -0.67387378 158 149 171
-0.045963526 -0.35833484 -0.67388666 155 145 168
-0.046165179 -0.35805345 -0.67385846 157 147 171
-0.046592835 -0.35815614 -0.67383838 157 145 172
-0.043466054 -0.36092079 -0.6741212 154 145 163
-0.044411734 -0.36105525 -0.67404985 156 147 165
-0.043040846 -0.35969347 -0.67412072 159 153 169
-0.042610649 -0.3595998 -0.67415226 158 152 168
-0.042975768 -0.36038533 -0.67414516 155 147 165
-0.043939676 -0.36000493 -0.67405719 159 151 168
-0.044487428 -0.35790685 -0.67394835 160 154 172
-0.044269882 -0.35945749 -0.67401344 159 152 169
-0.042697303 -0.35760298 -0.6740858 162 159 174
-0.044914592 -0.35877594 -0.67393982 159 151 170
-0.040524222 -0.36115941 -0.67437249 145 132 153
-0.037322011 -0.35872102 -0.67465127 150 135 152
-0.039414406 -0.36067048 -0.67447376 144 129 149
-0.039466999 -0.36090294 -0.67447174 143 126 147
-0.03819086 -0.35885555 -0.67456877 152 140 159
-0.040596981 -0.35759369 -0.67426968 162 160 174
-0.039141808 -0.35924804 -0.67447859 153 142 161
-0.040509395 -0.35980186 -0.67434114 152 143 162
-0.039147429 -0.35768449 -0.67443436 160 154 170
-0.038859937 -0.35812098 -0.67447871 158 149 167
-0.033533365 -0.35852087 -0.67512828 146 129 143
-0.035109743 -0.36072895 -0.67494363 133 109 127
-0.034735657 -0.35951731 -0.67498636 141 120 135
-0.033610944 -0.36119375 -0.6751231 128 105 127
-0.033376731 -0.36061603 -0.67515016 132 110 131
-0.036287412 -0.35865933 -0.67477864 149 132 148
-0.034084659 -0.35801312 -0.67505836 150 134 147
-0.035971951 -0.35758227 -0.67480588 156 143 159
-0.036187056 -0.35920414 -0.67479891 145 125 141
-0.03499072 -0.35772765 -0.67493618 154 139 154
-0.035358641 -0.35796854 -0.67489117 152 137 152
-0.032355119 -0.3612566 -0.67525578 136 115 139
-0.030134708 -0.36006555 -0.67546284 161 144 169
-0.031387571 -0.35996625 -0.67533654 147 126 149
-0.030535942 -0.3603906 -0.67542678 156 138 164
-0.030394265 -0.36099207 -0.67544836 158 141 168
-0.031525217 -0.35861173 -0.67531729 153 133 152
-0.032185547 -0.35753912 -0.67525685 157 141 155
-0.032693967 -0.35823452 -0.67521262 150 133 148
-0.030833595 -0.35772073 -0.67537755 162 144 161
-0.032708183 -0.35964069 -0.67521346 140 120 140
-0.026276199 -0.3594355 -0.67593491 173 165 182
-0.02682177 -0.36131901 -0.67585289 176 163 179
-0.028210852 -0.36035788 -0.67569882 170 160 185
-0.025998693 -0.35987002 -0.6759634 175 166 180
-0.027840581 -0.3606087 -0.67573994 172 161 184
-0.028565949 -0.35924786 -0.67563826 170 157 181
-0.027203916 -0.3574985 -0.67580646 170 161 178
-0.027885331 -0.35932633 -0.67573398 170 160 183
-0.025766185 -0.35767174 -0.67600882 170 167 183
-0.028968692 -0.35966235 -0.67558724 170 156 181
-0.024661046 -0.35904598 -0.67616773 168 158 172
-0.02522023 -0.36004171 -0.67606294 176 166 176
-0.050250899 -0.36393735 -0.67403042 136 118 146
-0.050258946 -0.36499435 -0.67410409 138 121 146
-0.049439561 -0.36252582 -0.67395175 136 119 150
-0.051739302 -0.36476365 -0.67405152 131 112 138
-0.049779337 -0.36433151 -0.67406958 138 122 149
-0.051476285 -0.36278147 -0.67387086 135 119 150
-0.052166406 -0.36320299 -0.67387241 135 118 149
-0.05221111 -0.36319372 -0.67386848 135 118 150
-0.052667852 -0.36356801 -0.67388004 134 118 148
-0.051707417 -0.36343235 -0.67392778 133 115 145
-0.045147076 -0.36506432 -0.67429465 149 139 145
-0.046251617 -0.36289123 -0.67408228 152 141 160
-0.046667349 -0.36478561 -0.67421061 147 136 151
-0.046017405 -0.36481786 -0.67423993 148 138 149
-0.045492426 -0.36501822 -0.67427695 148 139 146
-0.046950225 -0.36435863 -0.67416614 148 136 154
-0.048592664 -0.36150104 -0.67390317 138 122 153
-0.0467536 -0.36147523 -0.6739645 147 134 159
-0.047116488 -0.36155668 -0.67395771 146 132 158
-0.048571955 -0.36490539 -0.67414182 144 131 155
-0.047898192 -0.36360726 -0.67407423 145 132 157
-0.041172445 -0.36328658 -0.67442119 154 138 153
-0.041514322 -0.36458012 -0.67447025 159 141 150
-0.041673325 -0.36272129 -0.67436397 150 136 153
-0.043597288 -0.3646782 -0.67436075 151 139 147
-0.041807346 -0.36389089 -0.67441791 155 139 151
-0.044345289 -0.36516601 -0.6743452 151 140 145
-0.04331271 -0.36153689 -0.67416078 152 141 160
-0.04460638 -0.361857 -0.6740827 155 145 161
-0.044346981 -0.36210477 -0.67412233 153 143 159
-0.044170544 -0.36235967 -0.67415589 152 142 157
-0.04400507 -0.36136958 -0.67409295 154 143 162
-0.038669948 -0.36341423 -0.67466068 145 122 136
-0.038061723 -0.36417091 -0.67475069 144 123 139
-0.038587373 -0.36470047 -0.67472744 148 128 143
-0.039735116 -0.36494967 -0.67463493 156 135 147
-0.039132118 -0.36380154 -0.67463666 149 126 139
-0.039955806 -0.36339107 -0.67453814 151 130 143
-0.04051318 -0.36242753 -0.67443353 149 132 150
-0.03981005 -0.36331967 -0.67454851 151 129 142
-0.039650828 -0.36199352 -0.67449439 143 125 142
-0.037574247 -0.36158526 -0.67467433 134 108 124
-0.033812393 -0.36433992 -0.6752184 150 136 153
-0.033632081 -0.3652198 -0.67527181 159 148 163
-0.034510702 -0.3640354 -0.67512929 144 128 147
-0.036543865 -0.36516023 -0.67494601 143 128 147
-0.03549204 -0.36482322 -0.67505014 146 131 149
-0.035134852 -0.36272529 -0.67500591 132 111 132
-0.036283273 -0.36387542 -0.67492187 136 117 137
-0.035574801 -0.36152491 -0.67489809 129 105 124
-0.037099037 -0.36349255 -0.67480689 136 115 134
-0.036952518 -0.36472031 -0.67488098 139 122 142
-0.031980976 -0.36447689 -0.67540908 163 152 171
-0.03055674 -0.36327088 -0.67550361 165 153 178
-0.03154226 -0.36385405 -0.67543095 164 153 174
-0.03202235 -0.36521536 -0.67542648 160 150 169
-0.030804975 -0.36320615 -0.67547917 165 154 177
-0.03023568 -0.36400399 -0.67555368 162 151 177
-0.033065811 -0.36246678 -0.67522883 138 119 140
-0.03012508 -0.36207372 -0.67550761 167 154 181
-0.031148575 -0.3626267 -0.6754263 161 147 171
-0.030666672 -0.36179447 -0.67544293 159 144 170
-0.031298634 -0.36134088 -0.67536259 148 129 156
-0.027454579 -0.36506999 -0.67581147 145 133 158
-0.026253527 -0.36425719 -0.67591214 146 133 154
-0.025855057 -0.36396697 -0.67594582 147 134 152
-0.025602823 -0.36291158 -0.67598075 160 146 161
-0.025966616 -0.36238277 -0.67596239 170 157 170
-0.02798315 -0.36374205 -0.6757856 166 154 176
-0.027613183 -0.36298868 -0.67580748 169 157 177
-0.028309491 -0.36420494 -0.67576057 163 152 176
-0.028698536 -0.36176345 -0.67564481 170 157 184
-0.028041052 -0.36336589 -0.67576808 167 155 177
-0.027554857 -0.36288258 -0.67581129 170 157 177
-0.024815591 -0.36323479 -0.67608654 147 130 148
-0.024509132 -0.36228046 -0.67615187 157 138 154
-0.025129916 -0.3624604 -0.67604727 161 146 159
-0.053525429 -0.36694351 -0.67429441 130 106 134
-0.054417994 -0.36887059 -0.67455864 131 104 135
-0.052894928 -0.36890069 -0.67461318 122 86 120
-0.050700318 -0.36903343 -0.6745742 135 109 137
-0.049625169 -0.36785215 -0.67442703 142 122 147
-0.049668971 -0.36620328 -0.67427534 139 120 147
-0.049614411 -0.36737454 -0.67438227 141 122 147
-0.049640223 -0.3682076 -0.67446059 142 122 147
-0.049720798 -0.36892477 -0.67453003 143 122 147
-0.052032996 -0.36650428 -0.67427063 129 103 132
-0.051427331 -0.36587238 -0.67418933 132 111 137
-0.05219071 -0.36641648 -0.67425346 128 103 131
-0.050297134 -0.36527345 -0.67412591 138 122 146
-0.052497555 -0.36768258 -0.67443871 124 93 124
-0.04569025 -0.3681418 -0.67439675 149 131 141
-0.046261285 -0.36872405 -0.67442644 149 130 143
-0.044977117 -0.369041 -0.67439002 149 126 135
-0.046906073 -0.36819008 -0.67443776 149 133 147
-0.045287732 -0.3672359 -0.67436653 149 133 141
-0.045771692 -0.36532706 -0.6742906 148 138 146
-0.045748234 -0.36601862 -0.67435586 149 138 146
-0.047566686 -0.36708781 -0.67438024 148 135 151
-0.047707722 -0.36695883 -0.67436242 148 134 152
-0.048094213 -0.36709204 -0.67435884 147 134 153
-0.042589109 -0.3669011 -0.67447972 158 136 145
-0.044365946 -0.36874425 -0.67441851 151 129 138
-0.041484948 -0.36726993 -0.67459679 165 150 159
-0.041329525 -0.36585137 -0.67453647 164 143 151
-0.041486528 -0.36857358 -0.67466474 167 157 168
-0.04391519 -0.36757678 -0.67441618 153 132 140
-0.043116532 -0.36589742 -0.67442876 156 139 145
-0.043802597 -0.36558059 -0.67438513 153 139 145
-0.044795156 -0.36857527 -0.67438638 149 128 136
-0.044488616 -0.36546639 -0.6743452 150 139 144
-0.038574591 -0.36755189 -0.67487639 161 150 163
-0.038187366 -0.36643177 -0.67485112 150 137 154
-0.038120575 -0.36842367 -0.67496651 172 161 169
-0.037311539 -0.36849096 -0.67504555 176 163 168
-0.037383657 -0.36565584 -0.67488354 144 129 148
-0.039879002 -0.36533242 -0.67464012 158 138 149
-0.038221564 -0.36543751 -0.67479587 148 131 148
-0.04041237 -0.36588028 -0.67462045 162 144 154
-0.040358633 -0.36659032 -0.67466235 163 147 159
-0.039136223 -0.36616254 -0.6747508 154 139 154
-0.03329825 -0.36696941 -0.67543387 167 153 172
-0.035125755 -0.36727887 -0.67522055 173 161 169
-0.035792917 -0.36907235 -0.67526484 180 165 175
-0.03657487 -0.36614716 -0.67499536 153 139 154
-0.035253365 -0.36647567 -0.67516017 164 152 163
-0.033520013 -0.36547065 -0.67529774 162 152 165
-0.035182629 -0.36657012 -0.67517322 166 154 164
-0.035360858 -0.36557287 -0.67509884 154 141 156
-0.029566191 -0.36672986 -0.67570436 160 145 168
-0.030292382 -0.36685798 -0.6756742 162 148 173
-0.02975931 -0.36627004 -0.67568219 160 147 173
-0.032310612 -0.36546847 -0.6754179 161 151 169
-0.030770255 -0.3655816 -0.67556578 160 149 174
-0.030334694 -0.36529028 -0.67558408 159 149 174
-0.032479167 -0.36638957 -0.67546964 165 151 172
-0.03213691 -0.36577809 -0.67545623 162 151 170
-0.027384095 -0.36768457 -0.67590892 142 122 138
-0.026740309 -0.36721987 -0.67595237 135 117 135
-0.028975947 -0.36591718 -0.67571712 156 143 168
-0.028855795 -0.36585769 -0.67572421 155 142 167
-0.027544018 -0.36687639 -0.67584944 145 128 145
-0.028321292 -0.36717489 -0.6758011 151 134 152
-0.052945822 -0.37138191 -0.674878 120 83 112
-0.054472238 -0.37091768 -0.67485589 128 98 126
-0.0530761 -0.37274414 -0.67501354 120 83 109
-0.053027675 -0.37022486 -0.67476583 121 85 117
-0.053241447 -0.37180522 -0.67492402 121 86 113
-0.055421919 -0.37115434 -0.67486125 133 109 134
-0.05527715 -0.37086698 -0.674824 132 108 134
-0.049289357 -0.37036425 -0.67466104 144 126 149
-0.050037727 -0.37223455 -0.67487937 135 113 139
-0.050845396 -0.37158784 -0.67483258 132 105 129
-0.050621033 -0.37128565 -0.6747945 134 108 132
-0.048968002 -0.36938363 -0.67454845 148 131 154
-0.050482161 -0.37278745 -0.67494994 131 107 133
-0.050910026 -0.37118807 -0.67479223 133 105 129
-0.052462559 -0.37172237 -0.67489868 121 84 112
-0.051254895 -0.37080342 -0.67476648 131 101 127
-0.051946357 -0.37004319 -0.67471606 126 92 122
-0.052494124 -0.36969566 -0.67470104 122 85 118
-0.04754265 -0.37210527 -0.67479163 142 127 149
-0.045266747 -0.37235236 -0.67474908 146 130 152
-0.047322687 -0.37239248 -0.67481607 143 127 151
-0.045360897 -0.37302858 -0.67482531 146 131 156
-0.046312716 -0.37053964 -0.67458421 145 126 141
-0.048423238 -0.36993346 -0.67458963 147 131 153
-0.048735473 -0.37038407 -0.67464769 146 131 154
-0.047035526 -0.37039372 -0.67459255 146 128 145
-0.047443684 -0.37132341 -0.67470461 144 127 147
-0.048585709 -0.37099752 -0.67470777 145 130 153
-0.041858949 -0.37134379 -0.67486149 165 153 175
-0.041417044 -0.37143159 -0.67489493 167 154 178
-0.041638236 -0.37098515 -0.67484605 166 155 176
-0.041707408 -0.37126708 -0.67486441 166 154 176
-0.041893486 -0.37067875 -0.6748063 165 155 174
-0.04148145 -0.37206233 -0.67494148 166 151 178
-0.041454677 -0.3695125 -0.67473751 168 162 175
-0.043366939 -0.36955979 -0.67457318 157 142 154
-0.044834673 -0.36991104 -0.67448133 149 128 140
-0.042364623 -0.37004665 -0.67471486 162 153 168
-0.043990355 -0.3693653 -0.67449689 154 135 146
-0.038247235 -0.37099001 -0.67511237 182 169 181
-0.03792198 -0.37018594 -0.67509818 181 168 177
-0.039016724 -0.37260401 -0.67513478 182 170 191
-0.03784021 -0.37015799 -0.6751014 182 169 177
-0.040038709 -0.37268272 -0.67508471 174 159 185
-0.038993418 -0.3702842 -0.67501575 177 164 176
-0.040202789 -0.37186325 -0.67502922 172 156 180
-0.040944189 -0.37205929 -0.67497581 169 154 181
-0.039647352 -0.36994657 -0.67492789 175 164 177
-0.037888084 -0.36964518 -0.67506772 181 168 174
-0.035773564 -0.37224939 -0.67537236 189 184 198
-0.033465113 -0.37111858 -0.67558253 176 166 186
-0.03472618 -0.3711912 -0.67546701 183 173 191
-0.034003813 -0.37257069 -0.67553502 179 178 192
-0.034037534 -0.37151343 -0.67553055 179 172 189
-0.034744423 -0.3697862 -0.67543006 180 165 182
-0.034367468 -0.36988842 -0.67548269 180 163 184
-0.036898661 -0.37053227 -0.67518097 188 179 185
-0.035441209 -0.36992484 -0.67534554 182 169 182
-0.03635681 -0.37172315 -0.67529684 191 184 196
-0.052983757 -0.37326217 -0.67506498 121 84 107
-0.050005749 -0.37442762 -0.67507941 137 122 148
-0.051140018 -0.37648073 -0.6752876 134 117 138
-0.052057683 -0.37628394 -0.67528343 133 117 142
-0.05075362 -0.37682962 -0.67531413 134 116 135
-0.04918148 -0.37599885 -0.67521274 136 119 136
-0.051279996 -0.37346917 -0.67503333 128 101 127
-0.052067369 -0.37523493 -0.6751982 129 107 133
-0.052555051 -0.37605008 -0.67527765 129 109 134
-0.051082119 -0.37426993 -0.67509317 131 110 136
-0.052645702 -0.37316149 -0.67504495 119 82 108
-0.045024484 -0.37578151 -0.67507458 146 137 152
-0.045294896 -0.37579131 -0.67508346 145 136 150
-0.046015259 -0.37484413 -0.67501521 143 129 148
-0.045966521 -0.37557665 -0.6750828 144 131 147
-0.047331341 -0.3761059 -0.67517251 140 124 139
-0.048307374 -0.3750799 -0.67510605 138 122 141
-0.047705814 -0.37350979 -0.67494184 141 127 152
-0.047090366 -0.37432179 -0.67499852 141 125 147
-0.047225565 -0.37501827 -0.67506737 140 124 143
-0.047987241 -0.37463552 -0.67505503 139 124 144
-0.048422955 -0.37382591 -0.67499304 139 125 149
-0.042174265 -0.37539625 -0.67517126 164 154 174
-0.041195814 -0.37548572 -0.67521262 170 163 183
-0.042643998 -0.3754493 -0.67515814 160 151 170
-0.043194126 -0.37689772 -0.67524004 158 155 166
-0.042484894 -0.37524712 -0.67514968 161 151 171
-0.044395726 -0.37517938 -0.67504638 149 139 157
-0.042783119 -0.3734884 -0.67498368 159 142 170
-0.042061042 -0.37382969 -0.67505908 163 146 174
-0.043192204 -0.37496695 -0.67509848 156 144 165
-0.043388397 -0.37311575 -0.67491233 155 139 167
-0.038155876 -0.37656191 -0.67543119 178 169 184
-0.038041431 -0.37421784 -0.67528349 191 188 199
-0.037410807 -0.37501347 -0.67536521 187 180 193
-0.039157715 -0.3756547 -0.67532474 182 179 191
-0.037891563 -0.37632486 -0.67542815 180 171 186
-0.039975077 -0.37580344 -0.67529547 180 179 191
-0.040765751 -0.37481073 -0.67518473 173 163 185
-0.038828444 -0.37316704 -0.67517006 185 176 195
-0.040842779 -0.37339565 -0.67508143 170 154 184
-0.040501133 -0.37381929 -0.67512894 173 160 186
-0.034470495 -0.37508267 -0.67560649 166 157 175
-0.034228768 -0.3751893 -0.67562681 162 151 171
-0.033861067 -0.37472561 -0.67563266 163 154 173
-0.036287677 -0.37457883 -0.67542624 185 179 192
-0.035616189 -0.37334564 -0.67540729 187 186 197
-0.034558821 -0.37404877 -0.6755501 177 175 189
-0.03536018 -0.37312037 -0.67541611 186 186 198
-0.035013653 -0.37363678 -0.67548156 182 180 193
-0.054634012 -0.37964454 -0.67555296 154 130 151
-0.053583287 -0.38037822 -0.67562836 147 123 151
-0.05282937 -0.3808215 -0.67567557 141 117 151
-0.054007448 -0.38019976 -0.67560774 150 126 151
-0.053168166 -0.37938997 -0.67555213 141 119 147
-0.054245934 -0.37870985 -0.67548078 149 127 148
-0.049072776 -0.37961322 -0.67556369 149 129 146
-0.048966143 -0.37833607 -0.67543519 142 123 138
-0.04994176 -0.38082334 -0.67568356 152 131 152
-0.052328262 -0.38060477 -0.67565536 141 117 149
-0.050282672 -0.38054606 -0.67565465 149 128 150
-0.049212869 -0.37947813 -0.67554969 147 128 145
-0.051304296 -0.37878206 -0.67548573 137 116 141
-0.052508399 -0.37881041 -0.67550659 136 116 144
-0.052040786 -0.37960681 -0.67556548 138 116 145
-0.05168514 -0.37776279 -0.67540705 134 115 139
-0.051610578 -0.37796703 -0.67542285 135 116 139
-0.044968415 -0.37811726 -0.67530274 150 143 157
-0.04648931 -0.37966183 -0.67550302 154 142 158
-0.045036796 -0.37846601 -0.67534047 151 143 159
-0.046029344 -0.37842435 -0.67536336 150 140 153
-0.046871901 -0.37893677 -0.67543906 152 139 152
-0.046856765 -0.37835586 -0.67537999 149 136 149
-0.048317324 -0.37982115 -0.67557043 152 135 150
-0.047085483 -0.37900585 -0.67545223 151 138 151
-0.048222352 -0.37859526 -0.67544395 146 129 143
-0.048613425 -0.37842885 -0.67543864 144 126 140
-0.042086564 -0.38031107 -0.67548317 159 144 169
-0.043521784 -0.38033816 -0.67552388 159 149 173
-0.043390464 -0.38023669 -0.67551631 160 149 173
-0.041730683 -0.38054711 -0.67548257 158 141 167
-0.041331291 -0.3806529 -0.67547566 157 139 165
-0.043288555 -0.3794575 -0.67548293 163 157 177
-0.043459166 -0.37722296 -0.67526215 157 153 165
-0.044094425 -0.37721109 -0.67523813 153 148 159
-0.043103427 -0.37768054 -0.67532188 161 157 171
-0.042483315 -0.37723297 -0.67529815 164 162 174
-0.043266971 -0.37817949 -0.67536724 161 157 173
-0.044479419 -0.37823299 -0.67532927 153 147 162
-0.038509864 -0.37953845 -0.67549849 165 149 168
-0.037621491 -0.37762609 -0.67550242 174 159 177
-0.040716164 -0.38066068 -0.67547768 158 137 164
-0.038444664 -0.37911811 -0.67549795 167 151 170
-0.037791088 -0.37792122 -0.67550147 173 158 176
-0.040773734 -0.38011804 -0.67545736 160 142 167
-0.038319226 -0.37798151 -0.67548931 172 157 176
-0.040105995 -0.37725237 -0.67537659 173 168 183
-0.040302508 -0.37736392 -0.67537171 172 168 182
-0.040403068 -0.37969321 -0.67545825 162 145 169
-0.036145106 -0.37860587 -0.67557526 159 142 160
-0.036389638 -0.37938613 -0.67556131 159 143 158
-0.03665727 -0.38033116 -0.67554641 158 144 157
-0.03602748 -0.37869143 -0.6755833 157 140 158
-0.036959793 -0.37867025 -0.67552119 169 155 169
-0.053753175 -0.38361612 -0.6759178 163 146 167
-0.053350739 -0.38294706 -0.67585796 157 139 163
-0.053528875 -0.38172653 -0.67576134 148 127 154
-0.052875064 -0.38112232 -0.67570329 143 119 152
-0.050391201 -0.38401726 -0.67585731 172 157 164
-0.049736641 -0.38194701 -0.67576641 161 143 159
-0.050013982 -0.3828797 -0.67580652 166 149 161
-0.051230475 -0.38350952 -0.67588574 166 150 168
-0.049984552 -0.38364851 -0.67582649 171 155 161
-0.052298881 -0.38119218 -0.67570812 145 122 153
-0.052269876 -0.38160729 -0.67574191 148 126 156
-0.051968575 -0.38368234 -0.67591107 165 148 170
-0.052021854 -0.38127866 -0.67571586 147 124 154
-0.051370427 -0.38108969 -0.67570221 148 126 153
-0.051995363 -0.38348147 -0.67589468 163 146 169
-0.045673203 -0.38253257 -0.67566538 161 149 167
-0.045812156 -0.3821674 -0.67565078 163 151 168
-0.046512276 -0.3842499 -0.67575067 165 150 160
-0.046727836 -0.38266852 -0.67568302 169 158 165
-0.045163427 -0.38471201 -0.67575628 154 136 159
-0.048323307 -0.38338801 -0.67574674 173 159 157
-0.048144069 -0.38196725 -0.67570215 164 148 158
-0.048160058 -0.38124648 -0.67568249 159 142 157
-0.048702169 -0.38194418 -0.67571682 164 146 155
-0.048416533 -0.38340372 -0.67574972 174 159 157
-0.041375306 -0.38418466 -0.67568916 152 134 158
-0.043196104 -0.38414451 -0.67570198 153 134 159
-0.042550333 -0.38357419 -0.67566031 153 134 160
-0.043645319 -0.38357377 -0.67566949 154 134 161
-0.042065363 -0.38254577 -0.67559093 155 135 161
-0.042980548 -0.38151017 -0.67555815 156 140 166
-0.044001047 -0.38141826 -0.67558235 157 143 169
-0.043086708 -0.38252291 -0.67560589 155 136 163
-0.044755444 -0.38447538 -0.67573851 153 134 160
-0.044008464 -0.3815102 -0.67558652 156 143 169
-0.037390921 -0.38405338 -0.67582202 173 151 173
-0.040230613 -0.3843551 -0.67571896 155 137 159
-0.038519103 -0.38354978 -0.67571914 163 145 164
-0.037608311 -0.38443843 -0.67585009 173 151 173
-0.037165005 -0.38099226 -0.67552859 162 149 160
-0.040017821 -0.38111496 -0.67550224 157 139 162
-0.039910085 -0.38295922 -0.6756205 155 138 159
-0.04043217 -0.38153052 -0.67552406 156 137 162
-0.039397527 -0.38131055 -0.67552149 158 141 161
-0.039637778 -0.38245821 -0.67559171 156 140 159
-0.040892642 -0.38347748 -0.67564255 153 135 159
-0.033780787 -0.38318568 -0.67594546 162 136 158
-0.033878904 -0.38250744 -0.67594558 154 125 149
-0.033580489 -0.38444179 -0.6759454 177 156 174
-0.033398665 -0.38290516 -0.67595017 159 133 155
-0.035840616 -0.38356471 -0.6759221 165 138 162
-0.035823192 -0.38246113 -0.6758213 160 135 157
-0.034909245 -0.38208452 -0.67588639 152 124 148
-0.036653467 -0.38372388 -0.67585361 170 147 169
-0.03633948 -0.38280582 -0.67579758 164 142 162
-0.031151233 -0.38413784 -0.67608887 169 153 169
-0.031068807 -0.38396108 -0.67608905 168 153 167
-0.031132048 -0.38375783 -0.67607677 167 152 165
-0.032037694 -0.38390747 -0.67601061 172 155 168
-0.033004735 -0.38451022 -0.6759578 179 159 175
-0.045932971 -0.38733658 -0.67599434 161 152 170
-0.045879815 -0.38620281 -0.67588389 159 145 167
-0.045956682 -0.38766885 -0.67602664 162 154 171
-0.045100659 -0.3876718 -0.67603844 159 151 168
-0.047047284 -0.38534015 -0.6758216 168 153 162
-0.046932865 -0.38501859 -0.67579675 167 152 159
-0.044474453 -0.38834476 -0.67610216 161 156 170
-0.043628205 -0.38751134 -0.67601317 159 151 167
-0.042915549 -0.38707551 -0.67596221 161 151 169
-0.041922793 -0.38668612 -0.67591089 167 154 174
-0.044893865 -0.38655931 -0.67593163 156 144 164
-0.043110322 -0.38684544 -0.67594463 156 146 163
-0.043006584 -0.38664347 -0.67592394 156 145 163
-0.044492137 -0.38715273 -0.67598641 157 148 165
-0.044213992 -0.38673946 -0.67594349 156 145 164
-0.041909818 -0.38497478 -0.67575103 152 135 158
-0.037255794 -0.38498685 -0.67591518 179 156 180
-0.039352644 -0.38557827 -0.67587411 174 154 177
-0.037480086 -0.38484195 -0.67589545 176 153 177
-0.038256895 -0.38591358 -0.67595565 185 165 187
-0.035680812 -0.38509655 -0.67593437 182 161 182
-0.036463693 -0.38507956 -0.67592514 181 159 181
-0.034100309 -0.38509148 -0.6759516 183 164 182
-0.035615075 -0.38541973 -0.67594755 184 166 185
-0.031983878 -0.38593861 -0.67609733 178 166 180
-0.023108756 -0.33749381 -0.67858076 191 177 191
-0.022633754 -0.33765259 -0.67862147 188 176 190
-0.017991489 -0.33589453 -0.67962444 139 110 95
-0.018013762 -0.33538622 -0.67967284 141 112 95
-0.019174963 -0.33651879 -0.67933226 153 131 125
-0.018094653 -0.33603165 -0.6795904 139 111 98
-0.01884008 -0.33771989 -0.67927212 142 119 119
-0.019762678 -0.33552656 -0.67937022 162 137 129
-0.020572305 -0.33587554 -0.67921299 169 144 143
-0.018723227 -0.33496672 -0.67959213 152 126 110
-0.02072737 -0.336799 -0.67902982 172 156 159
-0.016869765 -0.33701873 -0.67967498 128 99 80
-0.017212629 -0.33762515 -0.67956972 125 96 84
-0.016479502 -0.33755687 -0.67966747 125 98 78
-0.029397823 -0.34018171 -0.67702454 187 183 204
-0.027958754 -0.3411389 -0.67713785 182 177 207
-0.026917666 -0.34036231 -0.67747593 190 181 210
-0.028331932 -0.34015113 -0.67722535 187 183 206
-0.022324428 -0.34138843 -0.67816371 187 183 194
-0.022696294 -0.340289 -0.67823476 185 176 194
-0.023173789 -0.34033552 -0.67814493 185 174 197
-0.02279171 -0.33830315 -0.67849201 187 177 194
-0.01775315 -0.33813143 -0.67943001 127 98 93
-0.020378672 -0.34159544 -0.67845064 177 168 167
-0.017907899 -0.33929223 -0.6792028 138 108 103
-0.01945878 -0.34073132 -0.67873186 162 146 143
-0.019653514 -0.34166467 -0.67853934 171 155 153
-0.019776417 -0.3386609 -0.67897874 157 141 143
-0.018716726 -0.33870667 -0.67917675 141 120 117
-0.019469636 -0.33975869 -0.67890137 154 140 137
-0.020705873 -0.33811897 -0.67886728 169 157 166
-0.019365575 -0.33956969 -0.67894489 153 137 134
-0.021447953 -0.33860278 -0.67866451 180 174 185
-0.029813122 -0.34405726 -0.67648339 179 168 187
-0.030426878 -0.34358978 -0.676458 188 178 196
-0.029703539 -0.34397078 -0.67650402 178 167 187
-0.029951271 -0.34246305 -0.6766187 182 178 202
-0.027892049 -0.34481433 -0.67674649 177 159 180
-0.028136086 -0.34468737 -0.67672008 176 158 180
-0.026185274 -0.34520245 -0.67699534 181 165 188
-0.026839051 -0.34393358 -0.67704433 181 163 191
-0.027396657 -0.34551573 -0.67674291 177 161 180
-0.027013199 -0.34233478 -0.67718279 182 168 203
-0.029072236 -0.3451325 -0.67648703 173 156 173
-0.027816946 -0.34269097 -0.67698091 179 167 198
-0.027422644 -0.34240031 -0.67709094 180 168 201
-0.027531583 -0.34181327 -0.67712373 180 171 207
-0.028848344 -0.34447515 -0.67659611 174 159 180
-0.021707442 -0.34229761 -0.67814761 188 189 192
-0.021668131 -0.34337059 -0.67797828 192 190 197
-0.023288233 -0.34516385 -0.67745608 190 181 198
-0.021741426 -0.34210652 -0.67817402 187 188 191
-0.022677995 -0.34455705 -0.67764157 191 184 198
-0.023939876 -0.3453638 -0.67733109 188 177 196
-0.024805032 -0.34504321 -0.67725819 183 172 191
-0.025019137 -0.34481952 -0.67724931 184 170 193
-0.023776615 -0.34377116 -0.67760307 185 177 192
-0.02414537 -0.34278312 -0.67766535 187 175 199
-0.025388215 -0.34519735 -0.67713565 183 169 193
-0.019249776 -0.34444562 -0.67816347 192 177 185
-0.019418245 -0.34566531 -0.67796612 212 208 222
-0.019394808 -0.34559485 -0.67797977 211 207 220
-0.01872905 -0.34497768 -0.67817432 204 195 205
-0.020930188 -0.34478557 -0.67785072 193 182 194
-0.020823095 -0.3418749 -0.67834038 182 178 178
-0.019930635 -0.34295902 -0.67828786 179 162 165
-0.020047853 -0.34188154 -0.67844719 176 163 162
-0.029901272 -0.34669718 -0.67619336 171 156 178
-0.028315628 -0.34832501 -0.67626768 170 158 178
-0.028284146 -0.34851119 -0.6762535 170 157 179
-0.026704712 -0.34862655 -0.67646939 176 162 183
-0.027247164 -0.34854835 -0.67639917 174 161 181
-0.028193273 -0.34770355 -0.67634678 172 158 176
-0.026700251 -0.34675896 -0.67670316 178 163 182
-0.02583902 -0.34906957 -0.67655289 179 165 186
-0.026709406 -0.34602958 -0.67679656 179 163 183
-0.026131172 -0.34613183 -0.67688447 180 165 186
-0.027470302 -0.34578803 -0.67669481 177 160 178
-0.027065732 -0.3457385 -0.67677212 178 162 181
-0.022921536 -0.34732643 -0.67720664 193 183 202
-0.024078278 -0.34928882 -0.67677844 187 177 198
-0.021889595 -0.3491582 -0.67708421 200 194 216
-0.023551008 -0.34834567 -0.67698044 190 179 200
-0.02447558 -0.34907717 -0.67675608 185 173 194
-0.021876603 -0.34583983 -0.67755049 199 190 208
-0.025088994 -0.34845549 -0.67675418 182 169 191
-0.022895571 -0.34650692 -0.67731911 193 183 202
-0.022593981 -0.34606206 -0.67741978 195 185 204
-0.025190979 -0.34709409 -0.67691708 182 169 191
-0.018413851 -0.34821966 -0.67782068 187 181 198
-0.020446965 -0.34859997 -0.67738605 208 204 224
-0.019761136 -0.3484605 -0.67753392 201 196 215
-0.01979916 -0.34863228 -0.67750752 198 193 212
-0.019431673 -0.34795073 -0.67765403 206 203 220
-0.019962462 -0.34626707 -0.67779267 210 206 221
-0.020654133 -0.34805709 -0.67742789 207 202 222
-0.020052569 -0.34642753 -0.67775542 209 205 221
-0.01981323 -0.34640855 -0.67779714 211 207 223
-0.021457708 -0.34775454 -0.67733943 202 195 215
-0.016857557 -0.34934849 -0.67799449 143 125 143
-0.016814919 -0.34889194 -0.6780414 146 127 142
-0.017559495 -0.34916112 -0.67788082 158 146 164
-0.016495891 -0.34846666 -0.67814273 146 125 138
-0.017443629 -0.34922421 -0.67789406 154 141 158
-0.025467036 -0.35127357 -0.67642391 172 159 181
-0.026736541 -0.35014063 -0.67632622 172 160 183
-0.02591015 -0.35107371 -0.67637497 171 159 180
-0.025770146 -0.3533496 -0.67622364 164 150 171
-0.023598308 -0.35282722 -0.67658764 172 163 180
-0.024867617 -0.3533164 -0.67635912 166 154 173
-0.023539994 -0.35215202 -0.67662686 178 169 188
-0.022921726 -0.35242277 -0.67671573 176 169 185
-0.021630609 -0.35087746 -0.67699426 191 186 205
-0.023179032 -0.35035369 -0.67679501 189 181 203
-0.023442853 -0.35156462 -0.67666864 183 174 195
-0.025244551 -0.3502956 -0.67652822 178 165 187
-0.023699617 -0.35113046 -0.67666781 183 174 195
-0.023308333 -0.35058543 -0.67676049 188 179 201
-0.023824258 -0.3516562 -0.67661166 180 171 192
-0.019713661 -0.35199973 -0.67732066 158 150 162
-0.018965719 -0.35126117 -0.67749792 155 144 159
-0.018076196 -0.35036188 -0.67770886 150 138 155
-0.021341303 -0.35168642 -0.67701012 182 178 192
-0.020475645 -0.34991196 -0.67725533 186 179 200
-0.021388851 -0.35059199 -0.6770491 193 188 207
-0.020671504 -0.3512519 -0.67715853 177 171 186
-0.020315906 -0.35214198 -0.67718798 165 158 169
-0.019957161 -0.3519057 -0.67726761 162 154 166
-0.022405563 -0.35731754 -0.67657375 157 141 160
-0.022729445 -0.35700294 -0.67653513 158 143 161
-0.024505205 -0.35553557 -0.67631 163 152 170
-0.024092123 -0.35530978 -0.67639202 161 147 166
-0.022612162 -0.35676166 -0.67656773 157 141 159
-0.022261132 -0.3564283 -0.67664331 156 139 157
-0.023632791 -0.35428721 -0.67651671 163 151 167
-0.021932876 -0.35460249 -0.67677957 164 154 166
-0.022989502 -0.35385308 -0.67664129 165 156 169
-0.021545503 -0.35366869 -0.67688507 168 163 171
-0.021059113 -0.35524216 -0.67692274 157 144 157
-0.020745138 -0.35541442 -0.67698812 153 138 152
-0.023027109 -0.35900569 -0.67644399 149 131 154
-0.022931278 -0.35774937 -0.67647499 157 143 162
-0.024054769 -0.35796332 -0.67628151 161 152 169
-0.023077814 -0.35834268 -0.6764431 154 139 159
-0.02301148 -0.35984164 -0.67643726 146 125 150
-0.023624271 -0.36099243 -0.67632204 156 134 153
-0.023325713 -0.36005712 -0.67638206 151 130 153
-0.021016067 -0.35758677 -0.67682087 148 126 145
-0.02346378 -0.36146185 -0.67634189 154 129 150
-0.030083325 -0.38442126 -0.67618322 165 151 170
-0.029970882 -0.38615096 -0.67628372 173 162 181
-0.029747985 -0.38532102 -0.67625314 168 155 176
-0.030377381 -0.38606408 -0.67624217 173 163 180
-0.029207453 -0.38503781 -0.67627949 164 151 173
0 0 0 1 0 0 0 1 0 0 0 1 0 0 0 0 0 748 1 0 0
