ply
format ascii 1.0
comment PCL generated
element vertex 112
property float x
property float y
property float z
property uchar red
property uchar green
property uchar blue
element camera 1
property float view_px
property float view_py
property float view_pz
property float x_axisx
property float x_axisy
property float x_axisz
property float y_axisx
property float y_axisy
property float y_axisz
property float z_axisx
property float z_axisy
property float z_axisz
property float focal
property float scalex
property float scaley
property float centerx
property float centery
property int viewportx
property int viewporty
property float k1
property float k2
end_header
0.1114586 0.62658525 -0.91298139 74 56 66
0.11208256 0.6253913 -0.91345263 79 61 74
0.11299582 0.62615293 -0.91195607 84 68 90
0.11245866 0.62473738 -0.9136706 81 64 79
0.1128621 0.62534827 -0.91278166 84 67 86
0.11214333 0.62573361 -0.91306609 79 62 76
0.11296479 0.62492055 -0.91306955 84 68 87
0.11388912 0.62420851 -0.91156042 92 77 104
0.11351293 0.62479877 -0.91269994 88 72 96
0.11396939 0.62406307 -0.91132671 93 79 106
0.11393239 0.62339854 -0.91178852 93 79 104
0.11378623 0.62425935 -0.91192567 91 76 102
0.11143091 0.61957854 -0.91429663 12 10 12
0.11442991 0.6194483 -0.91089571 93 85 97
0.11296536 0.61957568 -0.91260332 54 49 55
0.11400568 0.62035352 -0.91193879 88 78 91
0.11396316 0.62060481 -0.91214472 88 78 92
0.11338747 0.61974663 -0.91224229 67 60 69
0.11376976 0.6203016 -0.91216815 81 72 84
0.11320732 0.62242019 -0.91413122 80 66 83
0.11410863 0.62274027 -0.91136956 95 81 107
0.11421134 0.62212443 -0.91113806 95 82 106
0.11376391 0.62195557 -0.91287643 90 77 95
0.11346833 0.62294769 -0.91374224 88 73 93
0.11424189 0.62088323 -0.91134012 94 83 100
0.11440912 0.62058556 -0.91078281 95 85 102
0.11270758 0.60811466 -0.9111225 101 96 114
0.11157972 0.61014295 -0.91143757 87 83 95
0.11186416 0.60916281 -0.91141492 92 88 103
0.11188111 0.60881829 -0.91144836 93 90 104
0.11329805 0.60858595 -0.91078192 104 97 116
0.113139 0.61047012 -0.91080064 98 91 108
0.11230665 0.61057532 -0.91109049 92 85 100
0.11305936 0.6106649 -0.91082478 97 90 107
0.1114345 0.60488349 -0.91092253 102 96 108
0.11179686 0.60676241 -0.9114213 98 96 111
0.1128075 0.60683048 -0.91094303 106 100 118
0.11262669 0.60640633 -0.91087967 106 100 117
0.11218781 0.60092366 -0.91057646 94 81 97
0.11141846 0.60251176 -0.91064745 98 87 99
0.11214624 0.60104632 -0.91057181 95 81 97
0.1120187 0.59880334 -0.91066647 86 72 88
0.11438145 0.60136026 -0.90618092 100 91 114
0.11458863 0.60255879 -0.90576196 100 91 110
0.11421946 0.60030264 -0.90611535 103 95 120
0.11433163 0.60110182 -0.90637875 100 91 114
0.11457819 0.60266948 -0.90551132 103 94 113
0.11439335 0.59781754 -0.90624738 106 96 126
0.1141663 0.59899616 -0.90634829 104 96 123
0.11424398 0.62334126 -0.90994132 100 86 117
0.11388417 0.62632465 -0.91049254 91 76 105
0.11396315 0.62534273 -0.90929067 98 85 117
0.11442914 0.62088585 -0.90930557 106 97 123
0.11446062 0.6204133 -0.90927988 106 98 122
0.11448872 0.62021977 -0.91013002 99 90 109
0.11449679 0.61993396 -0.90949297 103 97 117
0.11434707 0.62236857 -0.91033328 99 86 113
0.1152288 0.61527592 -0.90888786 102 88 116
0.11469001 0.61789882 -0.90965813 101 94 113
0.11456183 0.61894792 -0.90893835 107 102 123
0.11458664 0.61858702 -0.90809405 114 110 135
0.11471156 0.61780018 -0.91026336 96 88 104
0.11485325 0.61419898 -0.90942436 101 89 114
0.11451641 0.61361599 -0.91049176 97 87 107
0.11520948 0.61484259 -0.90895385 102 89 116
0.11502745 0.61215657 -0.90880305 106 101 122
0.11452776 0.61237741 -0.90961164 103 95 116
0.11516792 0.612598 -0.90865672 106 100 122
0.11536922 0.61337471 -0.90818262 106 98 122
0.11541748 0.61414284 -0.90761411 106 96 124
0.11527283 0.61500525 -0.90868801 102 89 117
0.11390262 0.60999501 -0.91052556 105 97 117
0.11402286 0.6107896 -0.91027057 103 97 116
0.11464801 0.61101508 -0.90928376 106 102 121
0.11249197 0.60420787 -0.90942425 104 94 108
0.11313578 0.60489672 -0.90900993 105 96 112
0.11204662 0.60415405 -0.90990001 105 95 108
0.11425558 0.60490936 -0.90775877 102 92 110
0.11426454 0.60516924 -0.90786499 103 93 112
0.11422104 0.60512257 -0.90789294 103 93 112
0.11443389 0.60538656 -0.90777218 103 94 113
0.11202128 0.60426021 -0.91003597 106 95 109
0.11252137 0.6047554 -0.90969044 107 97 112
0.11252545 0.60032207 -0.91050583 93 79 96
0.11274017 0.60228193 -0.90938818 97 84 100
0.1125373 0.60083276 -0.91026413 94 80 97
0.11270932 0.60150909 -0.90976852 95 82 98
0.11347228 0.60152584 -0.90890473 92 79 97
0.11283384 0.59995502 -0.91032398 91 76 95
0.11270913 0.60129684 -0.90986371 95 81 98
0.11407111 0.59999806 -0.90686601 100 91 117
0.11344033 0.6006121 -0.9090277 92 79 99
0.11393187 0.60017163 -0.90736085 98 88 113
0.11416941 0.60029572 -0.90671182 100 91 116
0.11295415 0.59982985 -0.91011065 91 77 96
0.11264514 0.59655052 -0.90896648 94 82 101
0.11252186 0.59584612 -0.9087069 94 83 101
0.11219745 0.59583437 -0.90897363 93 81 97
0.11345329 0.59780949 -0.90899026 96 83 107
0.11197604 0.59795392 -0.91028404 89 75 90
0.11241962 0.59904921 -0.91052693 90 75 92
0.11336521 0.59702283 -0.90862644 96 84 108
0.11264641 0.59932679 -0.91049451 90 76 94
0.11361701 0.59821981 -0.90888792 96 84 108
0.1132824 0.59886169 -0.90948981 94 81 103
0.11394908 0.59772372 -0.9082042 99 87 113
0.11370879 0.59882838 -0.90824175 98 86 111
0.11380814 0.59887755 -0.90791607 98 88 113
0.11149354 0.59384328 -0.90989244 93 81 99
0.11216938 0.62403828 -0.9148013 74 58 69
0.11162383 0.62343472 -0.9156214 56 44 52
0.11246397 0.62350273 -0.91486925 74 59 73
0 0 0 1 0 0 0 1 0 0 0 1 0 0 0 0 0 112 1 0 0
