ply
format ascii 1.0
comment PCL generated
element vertex 228
property float x
property float y
property float z
property uchar red
property uchar green
property uchar blue
element camera 1
property float view_px
property float view_py
property float view_pz
property float x_axisx
property float x_axisy
property float x_axisz
property float y_axisx
property float y_axisy
property float y_axisz
property float z_axisx
property float z_axisy
property float z_axisz
property float focal
property float scalex
property float scaley
property float centerx
property float centery
property int viewportx
property int viewporty
property float k1
property float k2
end_header
-0.2073231 -0.12937757 -0.81754529 141 122 132
-0.20830865 -0.12826774 -0.8172186 170 154 152
-0.20767845 -0.12900995 -0.8175205 151 133 139
-0.20802188 -0.128512 -0.81708896 163 147 148
-0.20838138 -0.12830846 -0.8175447 171 152 152
-0.20849045 -0.12858175 -0.81847483 169 142 146
-0.20875329 -0.12897642 -0.81991929 167 129 137
-0.20832843 -0.12959521 -0.82051158 153 110 126
-0.20831664 -0.12881327 -0.81866682 163 136 142
-0.2129886 -0.13242677 -0.83911657 125 117 121
-0.21301529 -0.13254757 -0.83878976 115 107 112
-0.21315956 -0.13202868 -0.8396197 140 131 136
-0.21411173 -0.13096926 -0.83644426 111 102 109
-0.2140625 -0.13100754 -0.83759117 124 115 121
-0.2140564 -0.13089757 -0.83948904 149 139 144
-0.21376464 -0.1317618 -0.83652616 93 85 91
-0.2129066 -0.14163961 -0.84009767 5 4 4
-0.21179402 -0.14236259 -0.83788246 53 45 41
-0.2122958 -0.14215538 -0.83880758 35 30 27
-0.21157812 -0.13916063 -0.83993906 39 5 29
-0.21200091 -0.14158037 -0.83875012 34 26 26
-0.2120958 -0.14049758 -0.83971155 26 9 19
-0.21225141 -0.1412631 -0.83936846 23 15 18
-0.2113768 -0.141238 -0.83806551 57 38 43
-0.21128458 -0.14017691 -0.83853996 54 27 41
-0.21148804 -0.13886894 -0.83816946 32 6 27
-0.21145287 -0.13907589 -0.83761382 33 10 29
-0.21112047 -0.14116405 -0.83665019 61 46 49
-0.21117915 -0.14078702 -0.83655125 55 40 45
-0.21118502 -0.14074393 -0.83636802 53 39 44
-0.21320659 -0.14599138 -0.84675616 0 0 0
-0.21317363 -0.14600359 -0.84669143 0 0 0
-0.2132047 -0.14516772 -0.84793377 0 0 0
-0.21393946 -0.14692445 -0.84773165 0 0 0
-0.21322894 -0.14709419 -0.84695667 0 0 0
-0.20672786 -0.12834352 -0.81381053 104 86 95
-0.20780168 -0.12807307 -0.81524163 125 111 112
-0.20683824 -0.12884523 -0.81470227 119 101 110
-0.2086779 -0.12765215 -0.81650275 178 164 157
-0.20776911 -0.12830272 -0.81566489 141 126 127
-0.21321845 -0.12672526 -0.83105427 60 57 55
-0.21337618 -0.12714235 -0.83190012 34 32 31
-0.21303296 -0.12757647 -0.83126074 87 81 79
-0.21140037 -0.12932782 -0.82942677 87 78 82
-0.21280104 -0.12770861 -0.83089322 98 91 89
-0.21175839 -0.12978497 -0.83009881 112 101 106
-0.2128178 -0.1308476 -0.83198863 178 165 169
-0.21135749 -0.12947871 -0.82941645 89 80 84
-0.2111031 -0.12999398 -0.82922566 93 83 89
-0.21089534 -0.12989469 -0.82881582 98 87 93
-0.21156025 -0.13156612 -0.83062714 119 107 113
-0.21212444 -0.1316167 -0.8314724 139 126 132
-0.21134377 -0.13176177 -0.83043891 107 96 103
-0.21161243 -0.13350111 -0.83192658 84 75 81
-0.21247455 -0.13109617 -0.83164775 162 148 153
-0.21147981 -0.13106786 -0.83019602 125 113 120
-0.21049073 -0.13300487 -0.82876271 143 124 136
-0.21065666 -0.13388756 -0.82940316 144 124 137
-0.21065153 -0.13342346 -0.82940406 130 112 124
-0.2108629 -0.13344644 -0.83027208 97 84 93
-0.21059155 -0.13418432 -0.82912147 164 141 155
-0.21086001 -0.13763306 -0.83056474 62 51 60
-0.21080361 -0.13789949 -0.830351 64 52 61
-0.21124631 -0.1363731 -0.83237785 45 31 43
-0.21090007 -0.13856682 -0.83141118 47 28 43
-0.21124299 -0.13643391 -0.83239323 45 30 42
-0.21116398 -0.1366263 -0.83198196 49 35 47
-0.21104664 -0.13576108 -0.83095664 79 69 76
-0.21058886 -0.13802822 -0.82905543 82 76 79
-0.21093909 -0.13513778 -0.83051968 115 99 110
-0.21077739 -0.13548413 -0.82985198 130 113 124
-0.21115907 -0.13500467 -0.83142531 84 72 81
-0.20946757 -0.13988115 -0.82996297 10 3 9
-0.20981961 -0.13989145 -0.83119237 18 5 16
-0.20950575 -0.14069387 -0.8320592 20 5 18
-0.21006799 -0.13988048 -0.83201569 24 7 21
-0.20931704 -0.140839 -0.83176446 17 4 15
-0.21043104 -0.13898733 -0.83073884 35 20 32
-0.21068476 -0.13869858 -0.83023435 60 46 56
-0.20753799 -0.14256972 -0.83057547 8 4 3
-0.20791642 -0.14125307 -0.82853353 0 0 0
-0.20798917 -0.14254858 -0.83180338 13 6 5
-0.20798364 -0.14218773 -0.83093435 9 4 3
-0.20895976 -0.14146638 -0.83206946 16 4 14
-0.20875356 -0.14135613 -0.83118266 11 4 8
-0.2115968 -0.12568793 -0.82431215 76 62 74
-0.21159206 -0.12576428 -0.82449305 75 61 73
-0.21138591 -0.12552443 -0.82340699 77 63 78
-0.2110128 -0.12614875 -0.82329482 84 65 81
-0.20936602 -0.13017794 -0.823008 161 128 143
-0.20916842 -0.13046654 -0.82320935 156 122 141
-0.2095876 -0.12876777 -0.82124102 158 122 128
-0.20959991 -0.12979929 -0.8228271 158 127 139
-0.2096643 -0.13042411 -0.82388824 157 131 146
-0.21056554 -0.12772395 -0.82138282 142 116 115
-0.2099967 -0.12821205 -0.82111979 152 119 121
-0.21057236 -0.12754083 -0.8238551 102 78 94
-0.21026482 -0.12864886 -0.82452095 114 91 110
-0.21062571 -0.12754087 -0.82246584 123 98 104
-0.21070188 -0.12720625 -0.82269955 112 88 96
-0.21008739 -0.12942109 -0.82402384 137 113 128
-0.21058649 -0.12758149 -0.82321769 112 88 100
-0.20778626 -0.13018665 -0.8207764 137 94 117
-0.20897281 -0.13083151 -0.82354033 150 115 139
-0.20815277 -0.13007063 -0.8211062 144 102 123
-0.20928903 -0.13190943 -0.82321769 169 144 159
-0.20908573 -0.13224475 -0.82267159 173 145 161
-0.20941181 -0.13430128 -0.82267594 190 176 173
-0.20928805 -0.13425386 -0.82196897 197 181 182
-0.20961271 -0.13284454 -0.82394981 171 155 158
-0.2094205 -0.1334424 -0.82279658 185 168 172
-0.20926155 -0.13376825 -0.82185674 197 178 184
-0.209748 -0.134378 -0.8246007 170 163 150
-0.20743622 -0.13091266 -0.82135248 125 85 115
-0.20809135 -0.13181892 -0.8215698 152 118 140
-0.20869081 -0.1319986 -0.82228255 165 134 153
-0.2075984 -0.13087451 -0.82161391 127 88 117
-0.20807081 -0.13206545 -0.82134557 156 122 144
-0.2096412 -0.13506554 -0.82421523 178 172 156
-0.20959695 -0.13510214 -0.82399273 181 174 159
-0.2140054 -0.12956391 -0.83422887 132 122 129
-0.21397787 -0.12974378 -0.83433366 132 123 129
-0.21411869 -0.13014078 -0.83532685 120 111 118
-0.21466082 -0.12855402 -0.83553505 91 85 94
-0.2146751 -0.12844838 -0.83546638 91 85 94
-0.21380067 -0.13024917 -0.83425015 142 131 137
-0.21333176 -0.12958591 -0.83250606 126 117 119
-0.2137545 -0.1283718 -0.83310723 76 71 74
-0.21341503 -0.12908785 -0.83254874 103 95 98
-0.21347521 -0.12977287 -0.83288521 140 130 134
-0.21324737 -0.13123499 -0.83352143 155 143 148
-0.21348265 -0.1315161 -0.83485579 124 114 119
-0.21298109 -0.13291661 -0.83525777 82 75 79
-0.21293117 -0.13269064 -0.83470458 98 90 93
-0.21376689 -0.13091627 -0.83493012 137 126 132
-0.2119007 -0.1344115 -0.83392096 50 42 49
-0.21236329 -0.13398162 -0.83511364 52 45 51
-0.21158519 -0.1346467 -0.83299631 51 43 50
-0.21179305 -0.13456547 -0.83374679 46 38 45
-0.21247832 -0.13369749 -0.83507061 63 55 61
-0.21275629 -0.13350096 -0.83550823 62 56 60
-0.21159685 -0.13816415 -0.8361991 20 6 22
-0.21179999 -0.13663024 -0.8353169 20 7 20
-0.21145877 -0.13838837 -0.83542538 23 6 23
-0.21156634 -0.13802668 -0.83571446 21 6 22
-0.21189903 -0.13621989 -0.83545321 18 7 18
-0.2113871 -0.13662131 -0.83310682 36 21 34
-0.21201737 -0.13511403 -0.83524883 22 14 22
-0.21170227 -0.135363 -0.83397526 34 24 33
-0.21182983 -0.13617022 -0.83485562 21 8 20
-0.211491 -0.13711731 -0.83375907 27 10 25
-0.20987804 -0.14252123 -0.83472747 39 33 30
-0.20948106 -0.1420543 -0.83365321 30 20 24
-0.20996433 -0.14127855 -0.83356506 39 25 32
-0.20960502 -0.14099431 -0.83272886 26 11 22
-0.21066277 -0.14053531 -0.83382332 48 30 39
-0.21045856 -0.14051455 -0.83349663 42 25 35
-0.21066613 -0.14071113 -0.83401382 51 33 41
-0.21052301 -0.14171442 -0.83485872 60 46 47
-0.21102001 -0.14126194 -0.83563238 63 49 50
-0.21129496 -0.13923113 -0.83526784 33 16 30
-0.21123081 -0.1393211 -0.83485126 36 18 32
-0.21125413 -0.13925299 -0.83495641 34 16 31
-0.21111009 -0.13877313 -0.83312953 33 10 29
-0.2114026 -0.12648273 -0.82581079 105 90 101
-0.21157096 -0.12642746 -0.82625246 116 102 110
-0.21141906 -0.1262365 -0.82518464 90 74 87
-0.21110511 -0.12676844 -0.82555312 100 82 97
-0.20997603 -0.13073984 -0.8259052 137 117 132
-0.21056946 -0.12938888 -0.82652402 155 137 147
-0.2103605 -0.13008717 -0.82674444 136 119 130
-0.2106051 -0.1302584 -0.82843339 104 91 99
-0.2109441 -0.1275685 -0.82605064 125 107 120
-0.21050237 -0.12882835 -0.82562238 140 120 134
-0.21092044 -0.12762962 -0.82602191 126 107 120
-0.21067807 -0.12788105 -0.82539123 116 95 111
-0.21051432 -0.12874641 -0.82559091 138 118 132
-0.21011829 -0.13271663 -0.82678086 130 120 118
-0.21019129 -0.1331525 -0.82716238 146 132 134
-0.21017739 -0.13476333 -0.82698023 191 173 176
-0.21039972 -0.13255829 -0.82837081 138 120 131
-0.21029073 -0.13431057 -0.82764572 184 163 171
-0.21012303 -0.13167985 -0.82688725 121 108 113
-0.20979014 -0.13146631 -0.82506448 151 132 143
-0.20979297 -0.13230266 -0.82501394 155 140 143
-0.21027963 -0.13102485 -0.82780451 102 89 98
-0.21021023 -0.13171233 -0.82736653 112 101 105
-0.20987801 -0.13225682 -0.82548743 147 133 136
-0.2097376 -0.13760957 -0.82634443 184 171 159
-0.21015455 -0.13605124 -0.827613 193 172 176
-0.21023133 -0.13583323 -0.82784617 192 170 177
-0.21043804 -0.13755676 -0.82845962 120 107 114
-0.21008085 -0.13802043 -0.82737821 139 129 124
-0.21020846 -0.13628793 -0.82777429 181 161 165
-0.20999849 -0.13521336 -0.82635516 190 175 171
-0.20968658 -0.13705549 -0.82616621 205 189 177
-0.20994119 -0.13546346 -0.82624549 191 176 171
-0.21005349 -0.13539967 -0.82682186 196 177 177
-0.2098331 -0.13910443 -0.82779676 88 83 79
-0.20776951 -0.14126141 -0.8265152 102 99 87
-0.20809597 -0.14069493 -0.82645392 114 110 95
-0.20848961 -0.14045827 -0.82789642 34 33 28
-0.20890734 -0.13995473 -0.82787663 35 34 29
-0.20777316 -0.14126903 -0.82760566 50 48 42
-0.2086346 -0.14026374 -0.82776815 41 40 34
-0.20709227 -0.14584573 -0.82809252 5 4 4
-0.20683594 -0.14301059 -0.82808542 5 4 4
-0.20685306 -0.1431448 -0.82838577 1 1 1
-0.20713454 -0.14724983 -0.82845777 0 0 0
-0.20715088 -0.14943413 -0.82683766 0 0 0
-0.20715308 -0.1467991 -0.82839584 0 0 0
-0.2070511 -0.15000565 -0.82829577 0 0 0
-0.20715857 -0.14769146 -0.82775527 0 0 0
-0.2071185 -0.14951502 -0.82737422 0 0 0
-0.20715445 -0.14676756 -0.82770824 7 5 4
-0.21309385 -0.13153788 -0.84051329 159 149 154
-0.21378972 -0.13791269 -0.8436532 0 0 0
-0.21354459 -0.1385179 -0.84248573 0 0 0
-0.21300907 -0.13836211 -0.84201926 0 0 0
-0.21320643 -0.14203891 -0.84033406 0 0 0
-0.21307158 -0.14198446 -0.84099615 0 0 0
-0.21427779 -0.13924256 -0.84360623 0 0 0
-0.21322654 -0.13933448 -0.84232342 0 0 0
-0.21382447 -0.13885324 -0.84275359 0 0 0
-0.21374618 -0.13871714 -0.84255832 0 0 0
-0.21368137 -0.14076468 -0.84390461 0 0 0
-0.21318895 -0.14272323 -0.84139168 0 0 0
-0.21289992 -0.14262263 -0.84372431 0 0 0
0 0 0 1 0 0 0 1 0 0 0 1 0 0 0 0 0 228 1 0 0
