ply
format ascii 1.0
comment PCL generated
element vertex 1009
property float x
property float y
property float z
property uchar red
property uchar green
property uchar blue
element camera 0
property float view_px
property float view_py
property float view_pz
property float x_axisx
property float x_axisy
property float x_axisz
property float y_axisx
property float y_axisy
property float y_axisz
property float z_axisx
property float z_axisy
property float z_axisz
property float focal
property float scalex
property float scaley
property float centerx
property float centery
property int viewportx
property int viewporty
property float k1
property float k2
end_header
-0.23914394 0.1135504 -0.8172456 159 134 147
-0.23926966 0.11322171 -0.8183592 174 154 160
-0.23880875 0.11508669 -0.81898528 162 135 149
-0.24034388 0.10848863 -0.8172003 107 79 88
-0.24072644 0.11007456 -0.81936318 153 130 131
-0.24037963 0.10864814 -0.81740868 112 84 92
-0.24042563 0.10777248 -0.81708843 89 58 69
-0.24140887 0.10760178 -0.8201142 148 129 132
-0.24084365 0.10935804 -0.81932932 146 122 124
-0.24085023 0.10877017 -0.81901258 135 111 114
-0.24124286 0.10884517 -0.82030153 161 143 143
-0.24050108 0.10745525 -0.81714958 87 56 67
-0.23995264 0.11128823 -0.81751424 178 160 161
-0.24196328 0.10487135 -0.82039624 154 136 142
-0.24156187 0.10526834 -0.81923854 160 143 145
-0.24181506 0.10551391 -0.82025421 156 139 143
-0.24152121 0.10642385 -0.81976318 160 144 145
-0.24149655 0.10584759 -0.81934625 160 145 145
-0.24171172 0.10446621 -0.81929427 158 141 144
-0.2412415 0.10739109 -0.81946099 134 113 117
-0.24087436 0.10690619 -0.8180002 115 90 97
-0.24140416 0.10613991 -0.81921381 157 140 141
-0.2411478 0.10618774 -0.81842959 140 120 123
-0.24116856 0.10650223 -0.81868726 138 118 121
-0.24125262 0.10606775 -0.81868893 148 129 131
-0.24211138 0.099844515 -0.81865889 172 157 154
-0.24221714 0.10000014 -0.81934977 165 149 145
-0.24212444 0.10080057 -0.81900549 168 152 153
-0.24205719 0.10034686 -0.8184672 174 158 159
-0.24230322 0.099888943 -0.81984574 159 144 138
-0.24160613 0.10312833 -0.81815279 163 146 149
-0.24162358 0.10252631 -0.81785595 168 152 154
-0.24156801 0.10348142 -0.81823057 160 143 146
-0.24150495 0.10177426 -0.81700021 176 161 161
-0.24201941 0.102788 -0.81937814 160 142 149
-0.24186838 0.1016318 -0.81817079 173 156 160
-0.24205051 0.096070491 -0.82038951 127 109 110
-0.24220493 0.09746787 -0.81927437 143 127 124
-0.24204795 0.096168138 -0.81741333 144 128 129
-0.24218251 0.097215749 -0.82065564 134 116 114
-0.24213171 0.096843541 -0.81885237 141 125 123
-0.24221125 0.097516559 -0.81943899 143 126 123
-0.24223179 0.098608911 -0.81905758 156 140 136
-0.24230453 0.098696724 -0.81952691 152 137 130
-0.24222738 0.098182216 -0.81891418 152 137 132
-0.24224938 0.098650098 -0.81917644 155 140 134
-0.24231727 0.098490149 -0.81954855 149 134 127
-0.24219783 0.093401127 -0.82048208 154 141 135
-0.24196254 0.092396133 -0.81861758 142 132 121
-0.24207766 0.093354098 -0.81978661 145 132 125
-0.24204358 0.092890687 -0.81934154 145 134 125
-0.24222077 0.09292987 -0.82035047 159 147 139
-0.24210282 0.093160592 -0.81982023 148 136 128
-0.24184154 0.093661733 -0.81782854 128 116 110
-0.24185926 0.093903191 -0.81768709 130 118 112
-0.24196093 0.095216207 -0.81808507 135 119 119
-0.24186917 0.093971834 -0.81870514 125 111 106
-0.24186118 0.093927197 -0.81771058 130 118 112
-0.24084692 0.08944945 -0.82068366 159 145 143
-0.24230199 0.091622785 -0.82065612 180 170 159
-0.24141468 0.088826202 -0.81878608 162 149 147
-0.24130887 0.089148104 -0.81937498 163 149 147
-0.2418737 0.088944979 -0.81810856 165 153 150
-0.24102356 0.088485017 -0.81906623 158 143 144
-0.24150132 0.088049695 -0.81766856 159 146 146
-0.24201503 0.090715386 -0.81829947 156 147 137
-0.24197634 0.090760246 -0.81809545 153 144 133
-0.24225208 0.091203451 -0.81974697 173 163 152
-0.24204676 0.091756679 -0.81874663 153 145 131
-0.24194701 0.09012185 -0.81776625 154 144 136
-0.24057131 0.086377762 -0.81890243 151 136 140
-0.24024965 0.085523039 -0.81934452 148 132 138
-0.24082443 0.085579418 -0.81832069 152 138 142
-0.24129029 0.086631425 -0.81765097 156 142 144
-0.24106975 0.085260309 -0.81789041 152 137 142
-0.24171171 0.085505366 -0.81688619 155 138 145
-0.2417991 0.08755821 -0.8168968 160 147 147
-0.24058314 0.084089577 -0.81857979 148 132 140
-0.24036285 0.082655475 -0.81971604 169 155 165
-0.24110341 0.083943233 -0.81776804 150 132 142
-0.2407611 0.082652852 -0.81908351 171 155 166
-0.24076539 0.080802806 -0.82027775 191 175 190
-0.24067123 0.081214629 -0.82014441 188 173 187
-0.24156177 0.080974877 -0.81814152 160 142 155
-0.24197012 0.080104046 -0.81718516 141 123 133
-0.24154764 0.083323404 -0.81745404 159 140 153
-0.2414259 0.08153329 -0.81837618 166 148 162
-0.24126655 0.08155147 -0.81884933 174 156 171
-0.24129222 0.081619158 -0.81875122 173 155 169
-0.24235575 0.076312631 -0.81849879 145 122 133
-0.24235553 0.076304913 -0.818371 145 121 132
-0.24167541 0.07802362 -0.8204295 172 149 168
-0.24234778 0.076311737 -0.81819677 144 121 131
-0.24130899 0.078882255 -0.8204937 182 163 180
-0.24130301 0.078848951 -0.81976122 180 162 176
-0.24154291 0.078339182 -0.81883401 169 151 161
-0.24135715 0.079120331 -0.81923175 175 158 170
-0.24209817 0.07793536 -0.81724858 144 125 131
-0.24190703 0.079238117 -0.81755531 148 130 139
-0.24153891 0.078628615 -0.81878656 168 150 161
-0.24188569 0.078461811 -0.81777894 152 134 142
-0.24070242 0.073276013 -0.82001066 68 58 64
-0.24231617 0.073892288 -0.81890363 137 114 125
-0.24192208 0.072408214 -0.8180272 116 99 103
-0.24168178 0.073202059 -0.81895572 107 90 98
-0.24173452 0.073623948 -0.81926531 111 92 102
-0.2422981 0.073221333 -0.8183443 135 114 121
-0.2424428 0.072661109 -0.81771427 139 119 123
-0.24255249 0.075589865 -0.81998354 152 123 143
-0.24262239 0.074652702 -0.81695825 149 127 130
-0.24283174 0.073566966 -0.81809562 159 134 143
-0.24255556 0.075450301 -0.81926721 151 124 139
-0.24252747 0.075581364 -0.81902814 149 123 137
-0.23934215 0.072323397 -0.82031208 17 16 17
-0.24116993 0.071938276 -0.82006598 83 75 77
-0.24200563 0.071849309 -0.82029498 116 106 107
-0.2414216 0.071560621 -0.8193953 94 83 88
-0.24259932 0.071673341 -0.81995326 138 125 127
-0.24241751 0.071782798 -0.81998986 130 118 120
-0.24119322 0.071226023 -0.81898463 88 77 84
-0.24327205 0.070939802 -0.81950009 172 154 160
-0.24115118 0.071762092 -0.81865364 84 73 78
-0.24128234 0.072094545 -0.81854421 88 76 80
-0.2414282 0.07118772 -0.81832957 100 86 94
-0.24220811 0.071483828 -0.81755626 133 114 121
-0.24273902 0.069755144 -0.81688946 168 143 158
-0.24003948 0.071326122 -0.82052463 57 52 56
-0.22474006 0.14749649 -0.80116135 164 152 151
-0.22458431 0.14678884 -0.80072188 171 161 156
-0.22375382 0.14664645 -0.7998516 165 154 148
-0.22423388 0.14652352 -0.80031431 171 162 155
-0.22454055 0.14737302 -0.80079246 163 152 149
-0.22493924 0.14551993 -0.80111867 172 161 160
-0.22487539 0.14374277 -0.80059171 158 146 152
-0.22463892 0.14602177 -0.80064487 173 163 158
-0.22454251 0.14582099 -0.800484 171 161 156
-0.22405364 0.14350875 -0.79951441 150 137 142
-0.22446576 0.14402869 -0.80004019 159 146 149
-0.22547689 0.14098698 -0.80091077 147 134 145
-0.22573219 0.13978571 -0.8009848 145 132 141
-0.22462283 0.14052458 -0.79939359 144 132 136
-0.22498257 0.14149264 -0.80020928 149 135 143
-0.22523135 0.13976149 -0.80016744 144 131 137
-0.22495501 0.13992999 -0.79977113 143 131 136
-0.22453384 0.13894568 -0.79890376 137 127 127
-0.22519076 0.13855706 -0.7997731 140 130 133
-0.22568744 0.13783437 -0.80021685 148 137 145
-0.22461973 0.13864653 -0.79890889 138 129 128
-0.22608857 0.13801256 -0.80095714 144 129 140
-0.22669296 0.13545561 -0.80079383 142 120 137
-0.22592258 0.13659541 -0.80003715 149 135 146
-0.22584364 0.1362669 -0.79975688 151 138 149
-0.22590293 0.13529491 -0.79941249 153 138 150
-0.2262634 0.13682333 -0.80070525 144 128 140
-0.2245609 0.13732094 -0.79819304 148 140 141
-0.22415337 0.13830166 -0.79830086 132 121 123
-0.22740158 0.13109322 -0.79970121 152 129 146
-0.22696234 0.13401279 -0.80062544 140 113 134
-0.2272121 0.13385218 -0.80083513 142 117 136
-0.2274164 0.13129072 -0.79979903 152 129 146
-0.22685711 0.13186097 -0.79943419 146 120 139
-0.22615002 0.13123876 -0.79830545 142 113 135
-0.22646284 0.13234204 -0.79921627 141 113 135
-0.22539888 0.13366316 -0.79802674 154 137 152
-0.22638138 0.13432084 -0.7998386 145 123 141
-0.22530945 0.13388132 -0.79794008 157 142 155
-0.22587998 0.13246082 -0.79848498 141 113 135
-0.22538552 0.13130496 -0.79734099 141 111 134
-0.22537102 0.13261253 -0.79768503 149 126 144
-0.22902924 0.12878092 -0.80101305 169 150 164
-0.22882998 0.12926339 -0.80082822 166 148 161
-0.22894609 0.12829274 -0.80061644 169 150 164
-0.22690637 0.12707464 -0.79752964 160 148 151
-0.22733214 0.12787966 -0.79833668 161 147 152
-0.22797066 0.12759858 -0.79885727 164 148 157
-0.2277053 0.12892382 -0.79920089 160 146 153
-0.2267516 0.12993465 -0.7984826 150 128 143
-0.22805844 0.13004805 -0.8000688 160 144 154
-0.2260949 0.12888114 -0.79729813 149 128 140
-0.22597098 0.13019109 -0.79766119 144 117 136
-0.22669616 0.12854685 -0.79787761 154 137 146
-0.22737615 0.12956434 -0.7990756 156 139 149
-0.22641845 0.12990633 -0.79807848 148 124 141
-0.22947121 0.12675257 -0.80103534 177 156 171
-0.22928318 0.12491902 -0.80031407 172 153 163
-0.22903757 0.12596609 -0.8000024 171 152 164
-0.22900587 0.12366378 -0.79929084 178 164 171
-0.2294334 0.12384392 -0.80036986 174 157 165
-0.22969785 0.12334383 -0.80085194 174 156 164
-0.22927129 0.1246439 -0.80022389 172 154 163
-0.2292974 0.12342134 -0.79991585 177 161 169
-0.22820513 0.1235261 -0.79770923 179 168 175
-0.22724645 0.12597577 -0.79750139 165 154 157
-0.22778398 0.12598193 -0.79805136 167 154 161
-0.22784638 0.12636577 -0.79824007 166 152 160
-0.22764237 0.12461822 -0.79746252 171 161 166
-0.22885858 0.12044675 -0.79789567 186 177 178
-0.22904249 0.12076813 -0.79844213 184 173 176
-0.22874266 0.12174127 -0.79804367 185 175 179
-0.22920278 0.12178364 -0.79916018 181 169 173
-0.22890776 0.11949502 -0.79768151 187 179 179
-0.23043743 0.11998527 -0.80071664 186 177 179
-0.22987561 0.12150934 -0.80043364 180 166 171
-0.22979437 0.11966395 -0.79938442 187 179 180
-0.2297617 0.12189641 -0.80041438 179 163 169
-0.22986612 0.12036627 -0.79985839 184 174 177
-0.2283334 0.12269405 -0.79759753 182 174 178
-0.22963795 0.11582744 -0.79796875 171 158 160
-0.23005918 0.1160557 -0.79874271 173 161 164
-0.2305609 0.11737181 -0.80000782 181 171 174
-0.23161936 0.11546713 -0.8011381 176 166 170
-0.23031089 0.11579226 -0.79907382 173 161 164
-0.23040098 0.11606061 -0.79931146 175 163 166
-0.22958054 0.11873099 -0.79863155 187 179 179
-0.23015592 0.11773311 -0.79942322 181 172 174
-0.22999676 0.11797252 -0.79919463 183 174 175
-0.22974621 0.11803393 -0.79875273 183 174 175
-0.2294434 0.11703677 -0.79793942 177 166 168
-0.229669 0.11836276 -0.79869729 185 176 177
-0.23238993 0.11145625 -0.80099237 198 188 194
-0.23158364 0.11295896 -0.80034572 178 167 173
-0.2316585 0.11245229 -0.80029261 180 169 175
-0.23076642 0.11258379 -0.79913646 160 148 155
-0.231502 0.11231738 -0.80004197 177 166 172
-0.23048058 0.11345321 -0.79892749 157 145 151
-0.23103996 0.11486866 -0.8000499 170 159 163
-0.23098256 0.11514021 -0.79999191 172 161 165
-0.23273367 0.10992019 -0.80111766 194 185 188
-0.23271565 0.10937016 -0.80086505 192 183 186
-0.23267251 0.10977861 -0.80093414 193 184 188
-0.23118779 0.10858702 -0.79857039 172 160 167
-0.23221236 0.11021184 -0.80032516 192 181 187
-0.23176812 0.10788527 -0.79890651 178 167 173
-0.23181157 0.10980591 -0.79973185 185 174 180
-0.23207714 0.11078593 -0.80039495 191 181 187
-0.23139384 0.11006816 -0.79928499 177 165 173
-0.23124304 0.11118362 -0.79937249 173 161 169
-0.23170052 0.11019911 -0.79973328 183 172 179
-0.23327465 0.10641886 -0.8010866 183 176 174
-0.23253082 0.10713043 -0.79959196 186 175 178
-0.23282263 0.10548033 -0.79984236 183 175 176
-0.23282894 0.1036922 -0.7994045 185 179 178
-0.23278399 0.10379492 -0.79932773 185 179 179
-0.23315755 0.10481312 -0.80043882 179 173 172
-0.23228726 0.10405674 -0.79841769 189 181 183
-0.23195384 0.10528369 -0.7983591 185 174 180
-0.23157324 0.1052248 -0.79793262 180 169 176
-0.23135673 0.10581077 -0.79785502 175 163 171
-0.23122957 0.10418269 -0.79729104 178 166 175
-0.2327864 0.10040788 -0.79786587 195 191 182
-0.23266721 0.10332511 -0.7989046 188 182 181
-0.23255503 0.10270289 -0.79836863 191 185 183
-0.2325602 0.10274905 -0.79840112 191 185 183
-0.23391367 0.10104077 -0.80098641 176 167 168
-0.23403221 0.100119 -0.8009429 176 165 168
-0.23379563 0.10172135 -0.80093986 176 169 168
-0.23372504 0.100326 -0.80022931 180 172 171
-0.23357099 0.10025827 -0.79980654 183 175 173
-0.2339879 0.10005899 -0.80080587 177 166 169
-0.23176529 0.10336732 -0.79763496 185 176 182
-0.23207608 0.10207934 -0.79738605 192 185 185
-0.23405372 0.096446484 -0.79970104 182 166 177
-0.23441285 0.096394643 -0.80046737 178 159 171
-0.23373535 0.09707839 -0.79923648 185 171 181
-0.23394696 0.09657678 -0.79951537 183 168 178
-0.23456198 0.097156867 -0.80107307 174 156 167
-0.23283604 0.098721795 -0.79744083 197 191 186
-0.23309499 0.098169774 -0.79796857 193 185 185
-0.23310335 0.098317817 -0.79802763 193 185 184
-0.23364046 0.099566862 -0.79972899 183 174 174
-0.2336086 0.098407164 -0.79935288 185 174 178
-0.23346558 0.097693585 -0.79880333 188 177 183
-0.23465009 0.093693636 -0.8003999 179 160 172
-0.233806 0.092825226 -0.79851675 181 163 176
-0.23354045 0.092386328 -0.7978946 182 165 177
-0.23427898 0.093578771 -0.79961991 179 160 173
-0.23446935 0.092090644 -0.7997421 184 167 177
-0.23426378 0.092435658 -0.79938346 183 165 176
-0.23421058 0.095063291 -0.79969263 180 161 174
-0.23378766 0.093463406 -0.79857063 181 164 176
-0.23439437 0.095369354 -0.80013222 178 159 172
-0.23363812 0.094840027 -0.79841316 186 171 183
-0.2332643 0.093540281 -0.79743546 188 173 185
-0.23362511 0.095608197 -0.79847938 188 173 185
-0.23523089 0.087994106 -0.80082643 147 125 141
-0.23434684 0.08925385 -0.79948872 159 144 155
-0.23530127 0.088531636 -0.80100119 153 131 146
-0.23483549 0.08853858 -0.80022609 152 133 147
-0.23494755 0.088743299 -0.80043465 154 135 149
-0.23485884 0.090717517 -0.80049819 174 158 168
-0.23438396 0.091209784 -0.79957145 179 163 173
-0.23395349 0.090701953 -0.79873997 173 159 169
-0.23372675 0.090111054 -0.79833323 167 154 164
-0.23400396 0.090390608 -0.79887342 170 156 166
-0.2347544 0.09143354 -0.80030775 181 165 175
-0.23537306 0.087697983 -0.80104762 146 122 139
-0.23509333 0.085823171 -0.80083632 147 121 142
-0.23499538 0.086224258 -0.80050594 143 118 137
-0.2349003 0.084649876 -0.80066139 147 120 143
-0.23469304 0.087745838 -0.79990053 145 125 140
-0.23466858 0.087866582 -0.79987556 145 127 141
-0.23510243 0.087569542 -0.80055946 144 121 138
-0.23535722 0.080102175 -0.79985088 172 159 162
-0.23544599 0.080740333 -0.80023551 168 153 159
-0.23618779 0.080712423 -0.8011207 162 148 154
-0.23526715 0.081844911 -0.80050242 163 144 157
-0.23418547 0.080307938 -0.79852134 181 167 169
-0.23394486 0.081430614 -0.79872143 177 158 167
-0.23474938 0.081399336 -0.79968107 170 152 162
-0.23605369 0.080459982 -0.80084801 165 151 156
-0.23463732 0.08396019 -0.80019939 145 117 141
-0.23411366 0.082083337 -0.79915315 170 149 162
-0.23458228 0.083384134 -0.80012983 155 129 150
-0.2336731 0.081626505 -0.79815322 170 151 159
-0.23445617 0.083341733 -0.79983419 153 128 148
-0.23378567 0.082413666 -0.79833722 157 135 148
-0.23393868 0.079722866 -0.79816473 186 172 173
-0.23541388 0.078316003 -0.8001166 179 166 167
-0.23489597 0.078741536 -0.79943943 181 168 169
-0.23545951 0.079812318 -0.79999566 172 160 162
-0.23383078 0.07927575 -0.79808676 189 175 175
-0.23558649 0.077102795 -0.8004685 182 169 170
-0.23412149 0.077833727 -0.79834855 160 145 148
-0.23392783 0.077355407 -0.79798114 140 125 129
-0.23378302 0.076788418 -0.79767781 120 103 109
-0.23472531 0.07685513 -0.79915684 154 139 142
-0.23409107 0.076475166 -0.79811555 122 106 112
-0.23354739 0.076606363 -0.79728538 106 90 97
-0.23341614 0.078832738 -0.79738474 163 148 150
-0.23505974 0.072295457 -0.79950726 106 76 86
-0.2347717 0.073514424 -0.79890645 128 103 111
-0.23530348 0.073166072 -0.79990935 123 97 105
-0.23527326 0.073881753 -0.79981351 136 113 120
-0.23456946 0.072269365 -0.79860193 104 74 85
-0.23596489 0.073224865 -0.80112934 126 100 107
-0.23428519 0.073211499 -0.79805303 117 91 101
-0.23400019 0.07484632 -0.79778731 109 88 97
-0.23489773 0.075023592 -0.79920685 140 121 127
-0.23409876 0.072997957 -0.79773879 111 84 94
-0.23393586 0.074014463 -0.79759592 106 82 92
-0.23487744 0.074348226 -0.79910123 139 118 124
-0.23599684 0.070711903 -0.80105418 119 95 105
-0.23504569 0.06931933 -0.79910058 119 99 106
-0.2355929 0.07106337 -0.8003391 113 86 94
-0.2352124 0.068554901 -0.79932046 126 109 117
-0.23576705 0.071540341 -0.80072373 111 83 92
-0.23601836 0.070945203 -0.8011229 118 93 103
-0.23553726 0.071700193 -0.80031627 109 80 88
-0.23463544 0.071045339 -0.79856068 108 82 90
-0.2343685 0.069117129 -0.79780871 114 93 98
-0.2349422 0.072242521 -0.79928833 105 75 85
-0.23445097 0.071996607 -0.79834688 104 75 86
-0.23441546 0.071257375 -0.79818219 107 80 89
-0.2354342 0.071471594 -0.80009502 109 81 89
-0.23492038 0.065374963 -0.79859483 147 131 137
-0.23522885 0.06621813 -0.7992239 143 128 135
-0.23477484 0.065408826 -0.79834282 144 127 132
-0.23428687 0.066061042 -0.79746318 133 115 119
-0.2354313 0.067916892 -0.7996887 132 117 126
-0.23419133 0.068252377 -0.79737657 117 99 103
-0.23480009 0.066636503 -0.79845035 135 118 124
-0.23446867 0.065750048 -0.79779112 137 120 124
-0.23504855 0.066140763 -0.79889554 141 125 131
-0.2348727 0.063764922 -0.79861617 157 140 146
-0.23444986 0.063944452 -0.79781747 147 130 134
-0.23461093 0.06263566 -0.79855269 146 131 137
-0.23391204 0.061362952 -0.79797328 124 115 117
-0.23408404 0.061063968 -0.79834813 127 118 121
-0.2341958 0.061142437 -0.7984882 130 120 124
-0.23376611 0.061809648 -0.79758203 122 112 114
-0.23478927 0.062777266 -0.79876995 151 135 142
-0.23500839 0.058041081 -0.80015635 143 124 139
-0.23546307 0.059421264 -0.80073339 157 140 155
-0.23526976 0.059722193 -0.80041188 150 132 147
-0.23495604 0.060071796 -0.79990709 144 129 141
-0.23405144 0.060342707 -0.79851079 123 114 119
-0.23542266 0.055354942 -0.80065906 157 142 149
-0.23506287 0.055414494 -0.80024672 150 133 143
-0.23496769 0.055676796 -0.80019373 150 131 143
-0.23493849 0.056262948 -0.80016148 145 126 139
-0.23047188 0.15455666 -0.81407189 180 168 169
-0.23059279 0.15487573 -0.81456852 173 160 162
-0.23078579 0.15535016 -0.81534082 163 149 153
-0.23257713 0.15234621 -0.81679118 191 179 184
-0.23296951 0.15101874 -0.81652063 195 185 189
-0.23223953 0.15095183 -0.81489086 187 175 181
-0.23170282 0.15101027 -0.81409013 182 169 175
-0.23143257 0.15172537 -0.814282 178 164 170
-0.23171446 0.1515314 -0.81457031 182 169 175
-0.23160997 0.15291768 -0.81561637 179 164 170
-0.23142877 0.15271044 -0.815099 178 163 169
-0.23141287 0.15215239 -0.81460834 178 163 169
-0.23030789 0.15426628 -0.81347466 186 175 174
-0.23154165 0.15405691 -0.8164742 177 161 167
-0.2312745 0.15362577 -0.81544065 179 164 169
-0.23120908 0.15224329 -0.81415826 179 166 170
-0.2330545 0.14879769 -0.81578296 192 181 184
-0.23314878 0.14896083 -0.81604177 193 183 186
-0.2325581 0.14998576 -0.81490189 189 177 183
-0.2329977 0.14723918 -0.81518471 192 182 184
-0.23276062 0.14743334 -0.81463999 191 182 184
-0.23274925 0.14878808 -0.81502402 190 179 183
-0.23325013 0.14766149 -0.81595647 192 181 183
-0.23237023 0.14743595 -0.813703 191 182 185
-0.23227003 0.14963263 -0.81421721 188 177 182
-0.23192601 0.14982793 -0.8137272 185 173 179
-0.23169489 0.14920728 -0.81317961 183 173 177
-0.23303819 0.14644335 -0.8150509 192 183 184
-0.23327151 0.14555933 -0.81549823 187 176 176
-0.23254453 0.1463 -0.81376958 190 183 185
-0.23352471 0.14378531 -0.81584817 175 162 162
-0.23367243 0.14353536 -0.81618291 174 159 159
-0.23293392 0.14339155 -0.8145318 174 162 164
-0.23248 0.1459595 -0.81360185 189 181 183
-0.23275369 0.14538558 -0.81418753 185 176 177
-0.23271573 0.14276081 -0.81403702 171 158 162
-0.23266202 0.14586669 -0.81399876 188 179 181
-0.23233183 0.14328213 -0.81328619 174 163 167
-0.23206164 0.14468379 -0.81293982 180 172 174
-0.23244511 0.14102575 -0.81297559 174 162 169
-0.23272854 0.14220844 -0.81394058 171 158 162
-0.23283756 0.13986981 -0.81342119 175 162 170
-0.23264685 0.14159662 -0.81356293 172 159 165
-0.23349611 0.14226568 -0.81564295 169 154 156
-0.23295254 0.1394337 -0.81353194 176 162 170
-0.23390615 0.14055029 -0.81613618 177 163 165
-0.23383082 0.1412558 -0.81612056 173 158 160
-0.23347354 0.13908254 -0.81471634 181 169 175
-0.23394798 0.13998815 -0.81610376 180 167 170
-0.23394485 0.14094891 -0.81632757 175 161 163
-0.2339831 0.14226101 -0.81673813 169 154 153
-0.23428607 0.13549031 -0.81603116 168 155 157
-0.23436105 0.13697603 -0.81652015 179 168 169
-0.23356812 0.13509127 -0.81368566 155 132 143
-0.23346949 0.13490129 -0.8133406 152 128 140
-0.23410517 0.13625337 -0.81558609 170 155 160
-0.23432352 0.13598073 -0.81623286 172 159 161
-0.23368245 0.13641673 -0.8143326 166 146 155
-0.2332812 0.13650407 -0.8133747 163 144 154
-0.23372515 0.13738483 -0.81478101 174 158 165
-0.23346949 0.13739403 -0.81415427 172 156 164
-0.23414147 0.13800748 -0.81602776 182 170 174
-0.23390004 0.13829109 -0.8155334 183 171 176
-0.23500662 0.13109811 -0.81567067 177 162 168
-0.23511153 0.13141304 -0.81616879 175 160 166
-0.23433131 0.13158879 -0.81408805 181 167 171
-0.2347949 0.13119194 -0.81513578 178 163 169
-0.23424485 0.13212587 -0.81419128 180 167 170
-0.23436855 0.13092026 -0.81376165 183 168 174
-0.23405145 0.13428797 -0.81487781 163 147 151
-0.23370518 0.13421091 -0.81373292 158 138 146
-0.23438436 0.13455571 -0.81609464 166 154 154
-0.23422326 0.13310874 -0.81471622 173 160 162
-0.23386911 0.13215773 -0.81302243 174 157 164
-0.23425676 0.13353623 -0.81507874 171 158 160
-0.23648413 0.12772855 -0.81633204 187 172 182
-0.2359657 0.12750658 -0.81533068 188 174 182
-0.23585762 0.12829588 -0.81562322 189 176 184
-0.23569079 0.12996529 -0.81652182 180 165 173
-0.23569219 0.12836261 -0.81540877 188 175 183
-0.2361156 0.1290538 -0.81653136 188 174 183
-0.23438208 0.12909217 -0.81299061 186 173 178
-0.23494123 0.13081716 -0.81531435 178 163 170
-0.23471741 0.13044372 -0.81452233 181 166 172
-0.23464024 0.12918016 -0.81375492 184 170 176
-0.23483735 0.13049255 -0.81488085 180 165 171
-0.2351249 0.13032174 -0.81561506 177 162 169
-0.23698615 0.12615627 -0.81649852 185 170 180
-0.23657362 0.12682687 -0.81598765 185 170 180
-0.23637941 0.12338457 -0.81375402 204 191 200
-0.23680922 0.12550491 -0.8159517 189 174 184
-0.23684207 0.12346685 -0.81490862 199 186 194
-0.23721869 0.12312613 -0.81562418 197 183 192
-0.23673901 0.12381115 -0.81485111 198 185 194
-0.23507597 0.12592329 -0.81296688 192 180 186
-0.23557547 0.12548217 -0.81353855 194 181 189
-0.23603736 0.12532362 -0.81420672 195 181 190
-0.2360438 0.12599778 -0.81459463 192 178 187
-0.23635936 0.12237226 -0.81324697 206 193 202
-0.23707156 0.12176547 -0.81467479 199 186 193
-0.23720844 0.12089157 -0.8146258 198 185 190
-0.23680827 0.1205999 -0.81354046 202 189 195
-0.23712008 0.12288605 -0.81527472 199 185 193
-0.23691708 0.12284443 -0.81476998 201 187 196
-0.23785235 0.12106181 -0.81653148 187 174 178
-0.23754455 0.11956919 -0.81517148 190 177 180
-0.23730056 0.12112993 -0.81496358 196 183 189
-0.23759207 0.12202019 -0.81608564 193 179 186
-0.23718797 0.11947627 -0.81411487 196 183 187
-0.23803695 0.11534157 -0.81479764 168 145 162
-0.23814799 0.11600917 -0.81543076 166 143 158
-0.23847012 0.11542099 -0.81618631 148 119 140
-0.23775333 0.11664916 -0.81447065 188 172 180
-0.23809347 0.1166608 -0.8155393 172 151 163
-0.2376256 0.11834981 -0.81489462 189 175 179
-0.23759542 0.11626174 -0.81381941 193 177 186
-0.23765613 0.11896542 -0.815274 188 174 177
-0.23712948 0.1185618 -0.81356591 197 184 189
-0.23717189 0.11772886 -0.81329381 197 184 190
-0.2371285 0.11830015 -0.81343925 197 184 189
-0.23907863 0.11290325 -0.81619376 163 141 151
-0.23882085 0.1145912 -0.81669444 144 114 134
-0.23869915 0.11138657 -0.8140437 188 177 173
-0.23847938 0.11236744 -0.81414002 177 162 164
-0.23862641 0.11361095 -0.81544626 159 135 148
-0.23853131 0.11165745 -0.8137722 186 174 171
-0.23829378 0.11193056 -0.81328547 188 176 173
-0.2378515 0.11358932 -0.81304181 193 179 184
-0.23787652 0.11338132 -0.81297719 194 181 184
-0.23827828 0.11413012 -0.81474805 167 145 158
-0.23792705 0.11408808 -0.81362075 184 167 176
-0.23996101 0.10762694 -0.81567818 118 94 101
-0.23940967 0.1077485 -0.81424958 158 145 145
-0.23972492 0.10977164 -0.81608832 159 140 143
-0.2395111 0.10787743 -0.81458437 153 137 139
-0.23983684 0.10900845 -0.81601346 142 121 126
-0.23934156 0.10889124 -0.81462789 176 165 163
-0.23855986 0.1100105 -0.8129918 191 183 177
-0.23866244 0.10931908 -0.81295067 190 183 177
-0.23891686 0.10857312 -0.81330627 187 180 175
-0.23906846 0.11115755 -0.81494844 185 172 170
-0.23884971 0.10874831 -0.8132022 188 181 176
-0.23864412 0.1100936 -0.81326544 190 181 176
-0.24034463 0.10723438 -0.81653792 93 63 73
-0.24039382 0.10618881 -0.81610256 121 96 103
-0.24031912 0.10521291 -0.81535941 145 124 129
-0.24023661 0.10531678 -0.81518078 144 123 129
-0.24052237 0.10507303 -0.81586272 144 123 127
-0.24008334 0.10570803 -0.81507504 139 117 124
-0.24003798 0.10468215 -0.8144241 164 145 151
-0.23994812 0.10651561 -0.81514674 130 107 115
-0.23996508 0.10701013 -0.81541049 122 98 105
-0.23968226 0.10602762 -0.81421489 157 140 144
-0.2398373 0.10630215 -0.81475383 142 121 128
-0.2395882 0.10694344 -0.81436521 149 133 136
-0.24037036 0.1023738 -0.81360751 194 183 183
-0.24081513 0.10349285 -0.81583148 173 158 157
-0.24068573 0.10188472 -0.81409311 190 179 178
-0.24086756 0.10133542 -0.81414348 190 181 180
-0.24051382 0.1028972 -0.81446546 185 172 172
-0.24146016 0.10161073 -0.81673419 178 164 163
-0.24151552 0.10038755 -0.81604278 189 176 176
-0.24123478 0.10173215 -0.81582016 180 168 167
-0.2415261 0.09961386 -0.81549627 195 184 184
-0.24117097 0.1024682 -0.81609994 175 161 160
-0.24022193 0.10263638 -0.81341344 196 185 187
-0.24185675 0.097889028 -0.8166517 173 158 160
-0.24175777 0.095774449 -0.81591052 161 146 148
-0.24183649 0.099009566 -0.81676555 185 170 172
-0.24188687 0.096806891 -0.81658232 162 146 148
-0.24150971 0.097009942 -0.81516987 189 175 178
-0.24179472 0.098965421 -0.8165977 187 172 174
-0.24129282 0.098991156 -0.81442875 200 190 191
-0.24102579 0.096326426 -0.81314385 210 199 203
-0.24128102 0.099245548 -0.8143847 200 190 190
-0.24160875 0.099351346 -0.81585306 195 182 183
-0.24118984 0.09700527 -0.81390041 206 194 198
-0.24134901 0.098679431 -0.81466919 200 189 190
-0.2413294 0.091935426 -0.81436467 164 152 149
-0.24177603 0.093963347 -0.81625581 144 131 128
-0.24140485 0.092612803 -0.81451941 165 151 151
-0.2414341 0.093205109 -0.81441736 170 154 157
-0.24183123 0.094042286 -0.81657398 140 127 123
-0.24141936 0.092466459 -0.81468529 162 149 147
-0.24132121 0.095460132 -0.81419533 188 175 179
-0.2414023 0.093193144 -0.81424594 173 157 160
-0.24124193 0.094717622 -0.81380582 190 176 180
-0.24141037 0.094704129 -0.81445062 179 164 168
-0.241119 0.09343528 -0.81318671 193 178 182
-0.2418036 0.089206301 -0.81673306 148 138 132
-0.24117006 0.088083826 -0.81311291 159 145 152
-0.24119852 0.087942056 -0.81322831 160 146 153
-0.24178043 0.089588046 -0.81670469 145 135 128
-0.24148771 0.090080567 -0.81528068 140 130 125
-0.24180675 0.08896067 -0.81668925 151 140 135
-0.24123771 0.090865985 -0.81376892 167 153 154
-0.24111554 0.091387644 -0.81301856 183 167 171
-0.24113666 0.090562381 -0.81309217 176 161 165
-0.24144012 0.090749986 -0.81506902 145 135 129
-0.24126312 0.089450017 -0.81382537 156 144 145
-0.24161211 0.084835678 -0.81578684 157 138 147
-0.2418032 0.087238632 -0.81644189 160 147 148
-0.2415342 0.085860312 -0.8147772 163 146 152
-0.24158396 0.084248692 -0.81577665 156 136 147
-0.24157324 0.085733093 -0.81514001 161 144 150
-0.24180122 0.087435976 -0.81635273 161 148 148
-0.24137993 0.086876385 -0.81406641 162 146 153
-0.24126373 0.086364552 -0.81339908 162 146 154
-0.24143371 0.085769325 -0.81423348 163 146 153
-0.24136984 0.087206997 -0.81404799 161 147 153
-0.24183026 0.087758571 -0.81653637 161 148 148
-0.24139027 0.082165793 -0.81512904 143 125 135
-0.24183336 0.082630672 -0.81678146 146 126 137
-0.24156623 0.080346316 -0.81508785 135 118 127
-0.24199481 0.080964305 -0.8167448 138 120 130
-0.24144937 0.082694679 -0.81551188 145 127 138
-0.24152233 0.083342783 -0.81574017 150 130 142
-0.24135457 0.083509177 -0.81428903 156 136 148
-0.24132255 0.082517266 -0.81459278 147 128 139
-0.24131128 0.083037175 -0.81420672 153 133 144
-0.24152955 0.083460234 -0.81573194 151 131 143
-0.24145971 0.076399624 -0.81357068 144 129 132
-0.2418935 0.077932365 -0.81551486 139 122 127
-0.24147205 0.076903343 -0.81373954 143 128 132
-0.2417253 0.076467782 -0.81454629 142 126 128
-0.24187873 0.07664457 -0.81514376 141 124 127
-0.24169444 0.076569945 -0.81446004 142 126 129
-0.24113643 0.07934197 -0.8133291 135 119 127
-0.24126813 0.077453911 -0.81320953 141 127 131
-0.24135597 0.077676043 -0.81357133 141 126 130
-0.24144313 0.077591576 -0.81383938 141 126 131
-0.24101627 0.079581961 -0.81299639 134 118 127
-0.24246903 0.073043689 -0.81552517 156 134 139
-0.24250337 0.074141696 -0.81618571 150 129 132
-0.24210262 0.074238688 -0.81499928 147 126 133
-0.2420232 0.073506735 -0.81438464 151 129 137
-0.24230444 0.073128328 -0.81506056 154 132 139
-0.24161987 0.07537701 -0.81375837 146 129 133
-0.24158883 0.075372852 -0.81364465 146 129 133
-0.24212691 0.075976677 -0.81584096 141 122 124
-0.24188448 0.074646078 -0.81440622 147 127 133
-0.24180669 0.073604926 -0.81368756 151 130 139
-0.24286589 0.070463933 -0.81674886 170 145 156
-0.24281037 0.070143737 -0.81663984 171 147 159
-0.24259435 0.071406581 -0.81564212 169 148 152
-0.24216111 0.071283817 -0.81432408 167 147 154
-0.24225807 0.071885481 -0.81453669 162 140 148
-0.2424686 0.071605965 -0.81522578 166 145 150
-0.23497941 0.1554582 -0.83047205 122 110 113
-0.23508696 0.1548201 -0.8292492 163 150 155
-0.23491774 0.15535605 -0.82882696 171 157 162
-0.23487508 0.1556882 -0.82908088 163 150 154
-0.23461908 0.15646401 -0.82886386 161 146 151
-0.23732525 0.13487428 -0.82901001 123 105 109
-0.23637004 0.1381584 -0.82854527 126 102 106
-0.23644003 0.13808228 -0.82852376 128 104 108
-0.23688191 0.13430144 -0.82936013 109 94 96
-0.23640634 0.13172764 -0.82975966 109 97 97
-0.23695223 0.13392779 -0.82932401 114 98 101
-0.23757119 0.13317759 -0.82894647 140 123 125
-0.23776481 0.13278233 -0.82886332 146 130 131
-0.23788452 0.13201235 -0.82885069 152 137 136
-0.23696826 0.12845863 -0.83097249 73 60 79
-0.23646653 0.12895654 -0.83095145 71 58 74
-0.23650375 0.12742983 -0.83188707 36 23 51
-0.23698281 0.12828049 -0.83107573 69 56 77
-0.23793116 0.12915057 -0.82952875 125 110 115
-0.23748517 0.12745173 -0.83008438 86 71 80
-0.23762497 0.12886527 -0.83008194 106 92 103
-0.23823816 0.12929675 -0.82894683 143 128 126
-0.23687473 0.12788062 -0.83138174 57 44 68
-0.24042092 0.11933967 -0.8303833 35 29 29
-0.24030727 0.1185086 -0.82988346 38 32 31
-0.2409151 0.11913652 -0.82876015 76 64 64
-0.24471025 0.07549765 -0.83120447 0 0 0
-0.24447693 0.076008998 -0.82988274 0 0 0
-0.24443807 0.076155126 -0.82955444 0 0 0
-0.24456847 0.076171286 -0.82975727 0 0 0
-0.22180521 0.13161419 -0.79335177 83 63 78
-0.22176461 0.13157505 -0.79328787 83 63 78
-0.2215081 0.13191766 -0.79310191 80 60 77
-0.22175449 0.13079235 -0.79297429 87 64 80
-0.22215249 0.13034762 -0.79324955 92 71 85
-0.22190185 0.12966566 -0.79261535 97 73 91
-0.22167672 0.12935789 -0.79222745 96 71 92
-0.22085525 0.12919717 -0.79140753 78 52 77
-0.22114326 0.13008247 -0.79192066 88 60 85
-0.22173345 0.12895212 -0.79217064 96 72 92
-0.22425853 0.12502736 -0.79335064 158 144 153
-0.2239453 0.12557468 -0.79324275 146 132 141
-0.22440106 0.12340888 -0.79292893 172 158 171
-0.22490735 0.12217733 -0.79335582 185 172 183
-0.22528443 0.11934008 -0.79331404 197 182 192
-0.22429502 0.11961493 -0.79199368 181 167 173
-0.22312801 0.12255099 -0.79157603 150 135 145
-0.22374114 0.12295254 -0.7922076 161 147 158
-0.22388856 0.12029694 -0.791776 171 156 164
-0.22367731 0.12236173 -0.79202545 161 147 157
-0.22379063 0.12206759 -0.79206401 164 150 160
-0.22393058 0.12102086 -0.79196692 170 156 164
-0.22466014 0.11898758 -0.79222172 185 170 177
-0.22508085 0.11800671 -0.79268563 161 145 155
-0.22502662 0.11746185 -0.7925179 147 131 141
-0.22424991 0.1170419 -0.79153484 144 129 138
-0.22388655 0.11764324 -0.79120362 156 143 149
-0.2234062 0.11752249 -0.79071587 141 128 133
-0.22347839 0.11865614 -0.79101002 146 133 139
-0.23114847 0.072921939 -0.79274273 113 91 100
-0.23093687 0.070216134 -0.79186159 117 101 104
-0.23135339 0.068478785 -0.79185349 118 102 102
-0.23062848 0.06920822 -0.79109037 112 96 96
-0.23134035 0.069799811 -0.79228288 120 104 107
-0.2314567 0.068932645 -0.79215121 120 104 105
-0.23080699 0.06912519 -0.79131103 114 98 98
-0.23154952 0.069924302 -0.79261655 123 106 110
-0.23096061 0.072134107 -0.79234582 116 95 105
-0.22561002 0.15300542 -0.80460477 152 137 134
-0.22584395 0.15264934 -0.80489761 154 139 138
-0.22542976 0.15058891 -0.80316013 142 127 135
-0.22545399 0.15126151 -0.80350858 146 131 136
-0.22488619 0.15128127 -0.80242425 132 117 123
-0.22597671 0.15129106 -0.80452836 159 145 147
-0.22542343 0.148008 -0.80259329 173 161 160
-0.22496565 0.14911026 -0.80192733 147 133 138
-0.22590533 0.15034318 -0.80397755 153 139 146
-0.22565535 0.149777 -0.80338562 155 141 146
-0.22489069 0.14726028 -0.80142134 170 159 156
-0.22595564 0.14699957 -0.80285925 180 170 168
-0.22692703 0.14797382 -0.80456787 178 168 170
-0.22650658 0.1498196 -0.80486244 169 156 160
-0.2264338 0.14857695 -0.80420101 174 163 165
-0.22727647 0.14800517 -0.80503702 179 169 172
-0.22696394 0.14706434 -0.80420113 182 173 174
-0.22686437 0.14666013 -0.80388719 183 175 175
-0.22762379 0.14269848 -0.80423981 177 165 172
-0.22661014 0.14351156 -0.80300051 167 156 165
-0.22710922 0.14445262 -0.8038047 174 164 171
-0.22562508 0.14270657 -0.80156553 154 141 154
-0.22776024 0.14412312 -0.80462849 181 171 176
-0.22664917 0.14303546 -0.80298394 166 155 164
-0.22589327 0.14306021 -0.80197567 158 146 157
-0.22579132 0.14498971 -0.80215877 170 160 163
-0.2255864 0.14348085 -0.80163813 158 146 156
-0.22603597 0.14644039 -0.80272132 182 173 171
-0.22650869 0.14598332 -0.80325967 180 171 172
-0.22547401 0.14467698 -0.80169314 167 156 160
-0.22730322 0.14637601 -0.80435985 184 177 178
-0.22515108 0.14646722 -0.80157405 180 170 165
-0.2265192 0.13885169 -0.8019017 149 136 144
-0.22705442 0.1391322 -0.80272359 156 144 152
-0.22814348 0.13891335 -0.80427945 166 155 162
-0.22777165 0.14046565 -0.80398256 170 159 165
-0.22656697 0.13952835 -0.8020882 152 139 148
-0.22735427 0.14010735 -0.80331999 164 152 159
-0.22652805 0.14213733 -0.80265117 162 150 160
-0.22682959 0.1401186 -0.80257601 157 145 153
-0.2260087 0.14128967 -0.80175489 153 140 151
-0.22680368 0.14002292 -0.80251867 157 144 152
-0.22659934 0.13974488 -0.80217922 153 141 149
-0.22751696 0.14215197 -0.80397832 173 162 169
-0.2262934 0.14136156 -0.80215305 156 144 154
-0.22869022 0.13805032 -0.8048963 170 159 165
-0.22864567 0.13798305 -0.80476731 170 159 165
-0.22910015 0.13550171 -0.80466712 174 158 167
-0.22908188 0.13523822 -0.80450058 174 158 167
-0.22891614 0.13546589 -0.80421907 173 157 166
-0.22783484 0.13646589 -0.80288774 154 136 149
-0.22820944 0.13694341 -0.80358678 163 148 157
-0.22765519 0.13610858 -0.80249226 150 130 145
-0.22650915 0.13803627 -0.80160564 145 130 141
-0.22683488 0.13651741 -0.80147165 142 123 137
-0.2279315 0.13716206 -0.80332923 156 140 152
-0.22700213 0.13537249 -0.80125642 140 116 134
-0.22761343 0.13771939 -0.80308884 155 141 151
-0.22695838 0.13549681 -0.80124247 140 116 134
-0.22857678 0.13179708 -0.80147284 162 145 157
-0.22889943 0.13471633 -0.80382407 174 156 166
-0.22896701 0.13339774 -0.803258 169 152 163
-0.22862265 0.13277936 -0.80211145 166 149 160
-0.22902642 0.13418764 -0.8038311 172 155 165
-0.22947051 0.13378786 -0.80477858 170 154 162
-0.2294112 0.13185081 -0.80374372 160 143 152
-0.22907728 0.13246132 -0.80305415 165 149 160
-0.22974336 0.13229477 -0.80489856 160 143 150
-0.22961023 0.13103607 -0.80395359 154 137 145
-0.22952576 0.13097185 -0.80368161 154 137 146
-0.22833054 0.13320708 -0.8018707 162 143 155
-0.22847414 0.13247479 -0.80165476 162 145 156
-0.23066653 0.12782985 -0.80388784 175 160 169
-0.23136598 0.12764795 -0.80499393 178 168 174
-0.23023717 0.12981501 -0.80464846 158 143 149
-0.23009884 0.12703024 -0.80226237 179 161 174
-0.23054685 0.12710929 -0.80312109 180 164 175
-0.22996774 0.12796979 -0.80275077 171 153 165
-0.22950447 0.1273777 -0.80139285 175 154 170
-0.22926709 0.13067445 -0.80277079 156 139 150
-0.22936715 0.13038845 -0.80288017 157 140 151
-0.22909872 0.1295151 -0.80156082 165 146 160
-0.22961348 0.12937945 -0.80295873 162 144 154
-0.22926967 0.13042302 -0.80262095 158 141 152
-0.23251694 0.12315673 -0.80441099 189 174 179
-0.23202287 0.12416081 -0.80418342 188 174 180
-0.23132408 0.12398583 -0.80328131 184 169 176
-0.23186024 0.12384167 -0.80386162 186 172 178
-0.23023862 0.12356712 -0.80183351 177 159 167
-0.23188476 0.12478263 -0.80427074 189 177 183
-0.23159175 0.12548307 -0.80426061 186 174 180
-0.23147517 0.12632021 -0.80451465 183 173 179
-0.23070271 0.12548976 -0.80304575 180 165 173
-0.2308253 0.12680638 -0.80347359 182 168 177
-0.23047581 0.12604897 -0.80273056 180 164 174
-0.23118721 0.12687881 -0.80412972 183 171 179
-0.23085737 0.12611073 -0.80342001 181 167 176
-0.23040159 0.12587927 -0.80257142 179 163 173
-0.23285988 0.12143737 -0.80458564 192 178 182
-0.23312452 0.11927012 -0.80442178 199 189 191
-0.23248771 0.12233017 -0.80410963 189 174 179
-0.2326888 0.12168957 -0.8043167 191 177 181
-0.23186558 0.11992223 -0.80252975 194 185 187
-0.23135132 0.12008433 -0.80199188 189 181 183
-0.23163041 0.12022912 -0.80236137 191 182 184
-0.23185641 0.12292375 -0.80349857 184 168 173
-0.23170489 0.1230172 -0.80334795 183 166 172
-0.23065983 0.12019127 -0.80120569 186 176 179
-0.2310522 0.12010664 -0.80164587 188 179 181
-0.23101673 0.12263113 -0.80240607 181 165 171
-0.233528 0.11777036 -0.80489224 193 180 185
-0.23341584 0.11751866 -0.80459714 192 180 184
-0.23330285 0.11864981 -0.80463332 197 186 189
-0.23319849 0.11590198 -0.80378562 188 175 181
-0.23251653 0.11595971 -0.80242026 194 182 189
-0.23346487 0.11638363 -0.80442679 186 174 179
-0.23302497 0.11655598 -0.80357504 191 179 184
-0.23290358 0.11657236 -0.80333328 192 180 186
-0.23173928 0.11537578 -0.80126762 177 167 171
-0.23221217 0.11534707 -0.80184102 189 177 184
-0.23170416 0.11757557 -0.80172682 187 179 182
-0.2316912 0.11902284 -0.80204189 195 188 189
-0.23190989 0.11707348 -0.80184913 186 178 180
-0.23294176 0.11384951 -0.80273914 191 178 186
-0.23328808 0.11410465 -0.80350971 188 174 181
-0.2331319 0.11339987 -0.80299824 190 178 184
-0.23343629 0.11403695 -0.80379027 186 173 180
-0.23291378 0.1136334 -0.80262256 192 179 186
-0.23378576 0.11152951 -0.8041904 162 145 155
-0.2338167 0.11400919 -0.8046636 176 161 168
-0.23347932 0.1128439 -0.80368388 179 165 172
-0.23374736 0.11296866 -0.80433285 172 156 165
-0.23295091 0.11188373 -0.80228913 189 177 184
-0.2327023 0.11185057 -0.80170053 196 185 191
-0.23202348 0.11514625 -0.8015613 184 173 179
-0.23204353 0.11399958 -0.80126846 186 175 181
-0.23397939 0.10970994 -0.8039366 161 146 153
-0.23388761 0.10935281 -0.80357271 164 150 156
-0.23441531 0.10982825 -0.80500454 152 136 145
-0.2342284 0.1106108 -0.80489552 152 135 144
-0.2335929 0.10856345 -0.80255377 173 162 165
-0.23428121 0.10758437 -0.80375183 165 155 159
-0.23272306 0.11069121 -0.80139983 194 183 188
-0.23270512 0.11097201 -0.80147451 194 183 189
-0.23321427 0.10872602 -0.80173421 183 173 175
-0.2341305 0.11131857 -0.80496264 151 132 143
-0.23278861 0.1111376 -0.80173939 191 180 186
-0.23610325 0.10416804 -0.80464798 191 182 183
-0.23450144 0.1042496 -0.80270433 176 170 169
-0.23450585 0.10411932 -0.80263156 177 171 170
-0.23541355 0.10454858 -0.80401611 182 174 174
-0.23493896 0.10406994 -0.80313945 181 175 174
-0.23532398 0.10428647 -0.80374742 183 176 175
-0.23394342 0.10539562 -0.80239058 170 164 163
-0.23371167 0.10643138 -0.80210686 175 168 168
-0.23411408 0.10520674 -0.80274224 167 160 160
-0.23411159 0.10582949 -0.80289137 167 160 161
-0.23362905 0.10668772 -0.80197763 177 169 169
-0.23649159 0.10161736 -0.8046391 189 180 180
-0.2359768 0.10245201 -0.80395031 193 184 185
-0.2352125 0.10145943 -0.8027826 186 176 179
-0.23569207 0.10096539 -0.80339384 184 175 176
-0.23491038 0.1007124 -0.80228251 182 171 174
-0.23598495 0.10007814 -0.80370337 180 172 171
-0.2341397 0.10162263 -0.80147129 177 168 169
-0.23418747 0.10276261 -0.80174023 179 172 171
-0.23400903 0.10298504 -0.80155808 177 172 169
-0.23482712 0.1024555 -0.80248302 184 176 176
-0.23464784 0.1016416 -0.80210966 181 172 174
-0.23454107 0.10078242 -0.80181855 179 169 172
-0.23662546 0.09869568 -0.8044368 184 174 175
-0.23725632 0.096429661 -0.80501121 199 184 192
-0.23666656 0.096539497 -0.80377585 197 184 190
-0.23675598 0.096496187 -0.80395746 198 184 191
-0.23692077 0.096794233 -0.80442744 196 183 189
-0.23605876 0.09778589 -0.80319148 184 172 176
-0.23582581 0.098088533 -0.80305409 177 165 169
-0.23590171 0.098391972 -0.80324268 177 165 168
-0.23460327 0.099135704 -0.80162662 175 162 167
-0.2356925 0.099544212 -0.80323184 177 168 168
-0.23516856 0.097372785 -0.80200052 175 158 167
-0.23430982 0.099328279 -0.80126452 175 162 167
-0.23525548 0.098237954 -0.80232221 175 162 167
-0.23690251 0.095386669 -0.80395824 200 185 194
-0.23731004 0.094110891 -0.80470192 190 171 183
-0.23727405 0.095026888 -0.80473369 198 181 191
-0.23660278 0.095396169 -0.80329859 200 185 193
-0.23693328 0.093290545 -0.8037914 186 168 180
-0.23652825 0.093467914 -0.80295682 195 179 190
-0.23644336 0.092202172 -0.80266911 195 178 191
-0.23672222 0.094074704 -0.80341637 192 175 185
-0.23606767 0.093253016 -0.80223793 196 181 191
-0.23589571 0.093670972 -0.8020891 195 180 188
-0.23537262 0.094040968 -0.80156833 186 168 178
-0.23522563 0.094867148 -0.80148977 182 163 174
-0.23564219 0.093634732 -0.80181503 192 176 184
-0.237192 0.090807505 -0.80428696 175 156 168
-0.23748258 0.091612712 -0.80483007 172 150 165
-0.23748137 0.090251036 -0.80494022 166 148 158
-0.23672853 0.0912982 -0.8032738 186 169 181
-0.2366713 0.090450726 -0.80320412 183 168 177
-0.2365361 0.090619825 -0.80286849 185 170 180
-0.23665261 0.088037774 -0.80305105 161 147 152
-0.23652434 0.089247286 -0.80277854 173 158 165
-0.23600455 0.088131703 -0.80184728 158 140 150
-0.23596855 0.089174584 -0.8018502 167 148 161
-0.23584516 0.090604022 -0.80179006 179 161 174
-0.2360194 0.091495588 -0.80203915 190 173 186
-0.23601459 0.090864338 -0.80199033 184 166 179
-0.23710485 0.085908093 -0.804299 165 152 158
-0.23692763 0.087114528 -0.80378431 162 148 152
-0.23703068 0.08679913 -0.80406278 162 149 153
-0.23711771 0.086032145 -0.80432492 165 151 157
-0.23649424 0.085802115 -0.80296493 168 154 162
-0.23700893 0.084555455 -0.8042407 171 156 165
-0.23633766 0.084943466 -0.8028205 171 157 167
-0.23674737 0.085680656 -0.80349559 168 153 161
-0.23620279 0.086872667 -0.80224377 163 147 155
-0.23611158 0.084554151 -0.80257064 169 152 165
-0.23570324 0.084554136 -0.80199116 162 141 158
-0.23546001 0.08645694 -0.80136341 151 128 146
-0.23574726 0.087843589 -0.80153686 152 131 144
-0.23652621 0.081809849 -0.8022635 167 153 161
-0.23654373 0.081165336 -0.80196553 165 151 158
-0.23661593 0.082979858 -0.8030476 170 157 166
-0.23727536 0.080959365 -0.80391008 153 136 145
-0.23753162 0.080246314 -0.80445045 144 125 135
-0.23742737 0.08268299 -0.80486095 162 146 156
-0.23729128 0.081494391 -0.80411375 156 140 149
-0.23747379 0.080500066 -0.8043558 146 128 138
-0.23682426 0.080288574 -0.80239326 156 141 148
-0.23562099 0.083204836 -0.80158669 160 138 156
-0.23543802 0.083891004 -0.80167919 159 135 156
-0.23633955 0.077676684 -0.80129647 177 165 166
-0.2367164 0.077273794 -0.80219597 172 160 161
-0.23783185 0.076244012 -0.80483866 156 143 143
-0.2370781 0.076352373 -0.803123 170 158 158
-0.23642038 0.078482777 -0.80138034 171 159 161
-0.23669365 0.078427121 -0.80199689 166 153 156
-0.23644494 0.078706488 -0.80140346 169 157 159
-0.23734379 0.07807038 -0.80359429 155 142 145
-0.23688883 0.079996064 -0.8025099 154 139 146
-0.23663208 0.079858042 -0.801741 159 145 151
-0.23737174 0.077772997 -0.80363804 156 143 145
-0.23761192 0.079404823 -0.80454975 144 127 135
-0.23686093 0.075876638 -0.80270684 174 160 161
-0.23716305 0.073919296 -0.80374032 157 137 141
-0.23705557 0.07502649 -0.80329901 165 149 151
-0.23772672 0.074867152 -0.80484372 151 134 137
-0.23699921 0.074620478 -0.80324447 164 146 149
-0.23693958 0.075526841 -0.80294722 170 156 157
-0.23680301 0.073890798 -0.8028354 152 131 136
-0.23638995 0.075681135 -0.80164337 177 163 164
-0.23647007 0.073125631 -0.80201936 130 105 111
-0.237051 0.073187932 -0.8035267 144 121 127
-0.23637125 0.073240183 -0.80175471 130 105 111
-0.23629704 0.074450441 -0.80151808 152 133 136
-0.23771869 0.070539348 -0.80493802 149 128 136
-0.23726968 0.070969515 -0.80386603 137 114 122
-0.23742771 0.071852535 -0.80447477 137 111 119
-0.23752521 0.070629507 -0.8044548 145 122 131
-0.2370927 0.072080106 -0.80365407 128 101 109
-0.2370497 0.069851696 -0.80313075 139 119 129
-0.23646612 0.069781892 -0.80178303 131 112 122
-0.23743437 0.068751544 -0.80390823 154 138 148
-0.23633659 0.068715498 -0.80138224 137 123 133
-0.2366228 0.070741557 -0.8022359 126 103 112
-0.23663867 0.068906412 -0.80209482 140 125 135
-0.23606487 0.07096763 -0.80120355 118 93 103
-0.23714525 0.068150312 -0.80318773 155 141 151
-0.23644438 0.067692049 -0.80153739 150 137 148
-0.23265444 0.15886892 -0.82148659 159 139 151
-0.23315407 0.15834948 -0.82270819 168 152 160
-0.23272897 0.15820961 -0.8213293 168 149 159
-0.23354897 0.15443991 -0.82319105 171 157 166
-0.23363331 0.15663067 -0.82361591 176 164 168
-0.23332705 0.15469703 -0.82180601 185 172 177
-0.2333198 0.15475354 -0.82175857 186 173 177
-0.23368576 0.15509169 -0.82400894 166 152 162
-0.23287705 0.15691829 -0.821154 176 160 167
-0.23295315 0.15570615 -0.82079816 184 169 175
-0.23303191 0.15638952 -0.82137007 180 165 171
-0.23306842 0.15564236 -0.82111895 185 171 176
-0.23311619 0.15551296 -0.82120204 186 173 176
-0.23436803 0.15091315 -0.82383716 159 145 155
-0.23434629 0.15078959 -0.82346356 163 149 158
-0.23398183 0.1520863 -0.82265955 174 161 168
-0.23425703 0.15135744 -0.82367229 162 148 158
-0.23404521 0.1512672 -0.82183754 182 169 173
-0.23324782 0.1540776 -0.82100821 191 178 181
-0.23385306 0.15210277 -0.82182854 183 170 174
-0.23370585 0.15379019 -0.82341754 168 154 164
-0.23337799 0.15378989 -0.82138759 187 174 178
-0.23330286 0.1540865 -0.82136214 187 175 179
-0.23482066 0.14861338 -0.82433903 151 139 147
-0.23503648 0.14714429 -0.82418126 153 142 147
-0.23471759 0.14738217 -0.82225412 159 150 151
-0.23501241 0.14757723 -0.82449961 151 140 146
-0.23487581 0.14706698 -0.82299 157 147 149
-0.23467061 0.14752202 -0.82208741 160 150 151
-0.23460948 0.14668517 -0.8207044 167 159 155
-0.23421162 0.14997597 -0.82127261 183 172 174
-0.23448482 0.14880893 -0.82212412 166 155 158
-0.2344338 0.14907406 -0.82201874 169 158 161
-0.23416331 0.15035777 -0.82132143 185 174 176
-0.23439753 0.14959401 -0.82232052 169 157 162
-0.23551004 0.14389011 -0.82288593 155 143 142
-0.23548949 0.14329869 -0.82203776 156 146 144
-0.23556224 0.14337233 -0.82249898 156 144 141
-0.23574211 0.14280514 -0.82269657 155 142 137
-0.23524521 0.14573599 -0.82386661 153 143 146
-0.23512073 0.14483802 -0.82179999 159 150 149
-0.23501368 0.14599337 -0.82262391 158 149 149
