ply
format ascii 1.0
comment PCL generated
element vertex 382
property float x
property float y
property float z
property uchar red
property uchar green
property uchar blue
element camera 1
property float view_px
property float view_py
property float view_pz
property float x_axisx
property float x_axisy
property float x_axisz
property float y_axisx
property float y_axisy
property float y_axisz
property float z_axisx
property float z_axisy
property float z_axisz
property float focal
property float scalex
property float scaley
property float centerx
property float centery
property int viewportx
property int viewporty
property float k1
property float k2
end_header
-0.070355415 -0.35273078 -0.67373621 191 180 214
-0.069974184 -0.35327041 -0.67372066 182 167 210
-0.066953763 -0.35323644 -0.67343855 191 178 215
-0.080267809 -0.35617679 -0.67566437 139 120 164
-0.080477253 -0.35710907 -0.67582107 122 93 143
-0.078594543 -0.3570731 -0.67544115 125 97 145
-0.077305183 -0.35741502 -0.6752212 119 95 139
-0.079347767 -0.35725668 -0.67561138 120 89 141
-0.080026492 -0.35602167 -0.67559606 142 123 167
-0.073565103 -0.35679248 -0.67453402 127 115 150
-0.072670989 -0.35712171 -0.6744346 120 111 145
-0.07381428 -0.35651934 -0.67454213 132 119 154
-0.074273698 -0.35711661 -0.67467618 123 109 145
-0.073954143 -0.35692355 -0.67460698 125 112 148
-0.068485066 -0.35515079 -0.67370009 167 152 194
-0.068798371 -0.35422942 -0.6736728 169 150 200
-0.068557091 -0.35615849 -0.67378807 160 149 184
-0.06975995 -0.35571909 -0.67392284 150 137 178
-0.069677733 -0.35622278 -0.67395025 148 137 174
-0.06937521 -0.35427022 -0.67374873 165 148 196
-0.070977956 -0.35420209 -0.67391652 167 154 194
-0.070633717 -0.35538185 -0.67400664 148 134 176
-0.070878305 -0.35594726 -0.67409462 138 126 167
-0.07120309 -0.35598612 -0.67413437 138 127 165
-0.066607058 -0.35637978 -0.67365324 173 166 191
-0.067987964 -0.3572236 -0.6738165 158 152 177
-0.065281384 -0.35728753 -0.67364031 171 154 196
-0.067445368 -0.35386711 -0.67351604 184 169 209
-0.067101859 -0.35612899 -0.67366558 173 169 189
-0.067296863 -0.35606989 -0.67367542 172 166 189
-0.068010733 -0.35609213 -0.6737296 165 156 187
-0.067531444 -0.35562727 -0.67365843 172 164 192
-0.080953464 -0.35848215 -0.67609233 114 88 126
-0.080791272 -0.3589696 -0.67611963 113 88 122
-0.080070287 -0.35825673 -0.67587835 115 83 131
-0.079090565 -0.35913172 -0.67577475 113 84 121
-0.079158738 -0.3611865 -0.67604768 109 88 105
-0.079644173 -0.36050287 -0.67606753 110 87 111
-0.077161528 -0.36069149 -0.67555058 110 87 105
-0.079357371 -0.35847938 -0.67575085 114 83 127
-0.076267458 -0.36018983 -0.67531198 112 91 110
-0.077125631 -0.35956246 -0.67541581 113 89 116
-0.077472441 -0.3577998 -0.67529589 118 93 135
-0.077777363 -0.35906067 -0.67549193 114 87 121
-0.077952079 -0.35802361 -0.67541558 117 90 132
-0.073111936 -0.35957626 -0.67477322 116 105 127
-0.074943356 -0.3613247 -0.67523688 113 96 107
-0.074934617 -0.36024532 -0.6751129 111 94 111
-0.072291918 -0.35867128 -0.67455173 117 109 136
-0.074777015 -0.35999644 -0.67506188 111 95 113
-0.075129904 -0.35988382 -0.67510265 111 94 113
-0.075916149 -0.35920534 -0.67514867 115 95 120
-0.075218789 -0.3586373 -0.67498237 115 98 127
-0.073645934 -0.35877061 -0.67475909 112 101 126
-0.075076088 -0.35953715 -0.67505729 112 95 117
-0.068768598 -0.36128959 -0.67431521 122 99 135
-0.070257656 -0.36032134 -0.67444235 131 118 142
-0.068872005 -0.36044261 -0.6742444 129 111 143
-0.071541272 -0.36093348 -0.67469972 126 116 134
-0.069558613 -0.36078453 -0.67438358 127 109 139
-0.069625072 -0.35919988 -0.67423177 140 130 154
-0.070991799 -0.35779139 -0.67426926 128 121 150
-0.071837179 -0.35904601 -0.67453045 123 114 139
-0.072126843 -0.35987335 -0.67466509 122 113 134
-0.06853988 -0.35753587 -0.67389631 153 147 172
-0.069808699 -0.35804629 -0.67413229 141 134 159
-0.072133765 -0.36006549 -0.67468792 122 113 133
-0.065555997 -0.35935947 -0.67385125 152 133 175
-0.065362811 -0.35870427 -0.67378062 158 138 183
-0.064608105 -0.35846213 -0.67369503 164 146 190
-0.065263525 -0.35979152 -0.67386132 150 133 173
-0.066068031 -0.36053154 -0.6739921 139 122 160
-0.067463547 -0.36035857 -0.6740979 134 110 151
-0.066741318 -0.35808918 -0.67381763 157 141 179
-0.065786585 -0.35862756 -0.67380863 157 135 180
-0.067552403 -0.35929605 -0.67399532 143 124 161
-0.067094877 -0.35798043 -0.67383021 156 142 177
-0.067403488 -0.35895145 -0.67395014 146 129 165
-0.063478284 -0.36115095 -0.67383993 145 126 169
-0.062727846 -0.35911372 -0.67358178 162 149 196
-0.064206235 -0.35826319 -0.67364323 167 149 195
-0.063594162 -0.35798711 -0.67356616 170 152 201
-0.076850615 -0.36268422 -0.67580205 109 88 101
-0.076469615 -0.36197269 -0.67559355 109 88 99
-0.077255778 -0.36206514 -0.67578107 109 88 101
-0.076565824 -0.36443806 -0.67604941 109 88 104
-0.078493059 -0.36210299 -0.67605722 109 88 104
-0.076214358 -0.36212084 -0.67556554 109 88 99
-0.074050769 -0.36345094 -0.67548716 117 101 118
-0.073110715 -0.36425874 -0.67545974 120 101 125
-0.072943479 -0.36262205 -0.67516994 121 107 125
-0.072586946 -0.364692 -0.67544174 122 102 128
-0.07346642 -0.36288473 -0.67529917 119 104 122
-0.075981669 -0.36213765 -0.67553484 110 89 101
-0.074772254 -0.36154735 -0.67525244 114 97 109
-0.075270511 -0.36418185 -0.67580408 113 94 110
-0.075862661 -0.36171448 -0.67544061 110 90 101
-0.076133162 -0.36141148 -0.67542458 109 88 98
-0.075962558 -0.36275914 -0.67564517 110 89 102
-0.068898313 -0.36418459 -0.6748268 140 119 132
-0.069048651 -0.36294693 -0.67463309 129 106 134
-0.071004957 -0.36494717 -0.67525071 130 109 131
-0.069410995 -0.36350417 -0.67477989 131 108 133
-0.069229625 -0.36374012 -0.67479563 134 112 133
-0.071120299 -0.36421213 -0.67513925 123 101 132
-0.068864271 -0.36134148 -0.67433584 122 99 135
-0.070201546 -0.36241427 -0.67471045 122 101 133
-0.072193392 -0.36465937 -0.675372 123 103 130
-0.071003854 -0.36190802 -0.67475128 123 106 131
-0.071969375 -0.36293176 -0.67506164 123 107 130
-0.071291588 -0.36306196 -0.67497951 123 104 131
-0.06662672 -0.36428827 -0.6746006 143 123 138
-0.064870596 -0.36477137 -0.67447817 126 95 128
-0.066611119 -0.36382601 -0.67452973 145 129 143
-0.065842599 -0.36327416 -0.67436206 142 126 147
-0.066340797 -0.36477357 -0.67464143 138 113 132
-0.067644283 -0.36325628 -0.67452902 140 121 139
-0.067965083 -0.36438772 -0.67475307 148 128 135
-0.06591069 -0.36243227 -0.67423528 142 130 153
-0.066145413 -0.36150604 -0.67409515 134 119 152
-0.06745673 -0.36339179 -0.67453623 142 124 140
-0.06778273 -0.3617579 -0.67428136 128 106 139
-0.062630311 -0.36365101 -0.67414522 137 90 146
-0.062261093 -0.36356089 -0.67409575 141 94 151
-0.063263491 -0.36381528 -0.67421913 132 90 140
-0.064114131 -0.36363083 -0.67424148 130 101 140
-0.063914083 -0.36284602 -0.67411238 135 109 149
-0.063997887 -0.36215571 -0.67401409 138 118 156
-0.072461247 -0.36912686 -0.67613751 132 115 128
-0.075284146 -0.36579952 -0.6760698 115 93 111
-0.07232289 -0.366173 -0.67563683 125 105 130
-0.074278437 -0.36636448 -0.67599386 119 99 117
-0.072568104 -0.36731076 -0.67586237 127 108 128
-0.073105074 -0.3674269 -0.67597067 126 107 124
-0.072310671 -0.3685796 -0.67602533 131 114 129
-0.070371613 -0.36789033 -0.67562366 142 124 134
-0.068911098 -0.36688539 -0.67524409 149 130 137
-0.070118956 -0.36777255 -0.67556536 143 125 135
-0.071980804 -0.3666158 -0.67565978 128 109 130
-0.071922235 -0.36545753 -0.67546374 126 105 130
-0.071124978 -0.36653116 -0.67552751 135 116 130
-0.0700261 -0.36565009 -0.67523235 141 121 131
-0.071074106 -0.36676791 -0.67555887 136 117 130
-0.072092697 -0.36779356 -0.67586637 130 113 129
-0.064714991 -0.36814803 -0.67494315 135 112 139
-0.064664207 -0.36564267 -0.67458028 123 89 125
-0.064955473 -0.36702406 -0.67480642 130 103 133
-0.065286711 -0.36608601 -0.67470533 127 95 129
-0.064588554 -0.36702368 -0.67477 129 101 132
-0.067226537 -0.36762023 -0.67512113 143 119 142
-0.068134554 -0.36640257 -0.67506224 150 130 138
-0.064847842 -0.36535352 -0.67456049 124 89 124
-0.067556649 -0.36671925 -0.67503965 146 123 138
-0.067711383 -0.36576143 -0.67493135 147 125 133
-0.066301003 -0.36621439 -0.67483437 135 107 132
-0.06133372 -0.36631399 -0.67431331 154 133 170
-0.061851565 -0.36702782 -0.67447263 152 132 164
-0.063229278 -0.36801004 -0.67476332 145 125 154
-0.064200468 -0.36671081 -0.67468417 130 101 134
-0.063286178 -0.36770698 -0.67472601 143 123 153
-0.063533261 -0.36747876 -0.67472059 140 117 148
-0.061743878 -0.36587459 -0.67429495 150 126 165
-0.062878266 -0.36588198 -0.6744206 139 111 149
-0.063967586 -0.36690092 -0.67468578 133 106 138
-0.092318051 -0.36913139 -0.68016917 114 94 96
-0.093172744 -0.36681408 -0.6801272 115 90 97
-0.09387996 -0.36530781 -0.68014479 116 87 98
-0.092154667 -0.36966604 -0.68016857 115 95 98
-0.090484701 -0.37575623 -0.68034387 138 121 129
-0.09019921 -0.3759653 -0.68029457 139 123 129
-0.088770576 -0.36026955 -0.67800689 126 103 116
-0.088525467 -0.36035854 -0.67794627 127 104 114
-0.084067769 -0.35999632 -0.67693669 109 90 102
-0.084551267 -0.36094326 -0.67715377 110 88 96
-0.084364675 -0.36122766 -0.67715251 107 86 94
-0.087056778 -0.36056176 -0.67760754 127 104 108
-0.08692985 -0.35916811 -0.67742318 128 105 117
-0.08735808 -0.35993108 -0.67760086 129 105 113
-0.087524042 -0.3597593 -0.67761743 130 106 115
-0.081389524 -0.35923162 -0.67627764 113 91 117
-0.080773726 -0.35967156 -0.67620414 112 89 116
-0.08128266 -0.35984001 -0.6763314 112 92 112
-0.082491338 -0.36079186 -0.67670643 108 88 101
-0.082146689 -0.36104414 -0.67666584 107 88 100
-0.083115496 -0.35952213 -0.67667669 111 93 108
-0.081431165 -0.36056823 -0.6764546 110 91 106
-0.081691414 -0.36066049 -0.67652124 109 90 104
-0.08275228 -0.35909417 -0.6765458 113 95 113
-0.092936613 -0.36423552 -0.67971504 97 69 89
-0.093478151 -0.36411172 -0.6798467 104 76 94
-0.094176486 -0.3625356 -0.67979544 110 83 102
-0.093395852 -0.36309826 -0.67967075 104 77 98
-0.092367731 -0.36310861 -0.67940187 99 76 100
-0.091812506 -0.36383283 -0.67935956 93 69 94
-0.092556961 -0.36352882 -0.67951179 98 73 96
-0.089813195 -0.36421448 -0.67883825 100 74 86
-0.088587008 -0.36254689 -0.67824662 118 93 97
-0.089162767 -0.3645812 -0.67870283 99 75 82
-0.0903887 -0.36391327 -0.67896134 101 74 89
-0.087995417 -0.36319521 -0.67816836 114 91 91
-0.090228721 -0.36289951 -0.67877018 108 83 98
-0.089123636 -0.36180675 -0.67829555 120 97 105
-0.087936148 -0.36136845 -0.67789084 130 105 105
-0.091262765 -0.36213619 -0.67895877 105 86 110
-0.090590619 -0.36241114 -0.67880458 108 86 104
-0.084417976 -0.36347008 -0.67744511 96 72 87
-0.084268153 -0.36458528 -0.67754728 91 65 85
-0.087550238 -0.36501759 -0.6783272 97 75 77
-0.087049499 -0.36515468 -0.67823291 95 73 78
-0.086266391 -0.36399844 -0.67791897 98 76 81
-0.084802844 -0.3648288 -0.67769533 91 65 83
-0.0868439 -0.36136118 -0.6776669 123 99 101
-0.086661197 -0.36378005 -0.67797518 101 80 82
-0.087252051 -0.36330214 -0.67802542 109 87 88
-0.086498015 -0.36166868 -0.67764139 118 95 98
-0.087729767 -0.36250666 -0.67800778 119 96 96
-0.085061297 -0.36239591 -0.67745715 102 81 87
-0.082080752 -0.36476406 -0.67710346 97 74 94
-0.081751555 -0.36343542 -0.67687392 99 77 96
-0.082989484 -0.36449078 -0.67726302 93 67 90
-0.08188571 -0.36398414 -0.67696834 98 76 95
-0.080125079 -0.36390129 -0.67658561 106 89 104
-0.083591536 -0.36178413 -0.67706168 103 81 92
-0.081928529 -0.36304921 -0.6768648 99 76 95
-0.081629932 -0.36174011 -0.67664301 105 85 99
-0.081182793 -0.36157289 -0.67652851 106 86 100
-0.083125867 -0.36252546 -0.67705345 100 77 92
-0.081154786 -0.36172339 -0.67654091 106 85 100
-0.079382651 -0.364784 -0.67657274 107 89 104
-0.079184808 -0.36510065 -0.67657977 107 89 104
-0.077426955 -0.36453387 -0.67623574 109 88 105
-0.079500802 -0.36234018 -0.67629725 108 89 105
-0.078916535 -0.36411634 -0.67641926 108 89 104
-0.092422642 -0.36700931 -0.67994237 106 81 91
-0.092782229 -0.36666006 -0.68000126 109 83 93
-0.091895327 -0.36883986 -0.68001163 111 91 93
-0.088934064 -0.36867407 -0.67922509 97 67 79
-0.08967106 -0.36880019 -0.67943013 101 74 83
-0.090526558 -0.36910751 -0.6796931 106 81 88
-0.09031263 -0.36899966 -0.67962253 105 79 87
-0.08899989 -0.36912039 -0.67931086 96 66 79
-0.089434631 -0.36616853 -0.67898488 99 77 81
-0.090550803 -0.36649188 -0.67934519 98 75 83
-0.08857581 -0.36589083 -0.67870426 99 78 79
-0.091062129 -0.3658466 -0.67941642 92 67 82
-0.089528978 -0.36560997 -0.67894608 95 71 79
-0.084271893 -0.36892208 -0.67817795 90 65 73
-0.085675128 -0.36873528 -0.67846978 90 61 74
-0.085769609 -0.36740962 -0.67829382 89 58 78
-0.085355394 -0.36704007 -0.67814445 89 59 79
-0.084651895 -0.36848232 -0.67819905 90 63 75
-0.08457806 -0.36745971 -0.67802984 89 62 78
-0.086641848 -0.36542428 -0.67818165 93 69 78
-0.087532803 -0.368117 -0.67879677 91 59 75
-0.087579474 -0.36594436 -0.67847013 95 70 76
-0.086183667 -0.36566323 -0.67811716 92 66 79
-0.085845992 -0.3665016 -0.67817235 90 60 80
-0.081158988 -0.36697811 -0.67723942 101 82 93
-0.080773398 -0.36854097 -0.67743397 103 83 91
-0.081814133 -0.36739519 -0.67743498 99 79 89
-0.082190923 -0.36843649 -0.67768466 97 76 84
-0.081233554 -0.36825085 -0.67747152 101 81 90
-0.082800061 -0.36577922 -0.67739356 93 70 89
-0.082814835 -0.36671808 -0.67753655 94 71 86
-0.082215197 -0.36727542 -0.67749256 97 77 87
-0.082820237 -0.36684269 -0.67755622 94 71 85
-0.083857164 -0.36801052 -0.67794973 90 65 77
-0.083344981 -0.36668605 -0.67764401 92 67 83
-0.077106617 -0.36530653 -0.6762808 109 88 105
-0.079638578 -0.36547226 -0.67670214 106 89 104
-0.077533238 -0.36647657 -0.67651957 111 89 106
-0.076915793 -0.36736113 -0.6765523 113 89 106
-0.077848256 -0.36631891 -0.6765458 110 89 105
-0.079730354 -0.3653788 -0.6767028 106 89 104
-0.077317119 -0.36912945 -0.67690188 114 88 103
-0.078265198 -0.3685202 -0.67696965 111 88 102
-0.078650609 -0.36728746 -0.6768285 110 89 103
-0.07849291 -0.36760932 -0.67685503 110 89 103
-0.079076581 -0.36627239 -0.67673206 109 89 104
-0.078614399 -0.36902446 -0.67711937 110 87 99
-0.074923731 -0.36755091 -0.67627704 119 98 114
-0.075310878 -0.36778936 -0.67636973 118 95 112
-0.075923659 -0.36588129 -0.67618257 112 89 108
-0.075902373 -0.36717626 -0.67636865 115 90 108
-0.075554647 -0.36890632 -0.67656946 120 94 111
-0.090664618 -0.37030908 -0.67987132 103 75 91
-0.088172726 -0.37219891 -0.67947072 82 38 82
-0.088302515 -0.37129134 -0.67939514 85 45 81
-0.089930475 -0.37060052 -0.67972237 98 66 88
-0.09084145 -0.36934927 -0.67980236 107 83 90
-0.089893423 -0.36987233 -0.67962623 100 70 86
-0.089360639 -0.3704688 -0.67956328 94 61 84
-0.08627259 -0.37192339 -0.67899877 84 46 80
-0.084822901 -0.37120381 -0.67858344 91 62 79
-0.086210884 -0.37266043 -0.67907351 87 49 83
-0.084208414 -0.37207508 -0.67854893 97 72 83
-0.08551085 -0.37274083 -0.67892438 91 58 84
-0.085449621 -0.36998969 -0.67858011 88 57 75
-0.085135542 -0.36952677 -0.67845333 89 60 74
-0.085759915 -0.36953595 -0.67859668 89 59 74
-0.084713489 -0.36919257 -0.67831731 90 64 73
-0.085231744 -0.37015176 -0.67854977 87 56 75
-0.081305027 -0.37085372 -0.67784441 104 83 91
-0.081762098 -0.37166983 -0.67802984 103 81 90
-0.081284955 -0.37255391 -0.67804831 102 81 91
-0.081644937 -0.3716009 -0.67799944 103 82 90
-0.080846511 -0.37024033 -0.67768341 104 84 92
-0.080640413 -0.37060621 -0.67768949 104 84 92
-0.081839867 -0.37029049 -0.67787713 102 80 88
-0.08122766 -0.36976597 -0.67769802 103 82 90
-0.081727907 -0.36925119 -0.67773086 99 78 85
-0.082518145 -0.37067565 -0.67805195 100 78 86
-0.083034456 -0.37080365 -0.67816514 99 76 84
-0.083309986 -0.37176162 -0.67833263 100 77 86
-0.077240273 -0.37290746 -0.67728496 113 94 110
-0.07710702 -0.37211809 -0.67718017 114 93 109
-0.076726459 -0.37103337 -0.67699552 115 92 108
-0.079311132 -0.37267062 -0.67768747 105 85 96
-0.077448919 -0.37281871 -0.67731911 112 93 108
-0.079221606 -0.37270367 -0.67767227 105 85 97
-0.07838206 -0.37010825 -0.67721534 110 86 99
-0.077999942 -0.3701669 -0.67715311 111 87 101
-0.078710899 -0.36953944 -0.6772055 109 87 98
-0.078706235 -0.3705104 -0.67732322 108 86 98
-0.077438079 -0.36946559 -0.67696548 113 88 103
-0.078401089 -0.36968973 -0.67716759 110 87 99
-0.073802739 -0.36962205 -0.67638105 127 107 122
-0.073788479 -0.36969692 -0.67638522 127 107 122
-0.072627649 -0.37074661 -0.67629945 133 118 130
-0.073656708 -0.37104037 -0.67647862 130 111 125
-0.07426703 -0.37256312 -0.67671943 127 111 125
-0.075951874 -0.37107986 -0.67685008 119 96 113
-0.07417351 -0.37292141 -0.67673928 128 112 126
-0.075802691 -0.36995536 -0.67671531 119 94 111
-0.075007878 -0.3727839 -0.67686242 123 107 122
-0.089181356 -0.37562048 -0.68001771 129 109 118
-0.088017605 -0.37529278 -0.67971498 118 91 105
-0.086261697 -0.37535986 -0.67931861 129 113 107
-0.085156508 -0.37555584 -0.67908353 126 105 108
-0.085001796 -0.37457994 -0.67896968 118 97 100
-0.086251371 -0.37379494 -0.67918968 101 70 91
-0.084999509 -0.3732771 -0.67886388 99 71 88
-0.085661739 -0.37344143 -0.67902738 98 68 89
-0.08738552 -0.37605679 -0.67962986 135 119 112
-0.086639695 -0.3746866 -0.6793499 115 90 100
-0.080445506 -0.37628374 -0.67822379 107 86 94
-0.081573531 -0.37676227 -0.67847139 115 93 102
-0.081885956 -0.37545946 -0.67841834 116 94 104
-0.082205802 -0.37683636 -0.6785937 120 96 106
-0.080304705 -0.37383893 -0.67799073 104 84 94
-0.082854658 -0.37377769 -0.67846203 107 84 94
-0.082026601 -0.37486684 -0.67839444 115 94 104
-0.083418444 -0.37404796 -0.67858958 109 86 96
-0.082845531 -0.37531176 -0.67858398 119 96 107
-0.08242996 -0.37380847 -0.67838478 107 85 95
-0.083847366 -0.37436777 -0.67869586 112 87 98
-0.076541997 -0.37603125 -0.67747289 120 96 111
-0.078361735 -0.37621722 -0.67782211 112 90 101
-0.077202387 -0.37646145 -0.67763937 117 94 107
-0.078864463 -0.37643918 -0.67793733 110 89 99
-0.078609683 -0.37617168 -0.67786199 111 90 100
-0.076395534 -0.37315536 -0.67713416 117 99 115
-0.078636877 -0.37345687 -0.67762047 108 89 101
-0.079443261 -0.3747811 -0.67789847 106 86 96
-0.077498585 -0.37338543 -0.67738038 112 94 108
-0.079052806 -0.37321886 -0.67768586 106 87 99
-0.073971771 -0.37605122 -0.67706734 135 114 129
-0.074617885 -0.3769117 -0.67727071 133 110 126
-0.074727729 -0.37592459 -0.67716396 129 108 122
-0.075139277 -0.37516075 -0.67714143 125 105 120
-0.07394582 -0.37389496 -0.67680717 130 114 127
-0.0737864 -0.37436351 -0.67683238 131 114 127
-0.075025678 -0.37570968 -0.67718291 127 105 120
-0.074863151 -0.37426135 -0.6769976 126 107 122
-0.075521983 -0.37392297 -0.67706847 122 103 119
-0.081217341 -0.37779674 -0.67853552 121 102 107
-0.076437593 -0.3773708 -0.67760378 125 100 116
-0.07980863 -0.37741128 -0.6782164 110 89 99
-0.079291545 -0.37788635 -0.67817694 116 94 107
-0.075383045 -0.37701771 -0.67739755 129 104 120
-0.075782463 -0.37712157 -0.67746967 127 102 118
-0.074742056 -0.37735775 -0.67734373 136 114 130
0 0 0 1 0 0 0 1 0 0 0 1 0 0 0 0 0 382 1 0 0
