ply
format ascii 1.0
comment PCL generated
element vertex 316
property float x
property float y
property float z
property uchar red
property uchar green
property uchar blue
element camera 1
property float view_px
property float view_py
property float view_pz
property float x_axisx
property float x_axisy
property float x_axisz
property float y_axisx
property float y_axisy
property float y_axisz
property float z_axisx
property float z_axisy
property float z_axisz
property float focal
property float scalex
property float scaley
property float centerx
property float centery
property int viewportx
property int viewporty
property float k1
property float k2
end_header
-0.11270308 -0.4167209 -0.69174284 149 107 150
-0.11279183 -0.41686875 -0.69179356 150 109 150
-0.11327937 -0.43360856 -0.6914959 225 207 225
-0.11357904 -0.43449908 -0.69158977 228 218 229
-0.1124888 -0.43372676 -0.69105428 232 211 232
-0.11233343 -0.43371847 -0.69097042 232 212 233
-0.1123374 -0.43423885 -0.69093317 235 219 235
-0.10932424 -0.43538594 -0.68951595 229 220 228
-0.10917997 -0.43480381 -0.68946201 228 214 225
-0.1090605 -0.43468213 -0.68941647 226 211 223
-0.10991246 -0.4345423 -0.689744 234 219 230
-0.10987301 -0.43389028 -0.68974525 233 211 227
-0.11079675 -0.43330413 -0.69021207 234 207 232
-0.11060464 -0.43464214 -0.69002283 240 226 237
-0.11292253 -0.43632236 -0.69107687 239 236 241
-0.11339734 -0.4365924 -0.69130892 237 233 239
-0.11316825 -0.43671259 -0.6911726 238 234 240
-0.11188034 -0.43575093 -0.69056565 244 241 244
-0.11181029 -0.43793154 -0.69045597 235 222 235
-0.11153379 -0.43620083 -0.69036561 244 238 244
-0.11333022 -0.43782732 -0.69115478 239 232 242
-0.1127043 -0.43738207 -0.69087732 240 233 242
-0.11252032 -0.43847677 -0.69076997 233 221 235
-0.1080182 -0.43679839 -0.68900132 202 188 202
-0.11075186 -0.43907949 -0.6899938 219 200 218
-0.1093867 -0.43798029 -0.68949813 210 193 210
-0.10948547 -0.43764699 -0.68953413 218 202 218
-0.11083611 -0.43832657 -0.69003779 227 210 226
-0.11032776 -0.43813097 -0.68984663 223 207 223
-0.10842326 -0.43607813 -0.68915838 218 207 218
-0.10905771 -0.43609366 -0.68940169 223 214 224
-0.10829285 -0.43621495 -0.68910539 216 204 216
-0.10982085 -0.43760726 -0.68966293 221 207 221
-0.10724914 -0.43599191 -0.68871224 203 191 204
-0.113774 -0.43985969 -0.69129997 230 218 236
-0.1143755 -0.43991521 -0.69157237 232 221 238
-0.1136364 -0.44038358 -0.69120592 230 218 236
-0.11374032 -0.44115907 -0.69120771 231 219 238
-0.1142304 -0.44043031 -0.69147539 231 221 239
-0.11397436 -0.44191927 -0.69126958 231 220 241
-0.11272274 -0.44105595 -0.69075334 228 212 232
-0.11161592 -0.4414804 -0.69026798 222 203 217
-0.11444804 -0.44328192 -0.69142717 231 221 241
-0.11469042 -0.44296357 -0.69153994 233 224 245
-0.11416695 -0.44305587 -0.69131345 230 220 238
-0.11244154 -0.44313392 -0.69057357 222 206 218
-0.11116903 -0.43991005 -0.6901322 220 200 218
-0.1102246 -0.43973669 -0.68979406 201 179 199
-0.11057293 -0.4400031 -0.68991292 208 186 205
-0.1100723 -0.44021943 -0.68972486 197 175 194
-0.1156717 -0.44573504 -0.69173837 214 201 228
-0.11349556 -0.44401363 -0.69095778 221 206 223
-0.11494567 -0.44611573 -0.69138509 211 193 221
-0.11514499 -0.44497889 -0.69157451 221 208 234
-0.11391419 -0.44460779 -0.6910823 218 202 223
-0.11351739 -0.44412738 -0.69095671 220 205 222
-0.12736803 -0.41872832 -0.70101154 151 140 136
-0.12807155 -0.41900188 -0.70158339 153 137 130
-0.12806165 -0.41979173 -0.70154768 147 130 125
-0.12741567 -0.41796204 -0.70107758 157 146 141
-0.12798251 -0.41872406 -0.70151949 155 139 133
-0.12881829 -0.41972467 -0.70217532 152 129 122
-0.12671483 -0.41904274 -0.70049208 147 134 137
-0.12723608 -0.41997078 -0.70086014 142 131 129
-0.12864569 -0.42069262 -0.70201325 142 125 119
-0.12785158 -0.41993609 -0.70136935 145 130 126
-0.1275658 -0.42071006 -0.70111537 137 125 124
-0.12685914 -0.4199408 -0.70056063 140 130 131
-0.12614705 -0.42037603 -0.70003885 135 111 127
-0.12614396 -0.4215014 -0.69996703 125 97 110
-0.12696318 -0.43451405 -0.69986624 219 207 219
-0.12776627 -0.43472201 -0.70045215 215 201 215
-0.12781629 -0.43380034 -0.70066357 209 192 203
-0.12713885 -0.43397316 -0.70010418 215 200 211
-0.12846299 -0.43474123 -0.70099062 210 194 210
-0.12667392 -0.43262085 -0.70000666 209 190 197
-0.12673475 -0.43455818 -0.69969344 220 209 221
-0.12772524 -0.43730614 -0.69994152 209 195 214
-0.1280731 -0.43582353 -0.70047939 217 206 223
-0.12940244 -0.43565512 -0.70154846 209 192 213
-0.12911455 -0.43590376 -0.70127314 210 195 214
-0.12900232 -0.43653455 -0.70105565 209 195 213
-0.12885502 -0.43569154 -0.70111501 212 198 217
-0.12233872 -0.41552532 -0.69740385 198 188 205
-0.12172065 -0.4144195 -0.69704789 200 191 202
-0.12171081 -0.41442043 -0.69704151 200 191 202
-0.11988099 -0.41591474 -0.69581437 216 214 222
-0.12028397 -0.41504392 -0.6961062 210 205 214
-0.12474842 -0.41869453 -0.69907421 156 130 157
-0.12530789 -0.41801035 -0.69952214 161 140 158
-0.12457966 -0.41729686 -0.69898224 172 155 174
-0.12397601 -0.41907418 -0.69853735 147 107 153
-0.12378532 -0.41956696 -0.69841141 138 89 146
-0.12376722 -0.41883907 -0.69838762 150 110 157
-0.12361257 -0.41892713 -0.69828069 148 105 156
-0.12253368 -0.4192822 -0.69755316 148 101 157
-0.12141563 -0.41842824 -0.69680589 179 161 182
-0.12284413 -0.41805866 -0.69773817 164 128 173
-0.12276009 -0.41639128 -0.69765735 193 180 201
-0.12232051 -0.41756445 -0.6973868 180 159 187
-0.12016453 -0.41974315 -0.69600463 176 161 174
-0.12000124 -0.41706815 -0.69588983 206 201 209
-0.12003397 -0.41792393 -0.69591254 197 190 199
-0.12176108 -0.41629437 -0.6970163 201 192 208
-0.12002288 -0.41697243 -0.69590354 206 202 210
-0.1207566 -0.41642973 -0.69637275 206 201 212
-0.12359667 -0.42033121 -0.69825929 128 70 134
-0.1244012 -0.42052597 -0.6988104 129 81 130
-0.12519747 -0.42100799 -0.69933784 128 87 121
-0.12546444 -0.42026612 -0.69957101 135 101 131
-0.12555695 -0.42253569 -0.69949424 115 74 97
-0.12133968 -0.42199275 -0.69683301 123 64 130
-0.12011994 -0.42171821 -0.69603968 145 104 147
-0.12064443 -0.42203996 -0.6963951 131 78 137
-0.12142204 -0.42015135 -0.69684094 151 110 155
-0.12110316 -0.42068878 -0.69664997 147 104 151
-0.12099583 -0.42017257 -0.69656181 157 122 159
-0.11972269 -0.42150378 -0.69577152 154 122 154
-0.12390415 -0.43058494 -0.69816661 194 169 175
-0.12260784 -0.43128967 -0.69719136 211 190 201
-0.12303398 -0.43051395 -0.69751233 195 171 179
-0.1222528 -0.43052676 -0.69701844 197 175 180
-0.12278135 -0.4305751 -0.69734877 197 173 181
-0.12059055 -0.43051243 -0.69597453 202 184 186
-0.12066428 -0.42982322 -0.69607085 190 169 170
-0.12124922 -0.42926729 -0.69647568 178 153 153
-0.1253597 -0.43328276 -0.69889146 218 202 214
-0.12545525 -0.43273175 -0.69906789 214 197 207
-0.12531579 -0.43230739 -0.69904202 212 194 203
-0.1258247 -0.43302783 -0.6992926 215 198 208
-0.12486684 -0.43188325 -0.69878113 212 191 200
-0.12342804 -0.43236414 -0.69762444 219 201 214
-0.12494661 -0.43386674 -0.69849014 223 209 223
-0.1249752 -0.43550405 -0.698331 232 225 234
-0.12396501 -0.43408513 -0.69780082 228 215 225
-0.12422926 -0.43442586 -0.69794279 229 218 228
-0.12524863 -0.43489859 -0.69858241 228 218 230
-0.12349652 -0.43432811 -0.69745666 231 220 228
-0.12172251 -0.43513998 -0.69629556 234 225 228
-0.12173553 -0.43450505 -0.69637239 230 219 224
-0.1229267 -0.43509066 -0.69699901 237 229 233
-0.12277088 -0.43500251 -0.69691831 236 227 232
-0.12092851 -0.43467361 -0.69586778 231 221 224
-0.12157091 -0.43326584 -0.69638473 225 211 218
-0.12242274 -0.43198103 -0.69702405 219 200 212
-0.12220626 -0.43249464 -0.69684678 221 204 214
-0.12736823 -0.43774822 -0.69960481 205 188 211
-0.1252397 -0.43575004 -0.69847178 229 222 232
-0.12321571 -0.43560058 -0.69712412 238 232 236
-0.12671413 -0.43731859 -0.69919896 211 195 216
-0.12622994 -0.43642548 -0.69902611 220 209 225
-0.12325244 -0.43746817 -0.69688714 219 204 220
-0.12451195 -0.43793949 -0.69763052 212 195 214
-0.12495541 -0.43810609 -0.69789219 210 191 212
-0.12423571 -0.43696782 -0.69758666 223 210 223
-0.12354292 -0.43797767 -0.6970036 213 196 215
-0.124777 -0.43829635 -0.69775164 208 189 211
-0.12271681 -0.43810618 -0.69648296 212 197 216
-0.12287057 -0.43875879 -0.6964795 205 187 210
-0.12266789 -0.43669266 -0.69664949 228 218 228
-0.1210011 -0.43559584 -0.69582659 235 227 228
-0.12155414 -0.43682203 -0.69598758 224 214 223
-0.12187691 -0.43693638 -0.69615984 224 213 224
-0.11408933 -0.41193917 -0.69253117 198 174 166
-0.11383097 -0.41201505 -0.69239849 195 169 164
-0.1138579 -0.41094041 -0.6923787 183 158 162
-0.11917942 -0.41455185 -0.69541818 215 205 220
-0.11598413 -0.41472661 -0.69350863 200 195 188
-0.11700088 -0.41592962 -0.6940763 200 200 202
-0.11672001 -0.41574472 -0.69391561 198 198 198
-0.11679214 -0.41590962 -0.69395381 198 198 199
-0.11695548 -0.41436508 -0.69409037 214 208 199
-0.1153594 -0.41578111 -0.69311303 183 182 182
-0.11863883 -0.41501138 -0.69507229 219 215 219
-0.11410268 -0.41402313 -0.69249851 184 157 165
-0.11506745 -0.41529816 -0.69296539 184 179 178
-0.11402192 -0.41411167 -0.69245434 182 154 164
-0.11486777 -0.41417229 -0.69289124 192 179 174
-0.11359252 -0.41296357 -0.69225675 185 156 162
-0.11401997 -0.41259718 -0.69248879 195 169 165
-0.11920357 -0.41635558 -0.69537592 219 219 224
-0.11915234 -0.417741 -0.69533736 206 203 208
-0.11646336 -0.41957101 -0.69383991 192 177 175
-0.11543778 -0.41866338 -0.69324315 191 178 174
-0.11659877 -0.41909981 -0.69389677 189 178 176
-0.11572912 -0.41740471 -0.69335634 184 179 178
-0.11634755 -0.41986069 -0.6937871 193 177 173
-0.11535157 -0.4192715 -0.69321841 193 177 172
-0.1187592 -0.41802523 -0.69510388 200 196 200
-0.11820516 -0.4176839 -0.69477844 197 194 197
-0.11707254 -0.41785052 -0.69411063 183 179 181
-0.11823312 -0.41604763 -0.69479996 212 213 217
-0.11603911 -0.41669551 -0.69350523 182 181 182
-0.11840879 -0.4178648 -0.69489789 197 194 198
-0.11518538 -0.41885263 -0.69311267 191 176 172
-0.11491371 -0.41878375 -0.69296694 186 170 169
-0.11501127 -0.41824916 -0.69299847 185 172 172
-0.11340841 -0.41963539 -0.69220507 163 133 149
-0.11442124 -0.41657799 -0.69262922 170 157 170
-0.11470743 -0.41645017 -0.69277358 173 165 173
-0.11370371 -0.41662058 -0.69225854 161 136 161
-0.11346504 -0.4168236 -0.69214118 158 129 158
-0.11967339 -0.42005545 -0.69568902 179 166 175
-0.11922526 -0.42111847 -0.69542426 166 142 165
-0.11756802 -0.42349905 -0.69451958 149 103 143
-0.11714413 -0.42335641 -0.69426101 156 115 147
-0.11768685 -0.42287689 -0.69461155 148 102 142
-0.11540729 -0.42123538 -0.69324672 190 168 166
-0.11679163 -0.4234032 -0.69404113 162 124 150
-0.1159638 -0.42076313 -0.69360566 182 154 161
-0.11883765 -0.4214679 -0.69522059 162 131 159
-0.11779661 -0.42187914 -0.69466609 157 118 150
-0.11857582 -0.4218446 -0.69509244 156 120 153
-0.11756169 -0.4202354 -0.69446892 185 168 173
-0.11827441 -0.42219913 -0.69494164 151 109 147
-0.11827854 -0.42197984 -0.69493484 154 115 150
-0.11445691 -0.42145628 -0.69271457 182 160 166
-0.11407457 -0.42226204 -0.69248503 175 151 164
-0.11336426 -0.42315227 -0.6920765 164 137 161
-0.11482672 -0.42307773 -0.69286591 183 161 165
-0.11495622 -0.42030305 -0.69301778 192 171 168
-0.11352067 -0.42221522 -0.69219196 167 140 159
-0.11376561 -0.42089206 -0.69236892 171 143 156
-0.11684707 -0.42724293 -0.6939227 173 145 154
-0.11615553 -0.42554563 -0.69355857 179 155 159
-0.11527617 -0.42572707 -0.69305116 182 157 167
-0.11614758 -0.42476439 -0.69356883 181 158 158
-0.11613066 -0.42387775 -0.69361562 172 142 157
-0.11660812 -0.42466685 -0.6938597 173 145 154
-0.11723258 -0.42464972 -0.6942479 162 127 147
-0.1143534 -0.42654949 -0.69247484 186 160 176
-0.11449593 -0.42573011 -0.69257718 187 162 174
-0.11365929 -0.42703059 -0.69204271 190 163 182
-0.11474185 -0.42396322 -0.69279075 181 159 165
-0.11328661 -0.42433915 -0.69198692 165 138 163
-0.11329664 -0.42424372 -0.69199753 164 137 163
-0.11350442 -0.42566904 -0.69203156 178 151 173
-0.11943471 -0.42983362 -0.69527328 196 177 179
-0.11984415 -0.43082246 -0.69547135 211 195 198
-0.11640114 -0.42898259 -0.69357109 193 169 184
-0.11615481 -0.43076301 -0.69330961 199 181 193
-0.11586224 -0.42878285 -0.6932767 188 162 179
-0.11658002 -0.43111092 -0.69352889 204 188 198
-0.11548467 -0.42813262 -0.69310516 182 153 173
-0.11559506 -0.42989615 -0.69304866 191 169 184
-0.11835311 -0.42946297 -0.69465613 194 174 179
-0.11739789 -0.4285416 -0.69417286 183 158 167
-0.11909081 -0.4307723 -0.69498771 213 199 200
-0.11879795 -0.42894307 -0.69494718 184 162 163
-0.11869898 -0.43116984 -0.69473547 221 208 212
-0.1188339 -0.42938706 -0.69493693 191 171 173
-0.11449119 -0.42967257 -0.69245005 193 164 187
-0.11521611 -0.43076059 -0.69277388 192 172 186
-0.11379029 -0.42794421 -0.69210047 188 160 183
-0.11348464 -0.42886895 -0.69187587 195 167 191
-0.11411296 -0.42828885 -0.6922828 188 159 182
-0.12027386 -0.43370584 -0.69552559 230 220 222
-0.12005515 -0.43250647 -0.69548112 226 215 219
-0.11930226 -0.43447047 -0.69488633 231 222 222
-0.11921061 -0.43398702 -0.69485998 230 221 221
-0.11949319 -0.43538359 -0.69494671 233 224 223
-0.11710401 -0.43513653 -0.69354111 226 220 221
-0.11834604 -0.43521562 -0.69427913 229 220 220
-0.11627021 -0.43463832 -0.69308448 220 215 218
-0.11555668 -0.43260211 -0.6928339 203 191 200
-0.11589474 -0.43346384 -0.69296157 211 201 207
-0.11690227 -0.43552727 -0.6933862 228 225 225
-0.11647967 -0.43219891 -0.69340289 206 192 201
-0.11845784 -0.43359536 -0.69445115 224 214 216
-0.11805386 -0.4332743 -0.69423914 220 209 213
-0.11614858 -0.43254483 -0.69319344 204 190 199
-0.11640411 -0.43170869 -0.69338846 205 191 200
-0.11704433 -0.43316808 -0.69366866 212 199 206
-0.11516611 -0.43313658 -0.69255841 207 198 206
-0.11489115 -0.43433404 -0.69231087 218 213 218
-0.11425938 -0.43253553 -0.69211859 209 192 208
-0.11499281 -0.43233517 -0.69253671 202 189 199
-0.12061052 -0.43655452 -0.69546878 225 214 221
-0.12040862 -0.43587083 -0.69543988 231 222 224
-0.12089718 -0.43805072 -0.69543934 212 197 213
-0.12076022 -0.43856841 -0.69529337 208 194 212
-0.12013239 -0.43818626 -0.69497591 213 201 215
-0.12006209 -0.43859816 -0.69488406 210 199 214
-0.11968167 -0.43639398 -0.69493616 225 215 219
-0.11676612 -0.43870741 -0.69295204 223 217 229
-0.11642029 -0.43897739 -0.69272667 226 219 232
-0.11720265 -0.43932655 -0.69314176 221 214 228
-0.117742 -0.43923646 -0.69346052 217 210 224
-0.11816991 -0.43888697 -0.6937409 214 207 220
-0.11654002 -0.43793568 -0.69289845 222 218 228
-0.11765884 -0.4377183 -0.69356912 217 212 221
-0.11681928 -0.43585622 -0.69329637 226 223 225
-0.11805198 -0.43768832 -0.69380856 217 212 220
-0.11901587 -0.43863034 -0.6942699 213 205 217
-0.11679352 -0.43579322 -0.69328868 227 224 225
-0.11786434 -0.43763211 -0.69370306 217 212 220
-0.11490095 -0.43774933 -0.69200522 230 225 235
-0.11455312 -0.43782914 -0.69181645 232 227 236
-0.12009543 -0.43995476 -0.69470811 204 192 211
-0.1203157 -0.44048062 -0.69474238 202 189 208
-0.12051602 -0.44044718 -0.69486475 202 187 208
-0.11624286 -0.44219238 -0.69240463 224 209 234
-0.11709433 -0.44230527 -0.69288117 215 194 222
-0.11659998 -0.44131473 -0.69266057 220 203 227
-0.11600907 -0.44259903 -0.69224727 227 214 238
-0.11583095 -0.44065511 -0.69226396 228 217 237
-0.11889312 -0.43992847 -0.69406843 208 197 215
-0.11801942 -0.44144365 -0.69346398 208 186 213
-0.11594234 -0.44015437 -0.69235766 227 215 234
-0.11765113 -0.43992749 -0.69335485 216 206 223
-0.11735054 -0.44154423 -0.69307286 212 190 217
-0.1177169 -0.44083607 -0.69333124 212 195 218
-0.11505984 -0.43976501 -0.69189733 234 226 242
-0.11625605 -0.44459248 -0.69219428 216 201 229
-0.11698903 -0.44360688 -0.69272792 214 194 224
-0.11735518 -0.4435671 -0.69294047 211 188 219
0 0 0 1 0 0 0 1 0 0 0 1 0 0 0 0 0 316 1 0 0
