ply
format ascii 1.0
comment PCL generated
element vertex 187
property float x
property float y
property float z
property uchar red
property uchar green
property uchar blue
element camera 1
property float view_px
property float view_py
property float view_pz
property float x_axisx
property float x_axisy
property float x_axisz
property float y_axisx
property float y_axisy
property float y_axisz
property float z_axisx
property float z_axisy
property float z_axisz
property float focal
property float scalex
property float scaley
property float centerx
property float centery
property int viewportx
property int viewporty
property float k1
property float k2
end_header
0.13681196 -0.087702438 -0.78622842 23 24 52
0.13700549 -0.087525934 -0.78591138 28 31 62
0.1381702 -0.087389611 -0.78735816 31 33 65
0.13725874 -0.087700933 -0.78696746 23 23 51
0.13733838 -0.087833881 -0.78760612 20 18 43
0.14138676 -0.085993908 -0.78802931 90 99 138
0.14101614 -0.086395361 -0.78856301 72 80 116
0.14037801 -0.086678244 -0.78863442 62 67 100
0.14176716 -0.086031221 -0.78841418 86 97 136
0.14119609 -0.08590363 -0.7876879 95 103 142
0.14003879 -0.086116195 -0.78652811 83 91 132
0.13869552 -0.087698966 -0.78936595 22 19 45
0.13972242 -0.086348876 -0.78668886 73 80 120
0.14025092 -0.086001016 -0.78656828 89 97 138
0.13942292 -0.086957686 -0.78824884 52 53 85
0.14031345 -0.085920222 -0.78641039 92 101 142
0.13889077 -0.08692684 -0.78698939 47 52 90
0.14380629 -0.085439131 -0.78938079 103 119 167
0.13719167 -0.088052154 -0.78891522 33 30 44
0.13736242 -0.087977096 -0.78861147 28 24 42
0.13755508 -0.088028625 -0.78935772 32 28 42
0.13620207 -0.087993711 -0.78673083 27 26 46
0.15792572 -0.083977908 -0.80522299 131 143 216
0.16045655 -0.083763845 -0.80832446 142 154 216
0.15991458 -0.083818145 -0.80768269 140 151 216
0.15904911 -0.083825022 -0.80653012 137 149 217
0.1602018 -0.083233401 -0.80712807 155 166 226
0.16117604 -0.082320586 -0.80699116 173 182 230
0.1595764 -0.082983233 -0.80589044 157 167 226
0.15906866 -0.083398856 -0.80586582 149 159 224
0.16170101 -0.082840264 -0.80851853 168 179 230
0.15865517 -0.083278425 -0.80511981 148 159 224
0.16215637 -0.082555987 -0.80868232 174 184 231
0.1579413 -0.08407928 -0.80562246 128 139 211
0.15622367 -0.084840499 -0.80617034 97 106 172
0.15798238 -0.084864728 -0.80872476 101 108 170
0.15759972 -0.084564261 -0.80702192 110 119 186
0.15783417 -0.084335618 -0.80646139 118 129 197
0.15624693 -0.084825188 -0.8061434 98 107 173
0.15820588 -0.084534489 -0.80776721 112 121 187
0.15940665 -0.083987787 -0.80727983 134 146 213
0.15889063 -0.084335171 -0.80792153 121 131 196
0.16837534 -0.081988633 -0.81681615 163 171 217
0.13422519 -0.087835498 -0.78275836 29 29 56
0.13613278 -0.087693334 -0.78503877 24 26 55
0.13640018 -0.087588854 -0.78510922 27 29 60
0.13737081 -0.086943023 -0.78435862 46 52 93
0.13746481 -0.087017596 -0.7847997 43 50 89
0.13765539 -0.086457737 -0.78365409 69 76 118
0.13747193 -0.086207695 -0.78284371 83 90 131
0.13688922 -0.086432502 -0.78250474 75 80 120
0.13649105 -0.086969338 -0.78311354 49 53 92
0.13711977 -0.086708225 -0.78343862 59 65 105
0.13883565 -0.085953996 -0.7842145 89 99 143
0.13898218 -0.086410061 -0.78540599 65 75 119
0.13884538 -0.086228698 -0.78482968 75 85 129
0.13938037 -0.08612182 -0.78529364 79 89 134
0.1392031 -0.085753165 -0.78425378 98 109 153
0.13997576 -0.085368238 -0.78441823 116 127 173
0.13475206 -0.087997153 -0.7842775 24 23 47
0.1334933 -0.087926641 -0.78268147 38 38 62
0.13316219 -0.088017896 -0.7832002 45 45 66
0.13310499 -0.088136055 -0.7845006 48 51 69
0.1353828 -0.087903395 -0.7845819 20 19 46
0.15326735 -0.083576418 -0.79848689 148 165 229
0.15435132 -0.0834819 -0.79999006 146 164 227
0.15449606 -0.083876222 -0.80082715 136 156 225
0.15488026 -0.083797529 -0.80116701 138 158 225
0.14896278 -0.085595056 -0.79730201 90 99 162
0.14988931 -0.085359052 -0.79819793 92 103 170
0.14942631 -0.085663252 -0.79840803 82 90 155
0.15157163 -0.084305637 -0.7975173 130 147 216
0.15182383 -0.084428929 -0.79827559 124 141 211
0.1527375 -0.084340185 -0.7994194 125 143 213
0.1506241 -0.085008621 -0.79827917 103 116 185
0.1521865 -0.084552728 -0.79923171 118 135 204
0.15160537 -0.084696956 -0.79878789 113 129 199
0.15100899 -0.085005477 -0.79889929 102 115 184
0.15442696 -0.083998173 -0.80096602 133 154 224
0.16483891 -0.083127111 -0.8138541 138 146 209
0.16518873 -0.082861498 -0.81393337 144 152 211
0.16574301 -0.082024626 -0.81322485 165 171 222
0.16522291 -0.082472511 -0.81321323 154 161 217
0.1639345 -0.083948635 -0.81393766 119 127 199
0.16719458 -0.081705756 -0.81465352 172 177 223
0.16684142 -0.082133271 -0.81503415 160 168 218
0.16740251 -0.082335494 -0.81619692 155 163 214
0.16774262 -0.082141958 -0.81626785 160 168 216
0.16665313 -0.082385659 -0.8152861 154 162 214
0.16619484 -0.082354039 -0.81460422 155 163 215
0.16813442 -0.081801601 -0.81611413 168 175 220
0.15662257 -0.085681662 -0.81299305 94 93 137
0.16161029 -0.084909804 -0.81485635 99 98 163
0.16190086 -0.084563866 -0.81331211 109 113 185
0.16104871 -0.084814563 -0.81418008 108 111 172
0.16004506 -0.085040897 -0.81345183 107 107 166
0.16017871 -0.085005045 -0.81357425 108 108 167
0.16249955 -0.08437895 -0.81325012 112 116 190
0.16262008 -0.08452405 -0.81417477 105 107 178
0.148288 -0.083813339 -0.79180568 160 178 236
0.14803971 -0.083870463 -0.79156387 159 177 236
0.13784574 -0.087429956 -0.79019618 27 21 43
0.13791153 -0.087509699 -0.79074293 27 21 40
0.13899311 -0.087716095 -0.78982812 22 20 45
0.14241935 -0.086422116 -0.78995591 67 80 118
0.1453331 -0.08528696 -0.79126275 105 120 182
0.14518234 -0.085487217 -0.79153037 96 112 173
0.14508429 -0.085242815 -0.79078507 108 123 182
0.14457619 -0.085565642 -0.7908231 95 110 166
0.14405631 -0.085802384 -0.79063237 86 101 154
0.14259081 -0.086346738 -0.78993016 69 83 122
0.14325501 -0.086103611 -0.79020405 76 91 137
0.14500055 -0.085868388 -0.7923305 82 97 156
0.14450088 -0.085985623 -0.79189563 79 93 148
0.14636727 -0.085483596 -0.79329646 92 108 180
0.14732318 -0.084598973 -0.79232979 130 147 213
0.14699008 -0.084482715 -0.79161072 136 153 218
0.1478032 -0.084027737 -0.79152334 155 173 234
0.14856641 -0.08425346 -0.79306936 143 163 225
0.1389142 -0.087932117 -0.79079318 25 20 40
0.1571447 -0.083656445 -0.80378234 141 155 224
0.1573461 -0.083455488 -0.80371046 145 158 225
0.15563083 -0.083364889 -0.8014105 147 164 227
0.15766488 -0.082868963 -0.80316281 158 169 228
0.1581903 -0.082326353 -0.80294561 170 179 231
0.15807185 -0.083667859 -0.80495971 141 152 222
0.15941529 -0.082537279 -0.80496615 163 171 227
0.15924641 -0.082148097 -0.80410546 171 179 230
0.1584423 -0.082766227 -0.80400085 160 169 227
0.15429105 -0.084347636 -0.8019436 119 137 206
0.15487003 -0.084149033 -0.80201328 126 145 214
0.15557745 -0.084181406 -0.8029933 124 140 211
0.15505849 -0.084641412 -0.80392593 104 118 186
0.15600705 -0.084331892 -0.80403501 117 131 201
0.15530078 -0.084538333 -0.80387181 109 122 191
0.1567059 -0.084331796 -0.80489367 116 128 199
0.15443937 -0.084482081 -0.80261117 112 129 197
0.14992185 -0.083881572 -0.79397714 156 175 235
0.15154128 -0.083530895 -0.79571205 155 172 232
0.15094681 -0.08388193 -0.79538631 152 170 233
0.1460893 -0.086093836 -0.79459208 75 85 147
0.1448676 -0.086457938 -0.79397863 66 75 126
0.14561923 -0.086017832 -0.79377377 78 90 151
0.14415064 -0.086623855 -0.79348999 62 71 117
0.14442077 -0.086606964 -0.79379702 62 71 118
0.14965563 -0.084205389 -0.79445618 143 162 225
0.14834677 -0.084584311 -0.79364115 128 147 213
0.14855202 -0.08482676 -0.79461169 117 134 202
0.1482769 -0.084886529 -0.79438239 115 132 200
0.14911273 -0.084288388 -0.79391873 140 160 223
0.14759158 -0.085228622 -0.79434949 101 117 188
0.14789626 -0.085957654 -0.79675162 80 87 148
0.14741765 -0.085792951 -0.79562616 84 94 159
0.14888783 -0.085400008 -0.79666114 96 107 173
0.14806922 -0.085246898 -0.79508281 100 115 185
0.1484174 -0.085532315 -0.79634768 92 103 168
0.14841758 -0.085331999 -0.7958082 97 111 179
0.1512545 -0.084009945 -0.79612416 146 164 230
0.15103984 -0.084225744 -0.79644436 137 155 221
0.16123961 -0.083545208 -0.80902869 150 161 219
0.16296624 -0.082639702 -0.80998367 163 172 224
0.16222019 -0.082827777 -0.80921137 168 178 229
0.16396061 -0.082597129 -0.81147557 151 158 215
0.16256437 -0.08353585 -0.81089991 142 152 215
0.16324416 -0.083513133 -0.81195331 135 143 209
0.16292292 -0.083239555 -0.81094944 146 155 216
0.1634084 -0.083818294 -0.81275636 124 132 204
0.16432841 -0.082731836 -0.81224704 148 155 214
0.15775955 -0.085341349 -0.81145567 100 101 153
0.15743642 -0.085580155 -0.81259561 98 97 145
0.15749747 -0.085421637 -0.81174362 98 99 150
0.1577796 -0.085191876 -0.81062901 100 103 158
0.15689154 -0.085383229 -0.8111518 95 99 150
0.15566732 -0.085576482 -0.81053919 84 90 135
0.1566398 -0.085302077 -0.81037611 93 100 151
0.15660334 -0.085309915 -0.81007308 91 97 149
0.15756308 -0.085034885 -0.80938202 97 104 162
0.16107334 -0.084009357 -0.80962706 136 147 211
0.16140093 -0.084225371 -0.81095856 124 132 201
0.16013204 -0.084546767 -0.81046724 112 119 185
0.16080071 -0.084358387 -0.81064981 119 127 194
0.16117144 -0.084556863 -0.81197298 109 114 186
0.15996249 -0.084757134 -0.81120515 106 110 177
0.1587055 -0.084912151 -0.81010813 103 108 169
0.15852545 -0.085408181 -0.81261081 103 100 153
0.16052589 -0.084775314 -0.81218898 108 110 177
0.16273162 -0.084001608 -0.81203824 127 136 207
0 0 0 1 0 0 0 1 0 0 0 1 0 0 0 0 0 187 1 0 0
