ply
format ascii 1.0
comment PCL generated
element vertex 190
property float x
property float y
property float z
property uchar red
property uchar green
property uchar blue
element camera 1
property float view_px
property float view_py
property float view_pz
property float x_axisx
property float x_axisy
property float x_axisz
property float y_axisx
property float y_axisy
property float y_axisz
property float z_axisx
property float z_axisy
property float z_axisz
property float focal
property float scalex
property float scaley
property float centerx
property float centery
property int viewportx
property int viewporty
property float k1
property float k2
end_header
0.16552544 0.057973232 -0.8367337 169 157 173
0.16565526 0.057818901 -0.83755678 165 155 168
0.16563761 0.057878889 -0.83705509 168 157 172
0.16917925 0.057214916 -0.83930969 173 171 176
0.1680177 0.057273101 -0.84009486 166 161 166
0.16649272 0.057326723 -0.83989012 158 151 156
0.16758081 0.057275321 -0.83932322 164 160 164
0.1661253 0.057579774 -0.83777803 167 159 171
0.16662577 0.057597224 -0.83682299 173 166 178
0.16627587 0.057407029 -0.8392688 160 152 159
0.1670631 0.057546999 -0.83664244 175 169 180
0.16735128 0.057501722 -0.83664519 175 170 181
0.17144479 0.056833163 -0.8367548 157 157 162
0.17086369 0.056967437 -0.83677959 167 167 172
0.17246708 0.056812465 -0.8387087 146 146 153
0.17080513 0.057061918 -0.83902681 167 166 172
0.17192069 0.056927416 -0.8399418 152 151 158
0.1714668 0.056993835 -0.84020394 158 156 163
0.17208865 0.056893416 -0.83933365 151 150 157
0.17382956 0.056649208 -0.84004354 128 127 136
0.17256951 0.05652469 -0.83692712 141 139 146
0.17358701 0.055917431 -0.83693475 135 133 142
0.17349736 0.056456085 -0.83863467 132 131 139
0.17418708 0.0555261 -0.83669037 140 137 146
0.17415453 0.056127321 -0.83873808 135 134 142
0.17434101 0.056286678 -0.83961827 136 135 144
0.17529203 0.055932336 -0.8400228 149 149 157
0.17448877 0.056375798 -0.8401857 137 136 145
0.17538869 0.055867542 -0.8399632 150 151 159
0.17573206 0.054495957 -0.83676887 174 175 180
0.17656122 0.054631665 -0.83823627 178 179 185
0.17669438 0.054620806 -0.83840436 179 181 186
0.17566128 0.054513413 -0.83670372 173 174 179
0.17520769 0.055073626 -0.83721358 158 157 164
0.16453598 0.057471659 -0.84477079 172 156 165
0.16485111 0.057249688 -0.84464663 177 161 169
0.17360324 0.056866203 -0.84437227 110 106 110
0.17523266 0.056781735 -0.84428948 140 139 142
0.16929731 0.055268489 -0.84644985 112 104 115
0.16713151 0.055380814 -0.84706426 85 77 87
0.16710123 0.055306084 -0.84725726 84 77 86
0.1691656 0.055421069 -0.84613496 111 103 113
0.16828725 0.055040225 -0.84741473 98 91 102
0.16983344 0.055489887 -0.84569544 120 112 121
0.16667089 0.055957094 -0.84571552 133 122 129
0.16688997 0.055522215 -0.84678817 94 86 95
0.16741499 0.056332182 -0.84446061 160 148 154
0.16642827 0.055585369 -0.84678435 103 94 102
0.16763994 0.056362227 -0.84430164 161 149 155
0.16602346 0.055505514 -0.84713858 99 90 99
0.17235486 0.056486726 -0.84533113 136 131 136
0.17209128 0.056574557 -0.84427166 113 108 113
0.17239539 0.056497961 -0.84531385 135 131 135
0.17054462 0.055865619 -0.84549618 133 126 133
0.17057423 0.055100005 -0.84738219 129 124 134
0.1701254 0.056001496 -0.84466606 127 119 126
0.1762087 0.056597576 -0.84480441 175 176 178
0.1619648 0.059384342 -0.83096474 171 163 179
0.16449004 0.058315784 -0.83218753 173 164 179
0.16280651 0.058919825 -0.83071291 174 166 182
0.17687778 0.05407425 -0.85594147 168 159 168
0.17719661 0.054107457 -0.85639405 174 166 174
0.17635016 0.053165391 -0.85614663 156 146 155
0.16491282 0.058296222 -0.83468843 170 157 173
0.16466345 0.058463275 -0.83551759 166 151 169
0.16545661 0.058036678 -0.83588868 171 160 176
0.16427261 0.058656275 -0.83484042 164 149 166
0.16455843 0.05854442 -0.83617669 163 148 166
0.16441299 0.058555141 -0.83416992 167 153 169
0.16430533 0.058533903 -0.8333832 168 156 172
0.16438638 0.058511868 -0.83354396 168 156 172
0.17246421 0.055977374 -0.83512717 156 154 162
0.17156374 0.056363199 -0.83470774 165 165 171
0.17144525 0.056547772 -0.83501816 162 162 168
0.17360587 0.054989286 -0.83440912 159 157 166
0.1728545 0.055593934 -0.83475804 158 157 165
0.17287295 0.05514152 -0.83362877 171 171 179
0.17353372 0.054885708 -0.8340286 164 162 171
0.17480792 0.054761954 -0.83591777 163 162 169
0.17404597 0.055273641 -0.83587831 146 143 152
0.17386882 0.054910034 -0.83463311 156 154 163
0.17416672 0.054797031 -0.83487153 160 159 167
0.1754525 0.05435336 -0.83601326 176 176 182
0.16893305 0.054318182 -0.8494162 98 93 103
0.1686383 0.054258801 -0.84983695 93 88 97
0.16637109 0.0542804 -0.85175294 58 55 56
0.1698357 0.053976566 -0.84957266 107 103 116
0.16946995 0.054393183 -0.84874129 107 102 113
0.16806783 0.053979814 -0.85110414 80 77 84
0.16834904 0.0546601 -0.84854782 95 89 99
0.16637766 0.054580212 -0.85046375 64 59 63
0.16640721 0.054537535 -0.85063833 63 59 62
0.16897 0.054529142 -0.84866774 102 96 107
0.16638958 0.054850042 -0.84920418 69 63 70
0.17293893 0.054773185 -0.85188699 127 125 129
0.17357355 0.055519771 -0.85058892 152 149 152
0.17257693 0.05461156 -0.85176152 125 123 129
0.17146179 0.054280922 -0.8508271 127 125 135
0.17284219 0.054892812 -0.85131991 134 132 137
0.17175516 0.054344945 -0.85114819 125 124 133
0.17193377 0.055201534 -0.84886569 149 147 155
0.16999714 0.054294258 -0.84872317 113 108 122
0.17119546 0.054949742 -0.84855163 137 133 143
0.1712148 0.054371651 -0.85017383 129 127 138
0.170855 0.054494139 -0.84934396 127 123 134
0.17046294 0.05471408 -0.84820092 125 120 131
0.17530045 0.055892002 -0.85161346 162 159 162
0.17566581 0.056040365 -0.85158396 168 165 168
0.17395379 0.055518381 -0.85111815 147 145 146
0.17399374 0.055718292 -0.85048342 156 154 156
0.16534701 0.057534017 -0.84233046 175 159 168
0.16568775 0.057301786 -0.84202665 173 159 166
0.16439213 0.058402169 -0.84198689 169 148 162
0.16517954 0.057685055 -0.84227687 174 157 167
0.16586947 0.057458688 -0.84032154 155 146 152
0.16404052 0.058679305 -0.84219873 169 146 162
0.16474658 0.05795848 -0.84332132 179 159 170
0.16895309 0.056714199 -0.84256816 163 155 161
0.16694334 0.057145547 -0.8411718 170 161 166
0.16716646 0.057135411 -0.8411814 171 163 168
0.1680008 0.057161734 -0.840864 172 166 171
0.17163347 0.056690574 -0.84347373 123 117 123
0.17085133 0.056971367 -0.84182411 150 147 152
0.17098774 0.056846533 -0.84241122 142 137 143
0.17109443 0.056836125 -0.84253019 140 135 141
0.17266974 0.056953423 -0.84204334 131 129 134
0.17287645 0.056930993 -0.84212649 128 126 131
0.17330323 0.056799643 -0.84103966 130 128 136
0.17111371 0.057087135 -0.84089756 158 156 161
0.17060673 0.057146396 -0.84075648 165 163 168
0.17438711 0.056665357 -0.84094316 137 136 144
0.17461717 0.056740124 -0.84236383 133 133 138
0.17620556 0.056690522 -0.84394687 161 162 164
0.17487076 0.056708824 -0.84227055 140 140 145
0.17518665 0.056731839 -0.84307194 142 142 147
0.16773681 0.056468599 -0.84394956 167 154 161
0.16861953 0.056331821 -0.84401101 150 139 145
0.16816442 0.056396924 -0.84399706 159 146 153
0.17015485 0.056390028 -0.8434177 133 125 132
0.17129982 0.056473792 -0.84396303 118 111 117
0.1766195 0.055339973 -0.84024298 167 169 176
0.17490932 0.056306314 -0.84057814 143 143 151
0.17589061 0.055813652 -0.84055668 157 158 165
0.17553437 0.056088999 -0.84083116 152 153 160
0.17669491 0.055750079 -0.84147936 170 172 177
0.17637141 0.056041699 -0.84184349 165 167 172
0.16553713 0.053443648 -0.85219127 47 44 44
0.16588624 0.05468126 -0.85524321 38 36 42
0.16593501 0.054439448 -0.85343528 46 44 46
0.16525872 0.053761154 -0.8547411 31 29 34
0.1648709 0.053131282 -0.85424989 27 25 30
0.16467598 0.05309337 -0.85482419 21 20 26
0.16482574 0.053295638 -0.85489315 23 22 28
0.16765569 0.053670008 -0.85576624 38 50 57
0.16703343 0.054234985 -0.85568064 40 45 53
0.16823193 0.053675752 -0.85436594 59 64 74
0.16870274 0.053677376 -0.85323048 76 76 88
0.16915508 0.05318822 -0.85351211 72 78 90
0.16645811 0.054527048 -0.85382038 51 48 53
0.16876784 0.053538233 -0.85242122 81 80 91
0.16835126 0.053637285 -0.8522464 77 76 85
0.16606814 0.05450654 -0.85304672 50 47 48
0.16701351 0.054181565 -0.85290366 60 58 63
0.16677216 0.054507397 -0.85424864 52 50 57
0.17368135 0.053971931 -0.85281968 146 145 148
0.17199251 0.053699557 -0.85251349 117 119 125
0.1724769 0.052874833 -0.85324728 135 137 144
0.17337714 0.054046296 -0.85267627 140 139 143
0.17253046 0.053146411 -0.85306889 133 135 141
0.17044561 0.053187352 -0.85229373 97 99 111
0.17452534 0.054397367 -0.85275227 159 157 160
0.17516348 0.055140719 -0.85239744 163 161 164
0.17562744 0.05424919 -0.85347229 171 167 173
0.17513058 0.052851405 -0.8549419 153 147 155
0.17638394 0.054477707 -0.85393709 168 161 168
0.17409639 0.052961409 -0.8537057 164 163 168
0.17587309 0.053559065 -0.85471046 158 150 158
0.17659707 0.054105371 -0.85491955 165 157 166
0.1767097 0.054187827 -0.85511762 167 159 167
0.17572582 0.051489193 -0.85568506 138 130 139
0.17593852 0.050344072 -0.85585004 130 123 132
0.17588557 0.050374445 -0.85579848 130 124 132
0.17562522 0.051965252 -0.85560435 142 133 142
0.17430478 0.050033774 -0.85420179 138 136 140
0.17436755 0.050027072 -0.8542673 138 135 139
0.17515711 0.052315179 -0.85512966 148 141 149
0.17567676 0.052691154 -0.85567844 147 137 146
0.17472579 0.047996257 -0.85547668 121 121 126
0.17437659 0.04879887 -0.85426229 130 129 132
0.174099 0.047457531 -0.8554334 121 122 127
0 0 0 1 0 0 0 1 0 0 0 1 0 0 0 0 0 190 1 0 0
