ply
format ascii 1.0
comment PCL generated
element vertex 1015
property float x
property float y
property float z
property uchar red
property uchar green
property uchar blue
element camera 0
property float view_px
property float view_py
property float view_pz
property float x_axisx
property float x_axisy
property float x_axisz
property float y_axisx
property float y_axisy
property float y_axisz
property float z_axisx
property float z_axisy
property float z_axisz
property float focal
property float scalex
property float scaley
property float centerx
property float centery
property int viewportx
property int viewporty
property float k1
property float k2
end_header
-0.20812044 0.33360016 -0.81455398 197 176 179
-0.20713153 0.33254993 -0.81314224 180 159 163
-0.20703423 0.3307409 -0.81367576 149 126 132
-0.20725761 0.33206981 -0.81356031 175 155 158
-0.20742309 0.33119521 -0.81420511 164 145 148
-0.20835821 0.3306928 -0.81610447 177 165 159
-0.20727651 0.33176282 -0.81371534 170 150 154
-0.20602091 0.32621452 -0.81389046 157 124 142
-0.20638193 0.32703149 -0.8142277 159 129 143
-0.20633911 0.32634428 -0.8143338 159 129 144
-0.20554914 0.32620806 -0.81318712 154 116 139
-0.20790751 0.32747817 -0.81639677 169 153 153
-0.20657031 0.32638243 -0.81466985 161 132 146
-0.20685595 0.32744956 -0.81483257 162 136 146
-0.2064319 0.3288134 -0.81349689 142 113 126
-0.2076278 0.32913181 -0.81550819 164 145 146
-0.20686302 0.32806155 -0.81467223 161 135 144
-0.20798489 0.32969901 -0.81586349 164 149 146
-0.20734772 0.32923448 -0.81494504 156 135 139
-0.20753388 0.32888913 -0.8154633 165 145 148
-0.20606759 0.32273051 -0.81496704 161 131 134
-0.20682438 0.32250932 -0.81600022 160 130 133
-0.20568299 0.32434377 -0.8139683 155 120 134
-0.20705175 0.32231167 -0.81635207 161 130 132
-0.20510526 0.3233178 -0.81355667 160 129 136
-0.20657749 0.32353282 -0.81535161 158 124 133
-0.20733483 0.3250173 -0.81611574 164 140 145
-0.20613293 0.32472759 -0.81438279 156 119 135
-0.20731118 0.32471299 -0.81614661 164 139 144
-0.20726787 0.324729 -0.81607842 163 138 143
-0.20632777 0.32565388 -0.81447232 158 126 142
-0.20711493 0.32349095 -0.81611937 161 130 136
-0.20651358 0.32478231 -0.81493968 158 126 138
-0.20504686 0.32284445 -0.81363809 161 133 136
-0.20507655 0.3230229 -0.81361353 161 132 136
-0.20676644 0.31957495 -0.81618476 162 131 134
-0.20616902 0.32056704 -0.81535739 162 133 135
-0.20689064 0.32134771 -0.81622332 161 131 133
-0.20680754 0.32006803 -0.81620383 162 131 134
-0.20653112 0.32024962 -0.81583971 162 132 134
-0.20531052 0.31885934 -0.81453472 171 144 141
-0.20519473 0.31892958 -0.81439006 171 145 141
-0.20628482 0.31994849 -0.81555051 163 133 135
-0.20513766 0.31990942 -0.81420583 169 143 140
-0.20493469 0.31894055 -0.81410694 171 145 141
-0.20404905 0.31925359 -0.81317645 164 141 137
-0.20427454 0.32103756 -0.813169 164 140 137
-0.20432751 0.32214278 -0.81306928 164 140 137
-0.20607908 0.3173804 -0.81571215 165 136 135
-0.20653746 0.3159112 -0.81657213 158 127 127
-0.20595337 0.3169603 -0.81565601 165 136 134
-0.20571576 0.31816599 -0.81511331 169 141 139
-0.2061581 0.31466526 -0.81638575 155 124 124
-0.20528719 0.31486431 -0.81527442 155 122 125
-0.2055998 0.3160975 -0.81541348 162 133 131
-0.20493545 0.3166821 -0.81448746 166 138 137
-0.20445439 0.31626326 -0.81400561 170 144 142
-0.20400505 0.31566495 -0.81359673 172 147 147
-0.20353571 0.31652299 -0.81298417 169 148 145
-0.20351245 0.31526098 -0.81311095 174 152 151
-0.20365834 0.31664222 -0.81309366 170 148 145
-0.20561415 0.31430182 -0.81577063 153 120 123
-0.20640109 0.31424683 -0.81674325 153 122 122
-0.20601326 0.3132948 -0.81634098 148 117 122
-0.20586385 0.31127712 -0.81629199 138 108 120
-0.20530176 0.31321573 -0.81544745 147 114 122
-0.2050795 0.31375954 -0.81511939 149 116 122
-0.20493145 0.31112733 -0.81499887 139 108 119
-0.20416698 0.31084326 -0.81402647 154 124 133
-0.20477527 0.31116545 -0.81479764 142 112 122
-0.20484254 0.31279466 -0.81484091 149 117 124
-0.20435578 0.31361136 -0.8142311 161 130 135
-0.20357044 0.31153697 -0.81326079 169 140 146
-0.20345592 0.31226873 -0.81314296 171 144 148
-0.20329496 0.31388476 -0.81299078 173 150 152
-0.20565258 0.3099241 -0.81595564 133 101 116
-0.20566706 0.30931494 -0.81591994 133 98 116
-0.20559324 0.30992839 -0.81587225 133 101 116
-0.2057468 0.30801243 -0.81593388 132 92 115
-0.20595469 0.30700353 -0.81614834 132 88 115
-0.20533068 0.30871233 -0.81542665 132 96 114
-0.20462836 0.30879232 -0.81458122 136 105 117
-0.20399676 0.30759406 -0.81378418 141 111 120
-0.20462638 0.30742544 -0.81449813 136 100 116
-0.20377617 0.30896729 -0.81353647 151 123 130
-0.20390877 0.30979672 -0.81370485 154 125 133
-0.20402095 0.30848894 -0.81385118 143 114 122
-0.20365161 0.30756772 -0.81337959 145 117 123
-0.20582135 0.30584806 -0.81594384 132 91 115
-0.20634539 0.30649886 -0.81664068 132 86 116
-0.20640211 0.30591768 -0.81671011 132 88 116
-0.20571239 0.30347812 -0.81579357 133 98 114
-0.20629527 0.30323631 -0.81654525 132 98 116
-0.20608699 0.30274874 -0.81627756 133 100 115
-0.20457649 0.30348155 -0.81432116 141 111 119
-0.20426121 0.30441299 -0.81390822 146 116 124
-0.20417702 0.30311224 -0.81380028 148 121 125
-0.20368764 0.30438983 -0.81323254 152 126 129
-0.20390131 0.30420423 -0.81346673 151 123 128
-0.2033287 0.30646741 -0.81294888 148 120 125
-0.20422468 0.30567554 -0.81392992 142 110 121
-0.20645082 0.30046073 -0.81656647 141 112 127
-0.20640105 0.29980519 -0.81645042 143 116 130
-0.20563111 0.30175751 -0.81561261 137 106 118
-0.2053057 0.30180931 -0.81519341 138 106 118
-0.20548677 0.30145252 -0.81539929 139 108 120
-0.20548877 0.30037507 -0.81530589 145 115 127
-0.20507608 0.30101332 -0.81482148 144 112 124
-0.20421304 0.29990697 -0.81371623 150 119 127
-0.20479038 0.30113739 -0.81449926 143 111 121
-0.20360172 0.29915199 -0.81292063 156 126 131
-0.20373179 0.30221006 -0.81320077 155 131 131
-0.20377152 0.30037686 -0.81318647 154 125 130
-0.21855655 0.34610045 -0.82928574 154 124 134
-0.21893519 0.34574029 -0.82897675 166 135 146
-0.21889782 0.34552073 -0.82901752 168 138 147
-0.21745329 0.34352574 -0.83041149 162 138 132
-0.21890938 0.34515557 -0.82900035 175 146 152
-0.21785156 0.3446871 -0.8300367 152 124 129
-0.21769074 0.34518334 -0.83020312 138 107 119
-0.21769634 0.34188673 -0.83006942 176 158 141
-0.21748881 0.34208137 -0.83030802 176 158 140
-0.21807121 0.34318197 -0.82976466 177 155 146
-0.21882027 0.34318066 -0.82895708 178 156 150
-0.22073929 0.3383587 -0.83230454 171 150 143
-0.21710619 0.34179357 -0.83069927 175 158 137
-0.21858339 0.34132877 -0.8291871 177 160 145
-0.21801005 0.34151378 -0.82977319 176 159 142
-0.21700799 0.34032395 -0.83105874 173 159 136
-0.21842301 0.34033456 -0.82929862 178 161 147
-0.21877541 0.34078985 -0.8287273 180 162 150
-0.21839386 0.33990303 -0.8290832 180 163 150
-0.21905306 0.34157908 -0.82856423 179 161 149
-0.21787924 0.33960915 -0.83016485 175 160 141
-0.22067803 0.33838779 -0.8322503 172 151 143
-0.21591035 0.34115091 -0.8309834 173 157 141
-0.214871 0.34134161 -0.83076292 172 156 148
-0.21659048 0.34049097 -0.83122009 173 158 136
-0.21635389 0.34179375 -0.83095253 174 157 138
-0.21588162 0.34178618 -0.8308686 173 157 142
-0.22058511 0.33752501 -0.8323161 170 150 142
-0.21720289 0.33658072 -0.83205855 179 164 147
-0.21773438 0.33754119 -0.82975823 183 167 155
-0.21764851 0.33741328 -0.83011007 182 166 154
-0.21780622 0.3372595 -0.82988536 184 168 158
-0.21729429 0.33726066 -0.83115488 178 164 146
-0.21794297 0.33585197 -0.83107191 189 170 164
-0.21811959 0.33646807 -0.82985538 190 171 167
-0.21781288 0.33477068 -0.82875526 191 170 168
-0.21813095 0.33596432 -0.83031452 191 171 168
-0.21806376 0.33555374 -0.83010209 191 171 169
-0.21794333 0.33634919 -0.82859057 189 170 165
-0.21668315 0.33728024 -0.83189553 173 161 139
-0.21530102 0.33451581 -0.83189845 178 158 158
-0.21368748 0.33436802 -0.83095443 166 147 147
-0.21525493 0.33498001 -0.83171707 175 156 153
-0.21563104 0.33584145 -0.83166444 173 157 146
-0.21591905 0.33700609 -0.83145761 169 156 136
-0.2124173 0.33416829 -0.83130652 158 139 141
-0.21179888 0.3350262 -0.83219159 159 140 142
-0.21747188 0.3301937 -0.83165497 200 179 181
-0.21739268 0.33102942 -0.83040929 200 179 181
-0.21727143 0.33093023 -0.82979655 201 179 181
-0.21774906 0.33256799 -0.83103913 198 176 178
-0.21742804 0.3306846 -0.83093882 200 179 181
-0.21782641 0.33376294 -0.82978398 193 171 171
-0.21729989 0.3313674 -0.82947105 200 179 180
-0.21774554 0.3333115 -0.82986593 195 173 173
-0.21771435 0.3331902 -0.82981527 195 173 174
-0.21735665 0.33203664 -0.82886523 197 176 177
-0.21769203 0.3327893 -0.83026785 197 175 176
-0.21543248 0.33365688 -0.83220333 184 163 167
-0.21405122 0.33212399 -0.83158141 183 163 167
-0.21539068 0.33364102 -0.83217996 184 162 167
-0.21585141 0.33392787 -0.83242077 186 164 169
-0.2132761 0.33226505 -0.8313061 180 162 164
-0.21354716 0.33085632 -0.83188415 196 178 181
-0.21328577 0.33182174 -0.83147454 185 167 170
-0.21274565 0.33017367 -0.83227217 203 186 191
-0.21262626 0.3327086 -0.83147866 172 155 157
-0.21221423 0.33368444 -0.83174676 157 139 140
-0.21281219 0.33357438 -0.83086652 165 146 148
-0.21708436 0.32829884 -0.82914275 198 179 177
-0.21829847 0.32620978 -0.83176816 191 172 168
-0.21685891 0.32708064 -0.82910842 196 179 174
-0.21688044 0.32925481 -0.82859403 200 181 181
-0.21705031 0.32927373 -0.82890248 200 180 181
-0.21770041 0.32917762 -0.83162183 198 177 178
-0.2174505 0.32893494 -0.82977027 199 178 179
-0.21759015 0.32973772 -0.83189571 199 178 180
-0.21817109 0.32791212 -0.83229285 194 174 173
-0.21817283 0.32785696 -0.83221281 194 174 173
-0.21765622 0.32847682 -0.83021885 197 177 177
-0.21810828 0.32545605 -0.83143967 188 169 165
-0.21808504 0.32562923 -0.83140558 188 170 166
-0.21864723 0.32451195 -0.83231664 182 162 159
-0.21834509 0.3239637 -0.83179444 180 161 157
-0.21814056 0.32610834 -0.83151221 191 172 168
-0.21805088 0.32314038 -0.83140528 178 160 154
-0.21727724 0.32360458 -0.83038658 186 169 159
-0.21735305 0.32274476 -0.83066249 184 166 156
-0.21708833 0.32276824 -0.83034319 186 169 157
-0.21709105 0.32401171 -0.83007741 188 171 162
-0.21656686 0.32358664 -0.82950485 189 172 160
-0.21597642 0.32290512 -0.828843 184 167 153
-0.21661974 0.32583243 -0.82906353 193 177 169
-0.2170282 0.32185015 -0.83055538 185 168 155
-0.21711273 0.32122719 -0.83091766 183 165 154
-0.21749069 0.32001096 -0.83187777 177 158 150
-0.21693009 0.3218393 -0.83044344 185 169 155
-0.21703394 0.3199985 -0.83129525 178 160 150
-0.21712372 0.31904241 -0.83177972 173 155 147
-0.21572652 0.31958318 -0.82941002 149 127 124
-0.21661805 0.32019138 -0.83055693 170 152 142
-0.21656607 0.31900471 -0.83089167 161 141 135
-0.21568525 0.31986022 -0.8292504 150 128 125
-0.21546882 0.31943172 -0.82906997 143 120 119
-0.21597911 0.32220772 -0.82900083 182 165 150
-0.21588378 0.32128754 -0.82912099 169 150 140
-0.21653244 0.32185405 -0.82985568 180 163 150
-0.21689944 0.31612983 -0.83228344 169 162 141
-0.21673611 0.31493255 -0.83231044 168 167 138
-0.21629249 0.31743115 -0.83095235 153 138 128
-0.21627143 0.31634244 -0.83121645 155 146 129
-0.21651563 0.31517693 -0.83190584 163 160 134
-0.21628974 0.31543407 -0.83149153 158 153 130
-0.21542674 0.31752914 -0.82960576 136 118 114
-0.21443541 0.31529558 -0.82890558 161 149 134
-0.21440871 0.31571788 -0.82873118 156 142 130
-0.21487799 0.3170878 -0.82895273 139 120 116
-0.21579808 0.31562334 -0.83073014 155 148 129
-0.21546155 0.31453145 -0.83060664 169 165 140
-0.21451578 0.31531921 -0.8290118 160 149 134
-0.21624276 0.31545568 -0.8314144 157 152 130
-0.21495476 0.31057015 -0.82976544 154 131 128
-0.21466012 0.31109226 -0.82924324 165 144 135
-0.21615262 0.31324017 -0.83156013 164 158 135
-0.21627633 0.31163102 -0.83187455 144 129 121
-0.21563649 0.31131521 -0.83083987 151 133 126
-0.21512215 0.3119278 -0.82994878 167 151 137
-0.21495879 0.31206256 -0.82972115 168 152 138
-0.21480317 0.31401125 -0.82966256 170 162 141
-0.21557413 0.31310555 -0.8306796 168 160 138
-0.21545921 0.3143695 -0.83062178 170 166 141
-0.21563627 0.31375256 -0.83082134 169 163 139
-0.21471301 0.31195387 -0.82936394 168 151 138
-0.21616328 0.30747989 -0.8313213 134 100 114
-0.21535832 0.30725136 -0.83005387 137 101 113
-0.21544702 0.30843997 -0.8303743 134 104 111
-0.21675116 0.30856341 -0.83240658 130 101 112
-0.21629871 0.30858067 -0.83171076 131 102 112
-0.21634364 0.30963778 -0.83194315 130 105 110
-0.21564963 0.30969492 -0.83083272 138 112 115
-0.21603893 0.30993679 -0.83149856 133 109 112
-0.21524772 0.31042799 -0.83023924 149 125 123
-0.21495731 0.31025204 -0.82974303 152 127 126
-0.2150816 0.30937344 -0.82986432 145 117 120
-0.21467443 0.3088893 -0.82914585 149 119 122
-0.21474606 0.31016025 -0.82938552 155 130 128
-0.21680327 0.30539468 -0.83204442 135 105 114
-0.21597186 0.30304256 -0.83057517 134 114 112
-0.21512869 0.30331793 -0.82929188 136 111 117
-0.21641025 0.30386198 -0.83131605 134 111 112
-0.21632069 0.30491504 -0.83125806 136 106 115
-0.21615243 0.30497923 -0.83100271 136 106 116
-0.21613288 0.30404383 -0.83090091 135 110 114
-0.21464279 0.30650282 -0.82883781 140 102 114
-0.21477647 0.3036522 -0.82878256 137 110 117
-0.21563908 0.30593282 -0.83030152 138 103 116
-0.21648753 0.30632448 -0.83162755 137 101 117
-0.21491605 0.3054696 -0.82915968 139 104 115
-0.21590158 0.30652916 -0.83075488 138 101 116
-0.21690522 0.30265719 -0.83206826 133 119 107
-0.21672383 0.30042931 -0.83223706 141 128 111
-0.21667838 0.30215654 -0.83177185 135 120 108
-0.21654958 0.30056089 -0.83192462 141 128 112
-0.21646847 0.30053413 -0.83180505 141 128 113
-0.21639998 0.30163097 -0.83145714 137 122 111
-0.21610299 0.30189645 -0.83093917 137 120 112
-0.21598282 0.30038548 -0.83108658 142 127 116
-0.21469823 0.29903907 -0.82877773 130 105 107
-0.21548925 0.30033049 -0.83020675 139 121 114
-0.21564259 0.30072904 -0.83047646 141 124 116
-0.21474326 0.30070761 -0.82878053 134 110 112
-0.21517618 0.30099761 -0.82958311 138 117 115
-0.21479121 0.30070728 -0.82887101 134 110 112
-0.21644758 0.2977601 -0.83218116 150 134 120
-0.21653596 0.29743817 -0.83236033 152 134 122
-0.21556933 0.29806787 -0.83053321 140 122 115
-0.21459988 0.29733187 -0.82880205 135 109 115
-0.21604525 0.29840803 -0.83138591 143 129 115
-0.21455967 0.29653436 -0.82883251 138 111 119
-0.21474926 0.29743776 -0.82906979 136 111 115
-0.21549089 0.29795703 -0.83040005 140 121 115
-0.20189318 0.33878663 -0.80507225 185 173 157
-0.20175883 0.33987731 -0.80471766 177 161 149
-0.20129539 0.33892527 -0.80424768 175 161 146
-0.20159197 0.3382065 -0.80476642 187 177 157
-0.20070483 0.33924946 -0.80368555 169 152 140
-0.20003599 0.33803308 -0.80338043 169 153 139
-0.19958155 0.33819726 -0.80302221 169 150 138
-0.20090504 0.34006441 -0.8037082 169 151 140
-0.20145091 0.33724493 -0.80486101 179 164 150
-0.20091519 0.33685663 -0.80443782 164 144 136
-0.20065638 0.33777294 -0.80388904 169 154 139
-0.19526397 0.32637995 -0.80375326 138 117 111
-0.19581172 0.32394961 -0.80466563 147 121 117
-0.19555047 0.32311234 -0.80476898 130 99 103
-0.1950513 0.32537323 -0.80387843 141 120 113
-0.19542125 0.32547313 -0.80404878 148 128 119
-0.19452025 0.32444623 -0.80381334 138 116 110
-0.19405028 0.32572123 -0.80327612 115 93 92
-0.19380553 0.32343468 -0.80367166 132 108 104
-0.19368984 0.32265091 -0.80379063 137 113 108
-0.19334607 0.32287726 -0.80355877 127 103 100
-0.19345079 0.31955081 -0.80412877 128 102 108
-0.19385771 0.32059431 -0.80416507 126 101 103
-0.19248061 0.31850126 -0.80370808 121 90 104
-0.19304492 0.31913507 -0.80396783 126 98 107
-0.19270563 0.31983131 -0.80367762 123 95 104
-0.21708734 0.3472468 -0.82454824 170 147 137
-0.21699172 0.34688789 -0.8243655 172 151 138
-0.21639681 0.34618282 -0.82350457 169 149 135
-0.21691594 0.3455855 -0.82421887 176 159 142
-0.21679267 0.34188497 -0.82448459 176 146 138
-0.21528068 0.34197307 -0.82207406 183 168 144
-0.21501197 0.34269756 -0.82155275 184 175 146
-0.21616031 0.34258404 -0.82338965 179 158 141
-0.21645927 0.34326783 -0.82377434 177 156 140
-0.21600388 0.34248614 -0.82315427 179 160 142
-0.21467158 0.34326833 -0.82115549 173 162 137
-0.21460462 0.34255359 -0.82101524 181 172 143
-0.21492583 0.34164453 -0.821576 184 172 145
-0.21627255 0.34113184 -0.82385349 177 151 140
-0.21634783 0.34081289 -0.8240605 177 149 139
-0.21540366 0.34143579 -0.82239145 182 165 143
-0.21593398 0.34038466 -0.82352138 178 154 141
-0.21507704 0.34103966 -0.82198197 183 168 145
-0.2137087 0.33926997 -0.82098252 175 158 133
-0.21556023 0.33801454 -0.82379097 175 144 137
-0.21455629 0.33931845 -0.82199138 177 158 137
-0.2150594 0.3381772 -0.82310987 174 147 135
-0.21452564 0.33964825 -0.82180768 179 161 139
-0.21490888 0.3391951 -0.82247484 178 156 139
-0.21371716 0.33911851 -0.82106006 175 157 132
-0.21292529 0.33646828 -0.82095909 179 157 144
-0.21320753 0.33598924 -0.8214615 182 162 150
-0.2129847 0.33685154 -0.82096124 176 154 138
-0.21439677 0.33460191 -0.82344347 192 175 164
-0.21310726 0.33748335 -0.82098538 171 150 128
-0.21484718 0.33532986 -0.8238253 187 169 155
-0.21500143 0.33547616 -0.82396448 187 167 155
-0.21498263 0.33430159 -0.82432973 193 179 165
-0.21519606 0.3355605 -0.82417321 187 166 155
-0.21389733 0.33684352 -0.82217044 176 155 137
-0.2155652 0.3363443 -0.82436299 183 158 150
-0.21486588 0.33646318 -0.82347351 181 158 145
-0.21285142 0.33421254 -0.82132268 196 174 178
-0.21369813 0.33333573 -0.8227306 190 171 172
-0.21385638 0.33209229 -0.82323271 175 157 160
-0.21413404 0.33172294 -0.82370865 171 153 155
-0.21411259 0.33241051 -0.82352459 179 161 161
-0.2144794 0.33301115 -0.82391018 185 169 164
-0.2130134 0.3315829 -0.82216877 180 158 165
-0.21320583 0.33161569 -0.82243019 178 156 163
-0.21343531 0.3310495 -0.822882 171 150 156
-0.21255206 0.33150208 -0.82146937 187 164 170
-0.21204233 0.33023685 -0.82093954 187 163 168
-0.21272436 0.33293903 -0.82141489 194 172 178
-0.2123588 0.33289209 -0.82079452 192 169 175
-0.21233878 0.33230737 -0.82091957 193 169 175
-0.21349776 0.32910675 -0.82367796 170 150 154
-0.21335107 0.32879901 -0.82362616 174 153 158
-0.21420252 0.3296482 -0.82439327 158 140 144
-0.2133995 0.32867742 -0.82375443 174 154 158
-0.21296389 0.32685751 -0.82407844 190 170 172
-0.21106324 0.32653955 -0.82107931 162 146 147
-0.21237415 0.32830831 -0.82238126 173 153 157
-0.21246 0.32641637 -0.82349348 186 167 169
-0.21219365 0.32778165 -0.82234681 173 154 158
-0.21278451 0.32915947 -0.82263654 174 153 159
-0.21179578 0.32673323 -0.82221329 173 155 157
-0.21239705 0.32942089 -0.82185966 171 149 155
-0.21161565 0.32856295 -0.82100445 174 153 157
-0.21202837 0.32972994 -0.82111847 181 158 164
-0.21289021 0.32612917 -0.82435209 194 175 176
-0.21157505 0.32461432 -0.82243729 166 149 144
-0.21246257 0.3246842 -0.82391733 181 162 158
-0.2126137 0.32567954 -0.82397473 188 169 168
-0.21142279 0.32594037 -0.82191843 169 153 153
-0.21213369 0.32593262 -0.8231166 181 163 163
-0.21155791 0.32521582 -0.82228929 168 151 149
-0.21131693 0.3222909 -0.82271814 176 156 148
-0.21123022 0.32372323 -0.82216787 169 151 146
-0.2103408 0.32264093 -0.82116973 177 157 154
-0.21104975 0.32545814 -0.82138968 161 145 144
-0.21089476 0.32319662 -0.82182634 172 154 149
-0.21152866 0.32422212 -0.8224628 166 149 143
-0.21072169 0.32526773 -0.82095999 163 147 146
-0.21233161 0.31961522 -0.82458687 171 146 141
-0.21232267 0.32098356 -0.82440859 172 151 140
-0.21161255 0.32003441 -0.82357407 173 151 141
-0.21206404 0.31889853 -0.82431602 171 145 141
-0.21028748 0.31893295 -0.82193542 176 153 143
-0.21098287 0.319646 -0.82277894 175 152 142
-0.21084984 0.32067835 -0.8224172 176 155 144
-0.21212906 0.32172978 -0.8240574 173 154 140
-0.21124308 0.32103109 -0.82291424 175 155 143
-0.2109877 0.32044822 -0.82267684 175 155 142
-0.21163453 0.32135701 -0.82341522 174 154 142
-0.21018657 0.32033086 -0.82151902 178 156 147
-0.21000922 0.32141787 -0.82099402 179 158 153
-0.21163954 0.31697145 -0.82396424 171 148 144
-0.21079536 0.31542596 -0.82298315 173 153 146
-0.21073011 0.314991 -0.82295603 173 155 147
-0.2103834 0.31445837 -0.8225373 174 157 148
-0.21120268 0.31696692 -0.82333392 170 146 143
-0.21140878 0.31448147 -0.8240149 176 161 149
-0.21019574 0.31816292 -0.82189596 175 151 144
-0.21118714 0.31725281 -0.8232848 171 145 143
-0.20939662 0.31721136 -0.82089251 176 153 145
-0.21114254 0.31710678 -0.82323521 170 145 143
-0.21024036 0.31738323 -0.82200938 174 150 144
-0.21094082 0.3181237 -0.82289541 173 148 143
-0.21127746 0.31756654 -0.82338399 171 146 143
-0.21041477 0.31216422 -0.82269472 163 142 139
-0.20905 0.31314754 -0.82091159 171 146 144
-0.20917772 0.3106637 -0.82152253 170 139 141
-0.21022128 0.31165779 -0.82256186 164 141 139
-0.21009648 0.311726 -0.82240283 165 141 140
-0.21045205 0.31220669 -0.82272619 163 142 139
-0.20986858 0.31420162 -0.82179689 172 152 146
-0.21173647 0.3119635 -0.82451659 163 146 139
-0.2103546 0.31360143 -0.82250476 169 151 144
-0.20965157 0.31415582 -0.82148385 171 151 146
-0.20978349 0.3139793 -0.82167614 170 150 145
-0.21149457 0.31204137 -0.82416642 163 145 139
-0.20895055 0.31086808 -0.82120842 171 139 142
-0.20942615 0.31050089 -0.82183212 169 137 140
-0.21070591 0.30940527 -0.82325178 152 119 127
-0.21151209 0.31050542 -0.82427883 157 136 134
-0.2114816 0.31003132 -0.8242079 153 128 130
-0.21174313 0.30915096 -0.8244493 144 114 121
-0.21179569 0.30797049 -0.82442343 134 95 111
-0.20954438 0.30712011 -0.82168722 156 125 129
-0.21099272 0.30731228 -0.82342488 137 95 112
-0.21027584 0.30693957 -0.82254082 146 110 120
-0.20959872 0.30971617 -0.82197577 161 125 133
-0.2096837 0.30722484 -0.8218618 154 122 127
-0.20918214 0.30887946 -0.82140857 165 134 136
-0.21182038 0.30683026 -0.82436675 125 78 101
-0.20876981 0.306725 -0.8207078 167 143 139
-0.21104841 0.30617106 -0.82333928 131 89 107
-0.20981853 0.30578142 -0.82180011 145 110 119
-0.2104629 0.30663425 -0.82273597 143 106 117
-0.21012059 0.30616659 -0.82223594 144 108 118
-0.21054818 0.3050454 -0.82252026 129 87 105
-0.21110149 0.30575925 -0.82332021 127 83 104
-0.20948114 0.30332536 -0.82090908 130 90 107
-0.21074378 0.30443364 -0.82268387 124 80 101
-0.21019657 0.30318999 -0.8218658 124 84 103
-0.21158618 0.30547681 -0.82393175 122 77 100
-0.2117331 0.3027958 -0.82411182 117 87 102
-0.21194796 0.30528298 -0.82445925 120 78 100
-0.21181124 0.3035838 -0.82423663 118 84 101
-0.21044597 0.30362889 -0.82223696 124 82 102
-0.21098086 0.29943839 -0.82300943 136 103 112
-0.21091235 0.30040014 -0.82289517 132 100 112
-0.21158963 0.3012988 -0.82390076 124 94 106
-0.2104881 0.29989195 -0.82226455 136 103 115
-0.21192674 0.29936391 -0.82442963 131 100 107
-0.21151735 0.29982641 -0.8238098 131 100 108
-0.21158054 0.30128667 -0.82388729 124 94 106
-0.20953819 0.3014836 -0.82088023 132 93 109
-0.20980951 0.30163068 -0.82127953 131 92 109
-0.21051335 0.30181307 -0.82231289 127 92 107
-0.21116672 0.30191416 -0.82327133 123 92 106
-0.20993847 0.30075833 -0.82145798 134 98 113
-0.21040845 0.30250362 -0.82216746 124 87 104
-0.21017639 0.30269623 -0.8218298 124 86 103
-0.21163364 0.29832 -0.82405084 138 107 113
-0.21122345 0.29873118 -0.82339114 138 105 112
-0.22045198 0.3384302 -0.8325066 171 150 141
-0.21789134 0.33425128 -0.83248973 193 172 172
-0.21701953 0.33610666 -0.8324855 181 166 151
-0.2161134 0.33431774 -0.83249676 186 164 167
-0.21207929 0.3350924 -0.83435041 158 137 142
-0.21191521 0.33433101 -0.8335309 156 137 140
-0.21215734 0.33427063 -0.83483106 170 152 157
-0.2173554 0.33208787 -0.83258879 195 172 176
-0.21727754 0.33346555 -0.83270985 194 171 175
-0.21732752 0.33141062 -0.83255512 195 172 176
-0.21748069 0.3303808 -0.83246517 198 177 179
-0.21544485 0.33024633 -0.83249539 201 180 184
-0.2167453 0.33252892 -0.83280545 194 170 176
-0.2155984 0.3300969 -0.83250332 200 179 184
-0.21533291 0.33138129 -0.83247191 198 177 182
-0.21209718 0.33012578 -0.83548576 172 153 157
-0.21234563 0.33013606 -0.83420908 186 167 172
-0.21246457 0.33138853 -0.83443117 192 174 180
-0.21205227 0.3302606 -0.83580786 169 150 154
-0.2122899 0.33076146 -0.83491474 182 164 169
-0.21189664 0.33351877 -0.83283299 159 141 142
-0.21247329 0.33150905 -0.83321768 192 175 180
-0.2122992 0.33296788 -0.83424658 181 165 169
-0.2124466 0.33296037 -0.83502525 190 173 179
-0.21198277 0.33367598 -0.83350509 163 146 148
-0.21236326 0.33398178 -0.83595186 185 168 175
-0.21716709 0.32944191 -0.83273059 198 176 179
-0.21777621 0.32703716 -0.83291215 195 176 175
-0.21785742 0.32714525 -0.83282971 195 176 174
-0.21775529 0.32622173 -0.83309698 194 176 173
-0.21298066 0.32841429 -0.83261102 190 172 179
-0.21359223 0.32787684 -0.83276695 182 164 171
-0.21322052 0.32848319 -0.83261979 190 172 178
-0.2138927 0.32883289 -0.83261496 191 172 178
-0.21456815 0.32854691 -0.83272952 186 166 173
-0.21563156 0.32723725 -0.83325976 189 169 173
-0.2162907 0.3264491 -0.83363008 195 177 177
-0.21667232 0.32805625 -0.83322525 196 176 177
-0.21672797 0.32767031 -0.83335245 197 177 178
-0.2149878 0.32814142 -0.83285779 182 161 169
-0.21621162 0.32927525 -0.832766 191 168 174
-0.21281555 0.32876799 -0.83258438 193 175 182
-0.211294 0.32650062 -0.83579439 178 152 161
-0.21212219 0.32837957 -0.83384782 192 171 178
-0.21225135 0.32755008 -0.83382326 183 163 171
-0.21125293 0.32631493 -0.8359139 177 150 160
-0.2122604 0.32845384 -0.83358246 192 171 179
-0.2114227 0.32735276 -0.83574128 179 153 162
-0.21188717 0.32960141 -0.83597976 168 147 152
-0.21205194 0.32897609 -0.83439487 187 166 173
-0.21201454 0.32902482 -0.83464521 184 164 170
-0.21145359 0.32790461 -0.83622921 171 147 154
-0.21199405 0.32896546 -0.83468139 184 163 169
-0.22084871 0.32496899 -0.83622843 180 162 160
-0.22077419 0.32246596 -0.83607662 163 141 139
-0.21692237 0.32465369 -0.83417255 192 174 168
-0.21814948 0.32325324 -0.83292395 179 159 156
-0.21778113 0.3238335 -0.83324248 183 165 161
-0.21695352 0.32284966 -0.83476341 185 165 155
-0.21792531 0.32594711 -0.83298439 192 174 171
-0.21866263 0.32473907 -0.83245426 183 163 160
-0.21784803 0.3245607 -0.83305883 186 168 165
-0.22052045 0.32276952 -0.83589387 166 144 141
-0.22037138 0.32484472 -0.8361547 180 162 160
-0.22040017 0.32534558 -0.83613861 182 166 164
-0.21346918 0.32374817 -0.83439666 181 161 163
-0.21324581 0.32498342 -0.83369553 174 155 161
-0.21440904 0.32350248 -0.83452237 180 161 159
-0.21334836 0.324994 -0.8336879 174 155 160
-0.21301687 0.32467717 -0.83387375 176 157 163
-0.21312165 0.32281414 -0.83493483 187 167 167
-0.21462269 0.32487714 -0.83383042 176 158 159
-0.21659918 0.32390374 -0.83457434 189 170 162
-0.21638899 0.32595921 -0.83380806 195 178 176
-0.21605985 0.32399654 -0.83443218 185 166 160
-0.21493642 0.32423052 -0.8341217 176 157 156
-0.21652959 0.3260332 -0.83381057 197 180 177
-0.212203 0.32332858 -0.83602345 188 166 167
-0.21252897 0.3257468 -0.83391231 172 152 160
-0.2113221 0.32599792 -0.83592516 176 150 159
-0.21204695 0.32515338 -0.83511192 178 155 162
-0.21262591 0.32497722 -0.83417809 176 156 162
-0.21265209 0.32499734 -0.83411986 176 156 162
-0.22077531 0.32147035 -0.83616388 158 136 135
-0.21974085 0.32030493 -0.83607399 156 134 134
-0.21964991 0.3199968 -0.83611816 155 133 133
-0.21912053 0.31972718 -0.83619797 156 134 134
-0.21859507 0.31968483 -0.83625096 159 136 135
-0.22008725 0.31907311 -0.8361854 149 127 129
-0.21929069 0.31984568 -0.83616859 156 134 134
-0.21851495 0.32152778 -0.8362906 169 146 141
-0.21761096 0.31900689 -0.83411944 169 149 144
-0.21870697 0.31867409 -0.83463556 160 140 137
-0.21791676 0.31913811 -0.83475357 166 145 141
-0.21921429 0.31899592 -0.83591533 154 132 132
-0.21971135 0.31843483 -0.83525229 152 131 131
-0.21791771 0.31884637 -0.83411652 167 147 142
-0.21968289 0.31853083 -0.83542997 151 131 131
-0.21785924 0.32196298 -0.83387202 174 154 148
-0.21703735 0.32142875 -0.83537096 176 155 147
-0.21732628 0.32015866 -0.83444482 172 150 146
-0.21703805 0.32009679 -0.83524269 171 149 145
-0.21817075 0.32065198 -0.83243853 172 153 148
-0.21753624 0.31898233 -0.83256751 174 155 148
-0.21792583 0.32091832 -0.83345491 171 151 147
-0.21808474 0.32155138 -0.83365065 171 150 146
-0.21496183 0.32083306 -0.83579916 189 168 162
-0.21487209 0.32047421 -0.83600867 187 165 161
-0.21610503 0.32048374 -0.83619326 177 154 150
-0.2150296 0.32218269 -0.8352502 187 167 160
-0.21570526 0.32176828 -0.83539945 187 166 157
-0.21314138 0.32091138 -0.83576882 193 172 171
-0.21458203 0.32156888 -0.83549345 189 168 163
-0.21285452 0.32147145 -0.83565164 193 172 171
-0.21981393 0.31832618 -0.83520919 151 131 131
-0.2175816 0.31665769 -0.833 167 157 141
-0.21756031 0.31713051 -0.83288383 169 156 143
-0.21803223 0.31825396 -0.83320093 168 149 143
-0.21784231 0.31674945 -0.83327806 165 154 139
-0.21899407 0.31667963 -0.83485454 154 142 131
-0.21766815 0.31540054 -0.83377039 163 159 136
-0.21856405 0.31647208 -0.8342343 157 147 133
-0.21836841 0.31563145 -0.83529788 160 150 134
-0.21808852 0.31506634 -0.83596438 163 154 135
-0.21788017 0.31501243 -0.83538592 164 156 136
-0.22015272 0.3174544 -0.83626306 147 128 127
-0.21703522 0.3145721 -0.83368993 168 167 138
-0.21704873 0.31393734 -0.83392888 167 164 137
-0.21735582 0.31294325 -0.83471012 163 156 135
-0.21776854 0.31183094 -0.83582848 159 147 132
-0.2169628 0.31443864 -0.83377856 168 167 138
-0.21711905 0.3139759 -0.83418918 167 164 137
-0.21729743 0.312307 -0.83449554 157 149 131
-0.21704499 0.31232738 -0.83387613 153 143 127
-0.21742114 0.31129068 -0.83483291 150 136 126
-0.21734241 0.31129941 -0.83463961 149 134 124
-0.21726808 0.31100446 -0.83446735 144 128 121
-0.21669526 0.31184047 -0.83289075 142 128 119
-0.21671887 0.31374595 -0.83267158 161 159 133
-0.21679941 0.309461 -0.83291805 131 106 112
-0.2175495 0.30938774 -0.83479947 146 123 124
-0.21723734 0.30822676 -0.8336609 141 112 121
-0.2173949 0.31006721 -0.83463913 143 122 120
-0.21707064 0.30865303 -0.83338946 137 110 118
-0.21776535 0.30788469 -0.83473229 147 114 125
-0.21825027 0.30803502 -0.83586538 153 118 129
-0.21783638 0.30912551 -0.83536935 150 125 127
-0.21799274 0.30715227 -0.83495337 149 109 126
-0.21729623 0.30721849 -0.83343488 141 106 121
-0.21795288 0.30672541 -0.83469999 148 105 125
-0.21807021 0.30416012 -0.83514225 144 112 119
-0.21768416 0.3034735 -0.83411968 140 116 114
-0.2180874 0.30410591 -0.83521825 144 112 118
-0.21841696 0.30534115 -0.83585793 150 110 124
-0.21818769 0.30342558 -0.83579242 142 110 117
-0.21704112 0.30462033 -0.83247763 136 111 113
-0.21734726 0.30626246 -0.83329326 141 104 120
-0.21758872 0.30612251 -0.83381683 143 106 121
-0.21729307 0.30635446 -0.83318079 140 103 120
-0.21704169 0.30518988 -0.83252639 136 108 115
-0.21841657 0.30603582 -0.83564478 152 110 127
-0.21741059 0.29886553 -0.8357265 131 106 104
-0.21696368 0.29937646 -0.83370036 138 121 108
-0.21692972 0.30034402 -0.832941 138 124 108
-0.21694385 0.30056101 -0.83289325 138 124 108
-0.2170168 0.30153167 -0.83272016 136 122 108
-0.2173769 0.29945084 -0.83523691 131 108 104
-0.21724655 0.30253774 -0.83306372 135 119 109
-0.21772605 0.30208871 -0.83490831 136 112 110
-0.21788159 0.30165476 -0.83567864 136 108 110
-0.21772094 0.30250511 -0.83464295 137 114 111
-0.21762258 0.30200547 -0.83461779 136 113 110
-0.21708889 0.29810256 -0.83477038 135 111 109
-0.21704634 0.29682171 -0.83497411 135 103 112
-0.21698715 0.29782608 -0.83447254 137 112 110
-0.21698552 0.29848978 -0.83427954 137 117 109
-0.21700586 0.29604924 -0.83503813 136 98 114
-0.21717869 0.29543537 -0.83585268 132 88 114
-0.21700938 0.29617736 -0.83501565 136 99 114
-0.21674719 0.29522866 -0.8341561 145 103 121
-0.21675935 0.29645517 -0.83389646 144 111 117
-0.21665245 0.29788586 -0.83282024 148 131 118
-0.21724339 0.29469535 -0.83610326 132 83 115
-0.21746753 0.29371232 -0.83602333 138 92 118
-0.21740118 0.29342258 -0.83564156 141 94 119
-0.21678016 0.29425618 -0.83406383 146 101 122
-0.20734566 0.34423131 -0.81190401 149 132 121
-0.20694171 0.34300232 -0.81134522 159 134 131
-0.20699222 0.34405831 -0.81137782 153 136 124
-0.20731176 0.34224489 -0.81193501 159 126 133
-0.20751736 0.34321994 -0.81220496 153 127 126
-0.20756766 0.34184042 -0.81233788 159 122 134
-0.20683134 0.34398568 -0.8111369 154 137 125
-0.20688727 0.34408289 -0.81121683 153 136 124
-0.2066648 0.33905905 -0.81102413 182 162 148
-0.20539102 0.33856362 -0.80935532 179 156 150
-0.20617044 0.33981839 -0.81028581 180 158 148
-0.20714934 0.33858958 -0.81172162 183 165 148
-0.20656234 0.33890587 -0.81090069 181 161 148
-0.2069353 0.33897242 -0.81139678 182 163 148
-0.20690814 0.34060577 -0.81132829 174 147 143
-0.20686226 0.34138161 -0.81126958 169 137 140
-0.20775905 0.33843344 -0.81258303 182 165 147
-0.20675291 0.34136057 -0.81110424 170 138 141
-0.20582637 0.34143305 -0.80970699 177 150 146
-0.20779318 0.34165546 -0.8126781 159 120 134
-0.20734468 0.34179646 -0.8120032 162 124 136
-0.20726292 0.33698374 -0.81214887 188 171 158
-0.20736316 0.33528364 -0.81267393 199 181 176
-0.20652926 0.33695832 -0.81116593 187 168 159
-0.207367 0.33555955 -0.81261581 197 179 173
-0.20729129 0.33673176 -0.81224489 190 173 161
-0.20585614 0.33776617 -0.81007344 181 161 152
-0.20673777 0.33682978 -0.81147641 188 170 160
-0.20605603 0.33425826 -0.81129396 198 176 179
-0.20549329 0.33666614 -0.80987459 186 164 162
-0.20530772 0.33703333 -0.80953711 183 161 158
-0.20598193 0.33409187 -0.81125486 198 175 180
-0.20475113 0.33517882 -0.80948097 187 163 165
-0.20459238 0.33603799 -0.8090508 183 160 159
-0.20645347 0.33161187 -0.81248134 155 130 139
-0.20681277 0.33214051 -0.81277889 168 145 151
-0.20664747 0.33132613 -0.81279165 151 126 135
-0.20585684 0.33212551 -0.8116228 161 136 144
-0.2060921 0.33179143 -0.8119958 156 131 140
-0.20577584 0.33029073 -0.81188875 145 119 124
-0.20595306 0.33143276 -0.81191576 149 123 133
-0.20517117 0.33271804 -0.8105678 180 155 160
-0.20408534 0.33153671 -0.80956888 181 144 157
-0.20420933 0.33010349 -0.80998445 169 134 141
-0.20480321 0.33128816 -0.81041098 173 146 149
-0.20388786 0.33134636 -0.80938751 181 142 157
-0.20387909 0.33221903 -0.80922866 183 149 160
-0.20477572 0.33380881 -0.80990225 191 165 172
-0.20414011 0.33356971 -0.80927306 187 161 167
-0.20528071 0.32959738 -0.81142735 156 130 131
-0.20571212 0.32914451 -0.81221485 144 115 125
-0.20586155 0.32820275 -0.81280231 140 107 124
-0.20409261 0.32758823 -0.81075495 170 141 147
-0.2049318 0.32821134 -0.81154281 159 128 137
-0.2046648 0.3288765 -0.81093359 165 138 139
-0.20409569 0.32770252 -0.81071132 170 141 147
-0.20414038 0.32852337 -0.81042618 172 146 146
-0.20466889 0.32741347 -0.81154627 161 128 141
-0.20342484 0.32833827 -0.8096633 179 150 153
-0.20379314 0.3299211 -0.80957806 172 134 145
-0.20431696 0.3296982 -0.81022662 168 138 141
-0.20302486 0.32778823 -0.80939215 184 155 158
-0.20462525 0.32380366 -0.81288362 159 127 136
-0.2045784 0.32472533 -0.81248325 159 126 139
-0.20428275 0.32481283 -0.81208217 163 131 143
-0.20476137 0.32612258 -0.81219542 156 118 141
-0.2031918 0.32566234 -0.81040788 180 151 157
-0.2032003 0.32493642 -0.81068659 179 153 155
-0.20475154 0.32570755 -0.81233639 156 119 140
-0.204042 0.32332736 -0.81233066 167 140 142
-0.20341553 0.322873 -0.81160545 164 140 140
-0.20227458 0.32379445 -0.80967635 165 138 145
-0.20293921 0.32451937 -0.81049103 181 156 156
-0.20316419 0.32253867 -0.81131214 158 132 136
-0.2019783 0.32228184 -0.80960459 142 115 128
-0.20184954 0.32349035 -0.80911624 156 129 140
-0.20254707 0.31891468 -0.8112607 141 115 119
-0.20172879 0.32153088 -0.80942094 137 110 123
-0.20238841 0.31999183 -0.81073916 144 118 125
-0.20173949 0.32081339 -0.80964446 134 105 118
-0.20300743 0.32206112 -0.81118536 153 127 132
-0.20359726 0.32115513 -0.81224489 160 136 135
-0.20221044 0.32175782 -0.81005543 145 118 129
-0.20356993 0.31910241 -0.81260967 162 139 136
-0.20358863 0.32003278 -0.81245381 161 138 136
-0.20304535 0.32212359 -0.81122965 153 127 132
-0.20329779 0.32105115 -0.81181842 157 132 134
-0.20212269 0.31667474 -0.81112206 138 111 117
-0.20265068 0.316441 -0.81185633 151 126 129
-0.20309931 0.31604311 -0.81251127 163 141 141
-0.20296608 0.31491038 -0.81251186 167 144 146
-0.20302634 0.31546959 -0.81250423 165 142 143
-0.20271236 0.31483558 -0.81212765 158 134 139
-0.2027947 0.31432211 -0.81226784 161 136 143
-0.20302196 0.3143988 -0.8126182 168 146 149
-0.20193389 0.31055763 -0.81123668 154 115 129
-0.20302582 0.30949873 -0.81258589 162 132 140
-0.20257206 0.31050733 -0.81202465 163 129 139
-0.2017232 0.30996808 -0.81097943 147 108 122
-0.20315738 0.30940521 -0.81274819 164 134 141
-0.20206416 0.30838886 -0.81134617 142 107 120
-0.20289512 0.3045314 -0.81218636 148 122 127
-0.20323536 0.3056803 -0.81276745 149 123 127
-0.20286688 0.30318964 -0.81203973 148 123 126
-0.20285469 0.30007654 -0.81187916 142 111 119
-0.20333076 0.3020187 -0.81264627 155 132 132
-0.20309044 0.30230194 -0.81230962 150 127 127
-0.2033506 0.29885045 -0.81261289 152 121 129
-0.2177013 0.3459501 -0.82564902 176 157 145
-0.21818322 0.34701392 -0.8268134 170 152 140
-0.2182119 0.34810314 -0.82720423 164 149 132
-0.21832161 0.34627628 -0.82682079 175 153 146
-0.21760611 0.3463245 -0.82560223 174 157 141
-0.21804333 0.34815586 -0.82687646 164 148 131
-0.2174844 0.3472524 -0.82549065 169 150 136
-0.21778001 0.34823456 -0.82624143 164 145 131
-0.21918011 0.34276831 -0.82848161 179 158 151
-0.21832852 0.3423965 -0.82706457 178 153 146
-0.2189866 0.34220186 -0.82821852 178 158 149
-0.21931738 0.3446773 -0.828484 179 152 156
-0.21842241 0.34316996 -0.82713127 178 151 148
-0.21794321 0.34319434 -0.82630533 177 148 146
-0.21860076 0.34518063 -0.82718861 178 151 152
-0.21743929 0.34449336 -0.8252731 177 154 144
-0.21769069 0.34360793 -0.82581872 177 149 145
-0.21733543 0.34361354 -0.82520545 176 151 142
-0.21828911 0.34530747 -0.82663518 178 153 150
-0.21791017 0.34358093 -0.82620054 177 148 146
-0.21695998 0.33930597 -0.82557529 178 151 144
-0.21714196 0.33948359 -0.82593238 179 153 146
-0.21720999 0.33797199 -0.82653034 180 156 150
-0.21754867 0.33874902 -0.82706362 182 160 153
-0.21780562 0.34034058 -0.82691157 180 158 149
-0.21718083 0.34087923 -0.82559013 178 151 144
-0.21721676 0.34123945 -0.82548565 177 150 142
-0.21761663 0.34130365 -0.82614279 178 153 144
-0.21761845 0.34100741 -0.82628256 178 154 145
-0.21732664 0.34087604 -0.82584202 178 152 144
-0.21652518 0.33807665 -0.82511687 176 147 142
-0.21659997 0.34017006 -0.82462549 176 145 138
-0.21768591 0.33418566 -0.82842714 191 169 168
-0.2174059 0.3366572 -0.82726204 184 161 157
-0.21781844 0.33520105 -0.82850546 190 169 167
-0.21772447 0.33561847 -0.82820374 188 167 164
-0.21736112 0.3348017 -0.8276422 189 167 163
-0.21701105 0.33465311 -0.82708353 192 172 163
-0.21686062 0.33497536 -0.82671392 191 171 161
-0.21679522 0.33642706 -0.82611376 185 161 153
-0.21639998 0.3348307 -0.82609904 192 173 162
-0.21590503 0.33493397 -0.82537508 191 173 162
-0.21588229 0.33528727 -0.82522488 190 171 160
-0.21582119 0.33622205 -0.82475388 184 160 153
-0.21704993 0.33162844 -0.82820582 199 179 177
-0.21685176 0.33363411 -0.82715452 197 178 168
-0.215636 0.33198875 -0.82575893 174 156 152
-0.21658075 0.33352593 -0.82674617 192 174 164
-0.21610878 0.33131871 -0.82674348 185 166 165
-0.21659377 0.33280978 -0.82701111 194 175 168
-0.21580043 0.33142743 -0.82621318 178 160 158
-0.21573965 0.33196625 -0.82593232 176 158 154
-0.21599106 0.33340484 -0.82594085 190 173 163
-0.21635698 0.33395776 -0.82632899 196 179 167
-0.21539639 0.33315352 -0.82516789 186 171 162
-0.21621913 0.33340904 -0.82625753 190 172 163
-0.21623293 0.32796395 -0.82787091 190 172 169
-0.21606541 0.32892144 -0.82737374 186 168 167
-0.21618353 0.32688954 -0.82804912 188 172 167
-0.21598373 0.32866609 -0.82730424 184 166 165
-0.2161162 0.32707995 -0.82789588 187 170 166
-0.21632248 0.32814884 -0.82796991 192 174 171
-0.21602356 0.32671139 -0.82787085 187 171 165
-0.21416363 0.32747981 -0.8253057 179 161 162
-0.21517073 0.32701916 -0.82671374 184 167 164
-0.21436729 0.32754964 -0.82552063 178 161 161
-0.21544267 0.32802847 -0.82660824 173 157 155
-0.21587929 0.32619336 -0.82791936 192 176 170
-0.21419799 0.32863086 -0.8248539 167 149 152
-0.21331023 0.32367867 -0.82540375 180 160 152
-0.21391451 0.32239529 -0.82641214 174 154 141
-0.21421711 0.32331216 -0.82657659 182 163 153
-0.21352026 0.32268822 -0.82587308 174 154 142
-0.21342547 0.32391196 -0.82549167 182 163 155
-0.21330673 0.32528996 -0.82503831 189 171 168
-0.21344051 0.32504404 -0.82525474 189 170 166
-0.21606614 0.32501477 -0.82841343 189 173 163
-0.21427272 0.32452959 -0.82636666 188 170 163
-0.21516357 0.32572404 -0.82716888 192 174 169
-0.21436653 0.32427365 -0.82653701 188 169 162
-0.21417432 0.32476872 -0.82619452 189 171 165
-0.21395716 0.32536805 -0.82579869 191 172 169
-0.21534334 0.32546866 -0.82744241 191 174 167
-0.21283448 0.32377616 -0.82476532 179 160 152
-0.2150645 0.32110757 -0.82810372 163 142 133
-0.21392463 0.32097098 -0.82676291 155 133 126
-0.21434256 0.32157105 -0.82712275 166 145 135
-0.21373519 0.32193643 -0.82630324 168 147 135
-0.21458192 0.32216564 -0.82726866 175 156 142
-0.21488768 0.32082587 -0.82795817 158 137 130
-0.21330145 0.31991032 -0.82621551 154 130 126
-0.21334432 0.32032371 -0.82618451 155 131 126
-0.21342595 0.32112455 -0.82612252 156 134 126
-0.21333456 0.32098967 -0.82603431 157 135 127
-0.21249416 0.31892097 -0.82504952 166 140 137
-0.21285817 0.32061672 -0.82547784 164 140 133
-0.21274064 0.32143945 -0.82505798 169 147 136
-0.21374816 0.31656504 -0.82762414 157 139 131
-0.21378559 0.31821626 -0.82719266 143 117 119
-0.21408601 0.31760672 -0.8277511 143 120 119
-0.21405572 0.31549767 -0.82832438 161 148 135
-0.21357861 0.31554738 -0.8276909 167 153 139
-0.2129842 0.3171972 -0.82643664 160 139 132
-0.21264863 0.31496421 -0.82632381 169 159 139
-0.21240278 0.31485453 -0.8258065 171 160 142
-0.21195503 0.31461811 -0.82487363 175 162 148
-0.21257237 0.31476292 -0.82620502 170 161 140
-0.21240489 0.31766802 -0.82513255 166 141 138
-0.21217054 0.31627545 -0.8249492 170 150 143
-0.21219884 0.31607425 -0.82505572 169 150 142
-0.21324784 0.31421062 -0.82747412 169 162 139
-0.21347398 0.31434354 -0.827806 170 162 141
-0.21387392 0.31295091 -0.82825762 169 155 140
-0.21335512 0.31302002 -0.82752711 168 155 137
-0.21303216 0.31336737 -0.82709539 167 157 137
-0.21325591 0.31314409 -0.82739604 168 156 137
-0.21240953 0.31253278 -0.82592839 163 150 135
-0.21281528 0.31261268 -0.82668746 166 153 135
-0.21285637 0.31324315 -0.82681847 167 157 136
-0.21250689 0.31392178 -0.82614499 168 160 140
-0.21207465 0.31205291 -0.8252151 162 147 137
-0.2118137 0.31312299 -0.82462126 169 154 144
-0.21237405 0.31265777 -0.82586938 163 151 136
-0.21347658 0.30982402 -0.82742572 160 134 130
-0.21360157 0.30886453 -0.82752514 154 124 124
-0.21408898 0.31020519 -0.8283332 164 138 134
-0.21319431 0.30972499 -0.82701242 158 133 128
-0.21304177 0.30810145 -0.82660282 140 102 113
-0.21395893 0.30681953 -0.82783854 137 96 111
-0.21310446 0.3093524 -0.82683599 154 125 124
-0.21238565 0.30775985 -0.82538748 134 93 108
-0.21224186 0.30721486 -0.82505637 128 84 103
-0.21279822 0.30777213 -0.82616514 135 94 108
-0.21197695 0.30971703 -0.8248564 149 124 126
-0.21199945 0.30990753 -0.82492042 151 127 128
-0.21198367 0.30833298 -0.82470661 137 101 114
-0.21406886 0.30608302 -0.82793385 136 96 110
-0.2141002 0.30512258 -0.82789493 134 98 111
-0.21352319 0.30551946 -0.82706344 129 88 105
-0.21376765 0.30499279 -0.82738358 130 93 108
-0.21347415 0.30498797 -0.82694954 127 88 105
-0.21357583 0.30274203 -0.8269425 124 98 109
-0.21344925 0.30491605 -0.82690829 127 88 105
-0.21311609 0.30577502 -0.82648218 124 81 101
-0.21313667 0.30596232 -0.82652509 125 80 101
-0.21254362 0.30347311 -0.82542813 117 85 102
-0.21265909 0.3040401 -0.82565582 119 84 101
-0.21269749 0.30392566 -0.82571054 118 84 102
-0.21221898 0.30491742 -0.82492048 119 80 100
-0.21259442 0.30625144 -0.82564938 122 76 99
-0.21217194 0.30384052 -0.82481378 117 84 101
-0.21426789 0.30265155 -0.82795358 132 107 114
-0.2143762 0.30176213 -0.82814527 132 107 112
-0.21432139 0.29948977 -0.82815188 127 101 106
-0.21429618 0.29980248 -0.82810324 127 101 106
-0.21379815 0.30201241 -0.8272934 126 99 109
-0.21355578 0.29975319 -0.82703978 122 96 101
-0.21384728 0.30032647 -0.82743067 123 97 104
-0.21294308 0.30016208 -0.82614118 118 92 98
-0.21420006 0.29897839 -0.82800102 126 100 104
-0.21224189 0.29948217 -0.82493591 129 99 105
-0.2125109 0.29900065 -0.82544076 124 97 100
-0.21245474 0.30081066 -0.82525688 124 95 105
-0.21210119 0.30082458 -0.82467973 124 94 104
-0.21422803 0.29568678 -0.82836676 138 110 123
-0.21407759 0.29847178 -0.82786858 127 101 105
-0.21301556 0.29877588 -0.82631397 119 94 96
-0.21308108 0.29831779 -0.8264544 121 96 99
-0.21317771 0.29692593 -0.82678545 124 95 106
-0.21308956 0.29519355 -0.82692742 125 88 113
-0.21307403 0.29524264 -0.82689995 125 88 113
-0.21329868 0.29595363 -0.82708716 127 95 112
-0.21276373 0.29802248 -0.82602322 122 94 101
-0.21267799 0.29629362 -0.82612717 126 92 111
-0.21250986 0.29692307 -0.82573521 129 97 111
-0.21219432 0.29853082 -0.82492727 131 100 106
-0.21246038 0.29874173 -0.82537168 125 98 101
-0.21219766 0.29836163 -0.82495904 131 101 107
-0.21364295 0.2937023 -0.82767075 144 109 129
-0.2138814 0.29382235 -0.8279832 146 113 131
-0.21306071 0.29305741 -0.82688779 139 102 122
-0.2126589 0.29385376 -0.82624829 131 94 115
-0.21243522 0.29324746 -0.82581496 136 100 117
-0.21262507 0.29274434 -0.82615697 139 103 119
-0.21269163 0.29434061 -0.82632542 128 90 115
-0.2130646 0.33283523 -0.84196037 209 201 193
-0.21340127 0.33359292 -0.841582 189 176 171
-0.21293296 0.33265722 -0.84224164 218 213 203
-0.21322174 0.3320539 -0.84050506 189 169 175
-0.21315552 0.3199465 -0.84389496 154 90 129
-0.21296559 0.32093358 -0.84261924 174 128 147
-0.21297513 0.32204872 -0.84055555 191 175 167
-0.21368468 0.31965947 -0.84215349 149 110 132
-0.21360487 0.31980157 -0.84135431 163 132 144
-0.21363573 0.31954473 -0.84081233 171 144 151
-0.21399157 0.31872723 -0.84360075 120 63 108
-0.21401222 0.31848332 -0.84293461 129 79 116
-0.2133375 0.32074627 -0.84065187 180 159 158
-0.21378186 0.31683901 -0.84075713 190 170 168
-0.2138133 0.31639919 -0.84101754 195 176 173
-0.21384025 0.31582615 -0.84133226 202 184 179
-0.21395124 0.31642663 -0.84124672 196 176 174
-0.21417823 0.31703758 -0.84135979 190 168 171
-0.21369725 0.3153635 -0.84129727 206 191 182
-0.2144096 0.31693634 -0.84321469 166 128 151
-0.214138 0.3182255 -0.84403616 114 54 104
-0.21400434 0.31817362 -0.84146988 158 124 142
-0.21467142 0.31581676 -0.84295547 204 181 186
-0.2142276 0.31783897 -0.84393317 127 72 116
-0.21389967 0.31237537 -0.84024197 188 169 163
-0.21472065 0.31257731 -0.84186268 196 174 175
-0.21474071 0.31068653 -0.84023577 169 143 149
-0.21458 0.31130588 -0.84049571 177 152 155
-0.21449107 0.31431317 -0.84298229 219 202 197
-0.21452846 0.31236914 -0.84133929 192 170 170
-0.21387352 0.31369761 -0.84134763 207 190 181
-0.21484269 0.31113192 -0.84137756 168 145 150
-0.21484622 0.3115294 -0.84387386 144 130 133
-0.21484715 0.31153244 -0.84381372 145 130 134
-0.21490024 0.31207877 -0.84296101 173 154 157
-0.21487454 0.31186631 -0.84374207 155 140 143
-0.21507291 0.30822745 -0.84260792 148 132 130
-0.21522127 0.30705947 -0.84193951 168 150 145
-0.21527879 0.30711433 -0.84097111 159 135 133
-0.21492141 0.30936339 -0.84336966 130 117 118
-0.21508113 0.30834863 -0.84231132 144 125 125
-0.21508524 0.30730921 -0.84369981 176 168 159
-0.21498096 0.30923584 -0.84165633 146 124 127
-0.21511598 0.30839583 -0.8403613 163 136 138
-0.21495743 0.30947715 -0.84067339 160 135 139
-0.21502803 0.30895737 -0.84102082 155 130 133
-0.21500999 0.30909881 -0.84082335 158 133 136
-0.2151916 0.30482858 -0.84364092 179 165 161
-0.21543187 0.30457702 -0.84231871 164 150 146
-0.21550381 0.30335832 -0.84186381 153 132 134
-0.21521893 0.3030321 -0.84339923 168 143 148
-0.21556917 0.30307552 -0.84149313 148 125 128
-0.21527559 0.30429527 -0.84315574 172 155 153
-0.21519747 0.30630732 -0.84345996 186 178 167
