ply
format ascii 1.0
comment PCL generated
element vertex 197
property float x
property float y
property float z
property uchar red
property uchar green
property uchar blue
element camera 1
property float view_px
property float view_py
property float view_pz
property float x_axisx
property float x_axisy
property float x_axisz
property float y_axisx
property float y_axisy
property float y_axisz
property float z_axisx
property float z_axisy
property float z_axisz
property float focal
property float scalex
property float scaley
property float centerx
property float centery
property int viewportx
property int viewporty
property float k1
property float k2
end_header
-0.32224774 -0.33302137 -0.83640361 0 0 0
-0.32226399 -0.33512759 -0.83660042 0 0 0
-0.32180569 -0.3342298 -0.83641982 0 0 0
-0.30783767 -0.33294964 -0.83144492 95 85 85
-0.30878407 -0.3322632 -0.83166832 101 90 79
-0.30813071 -0.33369845 -0.83163333 99 91 90
-0.30703294 -0.33237576 -0.83114755 96 86 93
-0.30691636 -0.33133948 -0.83101541 100 91 97
-0.30768961 -0.33170062 -0.8312785 99 89 88
-0.30859032 -0.33194473 -0.8315683 99 88 77
-0.30737841 -0.33134079 -0.83115244 100 91 92
-0.306384 -0.33377996 -0.83104098 93 82 97
-0.31096408 -0.33688268 -0.83210081 97 92 90
-0.3108983 -0.33694667 -0.83205169 97 93 91
-0.31012428 -0.3340461 -0.83230758 114 109 90
-0.31006444 -0.33729008 -0.83163124 97 95 95
-0.30934215 -0.33602601 -0.83165181 98 94 94
-0.30940524 -0.33485669 -0.83191013 105 100 92
-0.30893716 -0.33496556 -0.83173484 101 95 93
-0.30757728 -0.33433014 -0.83141905 94 86 93
-0.30863544 -0.33491105 -0.83164716 99 93 93
-0.30758169 -0.33641434 -0.83155727 90 81 93
-0.30807838 -0.33549246 -0.83137333 92 86 94
-0.30676147 -0.33448195 -0.83126324 89 79 93
-0.30907455 -0.33768299 -0.83170342 93 88 94
-0.30842438 -0.33762631 -0.83172554 92 84 93
-0.30342364 -0.33768448 -0.83038121 120 89 116
-0.30399302 -0.33772984 -0.83064419 114 86 112
-0.30329192 -0.33639202 -0.83011335 128 99 122
-0.30643389 -0.33705217 -0.83162326 90 77 94
-0.30567604 -0.33516338 -0.83096498 102 87 104
-0.30614597 -0.33491677 -0.83112788 95 83 98
-0.30226752 -0.33776316 -0.82984835 132 100 128
-0.3026422 -0.337109 -0.82993227 131 98 125
-0.31158173 -0.33823645 -0.83216214 80 72 82
-0.31151447 -0.33853656 -0.83206213 78 72 79
-0.3109839 -0.33938086 -0.83132219 94 88 91
-0.31233183 -0.3405616 -0.83201087 54 47 52
-0.31093508 -0.33989185 -0.83101314 100 92 96
-0.31090569 -0.34013721 -0.83085901 103 94 98
-0.31143305 -0.34058756 -0.83113444 87 78 83
-0.30746329 -0.34043482 -0.83146411 97 80 91
-0.30781969 -0.33961529 -0.83121771 100 85 98
-0.30773303 -0.33983436 -0.83127838 99 84 97
-0.30945972 -0.34118724 -0.83029294 118 101 111
-0.30710012 -0.33951172 -0.83164638 93 77 91
-0.30762967 -0.34091514 -0.83138287 99 82 91
-0.30950356 -0.34056696 -0.83034533 116 101 112
-0.30683768 -0.33792296 -0.83183295 87 75 92
-0.3097139 -0.33877248 -0.83125567 102 95 101
-0.30984187 -0.34090307 -0.83015627 120 105 115
-0.30996966 -0.33940551 -0.83091837 108 99 105
-0.30858621 -0.33885396 -0.83126932 100 89 100
-0.30565888 -0.34083289 -0.83153385 99 75 87
-0.30461913 -0.34091574 -0.83110189 104 78 93
-0.30328158 -0.33888051 -0.83040208 120 86 112
-0.30375364 -0.3411065 -0.83075052 108 79 98
-0.30367288 -0.33893734 -0.83057052 117 85 109
-0.30604741 -0.34123355 -0.83172429 96 73 83
-0.30489504 -0.33862925 -0.83110404 105 81 102
-0.3061749 -0.3401264 -0.83173728 94 74 86
-0.30663514 -0.34130308 -0.83199 90 71 78
-0.30506483 -0.33830729 -0.8311677 103 80 102
-0.30624539 -0.34108636 -0.83180654 94 73 82
-0.30626616 -0.33908796 -0.83173764 92 74 90
-0.30266002 -0.34116849 -0.83028859 113 82 105
-0.30090594 -0.34152108 -0.82943267 134 108 135
-0.30139434 -0.34101018 -0.82964319 130 102 128
-0.30157033 -0.34166676 -0.82977569 125 98 122
-0.30811855 -0.34397075 -0.8312254 70 51 57
-0.30744356 -0.34496596 -0.83167183 72 41 58
-0.30805981 -0.34446475 -0.83128208 68 46 55
-0.30756041 -0.34383106 -0.83155239 75 52 62
-0.30884004 -0.34441906 -0.83081448 62 47 50
-0.30713806 -0.34475598 -0.83184487 75 43 61
-0.31036872 -0.34255871 -0.82980704 111 96 102
-0.308575 -0.34302771 -0.83090848 82 67 71
-0.30850983 -0.34236336 -0.83091557 97 79 85
-0.30806333 -0.34194371 -0.8311637 101 83 90
-0.31038225 -0.34221718 -0.82978243 118 102 110
-0.3105413 -0.34233224 -0.8296923 118 102 109
-0.30769187 -0.34246203 -0.8314122 86 69 73
-0.30330515 -0.34401444 -0.83077323 97 71 91
-0.30403087 -0.34492961 -0.83112651 90 62 83
-0.30307528 -0.34396285 -0.83068168 99 73 93
-0.30315647 -0.34457773 -0.83076465 96 72 91
-0.30486777 -0.34496129 -0.83144683 86 54 77
-0.30440959 -0.34484708 -0.83126324 89 58 81
-0.30418581 -0.34300303 -0.83103168 98 65 87
-0.30325219 -0.34179881 -0.83058614 107 78 97
-0.30570963 -0.34451547 -0.83173913 85 48 71
-0.30439669 -0.34234485 -0.83109158 99 71 88
-0.3050707 -0.34190223 -0.83135581 98 73 86
-0.30622292 -0.34454289 -0.83195627 82 46 68
-0.30227757 -0.34180826 -0.83014017 115 86 109
-0.30062479 -0.34372079 -0.82949245 139 108 132
-0.29982039 -0.34436956 -0.8291505 150 119 145
-0.30201411 -0.34500021 -0.83028626 109 86 106
-0.30236077 -0.34379804 -0.83035451 108 82 103
-0.3015947 -0.34459308 -0.83004528 118 93 114
-0.30183408 -0.34559602 -0.8302483 109 88 108
-0.29975355 -0.34510645 -0.82918352 149 119 144
-0.30264428 -0.34484291 -0.83058274 98 77 96
-0.30875015 -0.34863156 -0.83179861 77 60 70
-0.30741388 -0.34939152 -0.83202338 72 61 77
-0.30865428 -0.34804633 -0.8318193 78 56 68
-0.30773577 -0.34937519 -0.83196801 73 62 76
-0.30782247 -0.34894848 -0.83195615 74 59 74
-0.30715942 -0.34641704 -0.83208853 76 41 63
-0.30821157 -0.34627989 -0.83148646 68 40 55
-0.30934569 -0.34692657 -0.83107948 65 46 53
-0.31022805 -0.34868762 -0.8312878 75 63 65
-0.30963144 -0.34614107 -0.83058119 55 39 43
-0.31024209 -0.34614447 -0.8302182 49 39 39
-0.30995125 -0.34884807 -0.83152002 79 64 68
-0.30871242 -0.34584504 -0.83100611 59 36 47
-0.30304587 -0.34862113 -0.83101034 85 69 89
-0.30324006 -0.34820175 -0.83103693 85 69 89
-0.30544704 -0.34882018 -0.8317405 76 64 83
-0.30277961 -0.34697658 -0.83080846 89 72 91
-0.30390251 -0.34814954 -0.83123034 83 68 88
-0.30402204 -0.34908426 -0.83133566 80 66 87
-0.30403724 -0.34662843 -0.83118802 85 67 86
-0.30365413 -0.34658208 -0.83104295 87 71 89
-0.30393064 -0.34633631 -0.8311497 86 66 86
-0.30474424 -0.34752703 -0.83144993 81 66 85
-0.30541694 -0.34616584 -0.83171505 80 50 73
-0.30045518 -0.34814149 -0.82978255 129 106 129
-0.30134869 -0.34936935 -0.83032233 110 92 112
-0.29983571 -0.34887379 -0.82956845 140 118 137
-0.29997346 -0.34923026 -0.82966852 137 116 135
-0.30199435 -0.34947455 -0.83063334 98 81 102
-0.30072412 -0.34754747 -0.82984889 125 101 125
-0.30096328 -0.34698653 -0.82992476 122 98 121
-0.30031326 -0.34675038 -0.82958752 134 108 133
-0.30258417 -0.34607521 -0.83065408 94 76 95
-0.30160213 -0.34686357 -0.83022982 110 89 111
-0.30119133 -0.34591883 -0.82995737 120 97 118
-0.30681288 -0.34993371 -0.83216304 67 57 76
-0.30856836 -0.34969211 -0.83183587 74 64 74
-0.30533785 -0.35133341 -0.83187026 80 55 82
-0.30520898 -0.35108766 -0.83181268 79 57 85
-0.30425042 -0.35219759 -0.83159202 86 54 89
-0.30386731 -0.35100073 -0.83140737 84 60 89
-0.30308387 -0.34968692 -0.83109969 82 67 89
-0.3035261 -0.35168424 -0.83134443 87 58 91
-0.30308843 -0.35276976 -0.83127534 92 54 94
-0.30357108 -0.35070065 -0.83130217 84 62 89
-0.30283931 -0.35237816 -0.83117896 92 56 94
-0.30137664 -0.35045952 -0.83040768 112 88 113
-0.30028969 -0.34999117 -0.82987553 132 110 130
-0.3001129 -0.35045716 -0.82981968 136 111 133
-0.3019864 -0.35182157 -0.83076841 105 72 106
-0.30217332 -0.35015395 -0.83076102 96 75 100
-0.30240849 -0.35181394 -0.83096433 97 64 99
-0.31779042 -0.32938486 -0.83386278 19 18 20
-0.31812522 -0.331891 -0.83414078 5 2 4
-0.31750005 -0.33323276 -0.83384669 15 7 14
-0.31807461 -0.33192697 -0.83411402 5 2 5
-0.31827855 -0.33248723 -0.83425081 3 1 2
-0.31804857 -0.33291197 -0.83413982 7 2 6
-0.31751308 -0.33035406 -0.83367908 16 14 14
-0.31813964 -0.3301906 -0.83406782 4 3 3
-0.31696177 -0.33419275 -0.83365458 23 10 21
-0.31772077 -0.33418518 -0.83407378 11 5 11
-0.31512889 -0.33681643 -0.83356595 42 23 47
-0.31704977 -0.33476853 -0.83390772 20 9 20
-0.31767729 -0.33676314 -0.83466059 9 5 10
-0.31806445 -0.33674675 -0.8348164 4 2 5
-0.31788525 -0.3359091 -0.83456665 7 3 8
-0.31765243 -0.33595172 -0.83447981 10 5 11
-0.31735727 -0.33727121 -0.83463567 13 7 15
-0.31664202 -0.33667654 -0.83421642 22 12 25
-0.31440535 -0.33724406 -0.83334523 51 28 57
-0.31171343 -0.33669966 -0.83252722 88 78 82
-0.31427082 -0.34079215 -0.83295947 24 16 26
-0.31420174 -0.34153321 -0.83279389 18 14 19
-0.31287161 -0.33935326 -0.83259833 53 41 56
-0.31345102 -0.34126693 -0.83252835 28 19 29
-0.31340161 -0.33913049 -0.83287776 49 35 53
-0.31354079 -0.339396 -0.8328948 45 31 49
-0.3134802 -0.3444024 -0.83259541 34 30 27
-0.31413805 -0.34361818 -0.83288878 17 15 16
-0.31340805 -0.34299934 -0.83248121 29 23 26
-0.31333995 -0.34289953 -0.83244771 29 22 26
-0.3140026 -0.34892178 -0.83398855 12 11 11
-0.31292862 -0.34828386 -0.83301175 42 37 37
-0.31390944 -0.34790647 -0.83361131 15 14 15
-0.31327629 -0.34879076 -0.83341944 32 28 28
-0.31364691 -0.34921923 -0.83381999 22 19 19
-0.31279981 -0.3460519 -0.8324247 49 43 38
-0.31375501 -0.34622383 -0.83302808 21 19 20
-0.31261116 -0.34719944 -0.8325485 53 46 43
-0.31329826 -0.35019967 -0.83371681 19 16 17
-0.31319067 -0.35004124 -0.83362979 25 22 22
-0.31260726 -0.35028651 -0.8332181 36 32 32
-0.31277919 -0.35046273 -0.83335292 27 24 25
0 0 0 1 0 0 0 1 0 0 0 1 0 0 0 0 0 197 1 0 0
