ply
format ascii 1.0
comment PCL generated
element vertex 115
property float x
property float y
property float z
property uchar red
property uchar green
property uchar blue
element camera 1
property float view_px
property float view_py
property float view_pz
property float x_axisx
property float x_axisy
property float x_axisz
property float y_axisx
property float y_axisy
property float y_axisz
property float z_axisx
property float z_axisy
property float z_axisz
property float focal
property float scalex
property float scaley
property float centerx
property float centery
property int viewportx
property int viewporty
property float k1
property float k2
end_header
-0.24036404 0.049994614 -0.80897915 131 113 130
-0.23983838 0.049283709 -0.80820477 116 94 117
-0.24006177 0.048873454 -0.80865026 115 92 113
-0.23866852 0.047484171 -0.80672479 98 74 99
-0.23880491 0.047081687 -0.80708981 103 81 101
-0.23903142 0.048407063 -0.80703962 100 74 102
-0.24009807 0.04868352 -0.80876684 116 93 113
-0.2388254 0.047627062 -0.8069452 100 76 101
-0.23919335 0.047503628 -0.80761307 107 85 105
-0.23883671 0.048529465 -0.80666739 96 69 100
-0.23794328 0.045365497 -0.80582261 102 82 92
-0.2385568 0.046615347 -0.80674779 102 80 99
-0.23837852 0.045528445 -0.80664229 107 88 98
-0.2382575 0.045983493 -0.80630147 102 81 96
-0.23917536 0.045240052 -0.80827534 119 105 108
-0.23843342 0.046011053 -0.8066414 104 84 98
-0.23903446 0.042435609 -0.80892026 107 88 98
-0.23880871 0.042682994 -0.80831856 108 89 98
-0.23913229 0.04294572 -0.80893898 111 93 101
-0.23912284 0.044283301 -0.80839336 120 106 108
-0.23822519 0.043398079 -0.80682063 108 89 96
-0.23792049 0.044519749 -0.80596846 105 85 93
-0.23849957 0.044236336 -0.80717182 112 95 100
-0.23936871 0.044845283 -0.80874491 124 111 111
-0.23828101 0.044024751 -0.80678934 109 91 97
-0.24435744 0.05073553 -0.81712258 130 120 136
-0.2448011 0.04863245 -0.81810212 139 131 117
-0.24461903 0.042650066 -0.81863099 109 107 104
-0.24474476 0.042694908 -0.81891346 109 106 103
-0.24409489 0.043127712 -0.81750876 117 116 116
-0.24382961 0.042409256 -0.81713605 110 108 107
-0.24367937 0.041742131 -0.81692094 103 100 99
-0.24248342 0.053068519 -0.81360215 142 132 149
-0.24303719 0.053033829 -0.81475472 134 123 153
-0.24215654 0.053659715 -0.81291944 151 142 150
-0.24233411 0.05390897 -0.81328785 150 142 153
-0.24428916 0.049841132 -0.8167603 136 129 129
-0.24393557 0.049300734 -0.81609166 133 125 118
-0.2430428 0.049338669 -0.81467545 124 113 113
-0.24410066 0.050032217 -0.81646752 132 124 129
-0.24317405 0.049186587 -0.81486106 126 115 112
-0.24221782 0.048913669 -0.81329578 118 103 102
-0.24214406 0.051390886 -0.81301832 133 121 129
-0.2422082 0.049349468 -0.8133356 117 102 107
-0.24239427 0.051996864 -0.81348443 135 123 138
-0.24271055 0.052076612 -0.81413543 131 119 141
-0.24267167 0.052024059 -0.81405926 131 119 140
-0.24222332 0.051532935 -0.81317043 133 121 131
-0.24430428 0.048260711 -0.81678832 141 137 121
-0.24383208 0.048732173 -0.81588989 133 126 112
-0.24286664 0.047795262 -0.81470358 124 114 110
-0.24333657 0.047917787 -0.81540614 128 120 112
-0.24306339 0.048264474 -0.81484091 126 116 109
-0.24167521 0.046707015 -0.81295192 116 99 102
-0.24190257 0.047225934 -0.81321943 117 101 103
-0.24248743 0.045959376 -0.81464678 122 111 113
-0.2419524 0.047608644 -0.81320167 117 102 103
-0.24272701 0.046465859 -0.81494021 122 114 114
-0.24216311 0.045695171 -0.81412989 120 107 110
-0.24351628 0.041754015 -0.81667292 102 98 98
-0.24338575 0.043609582 -0.81651217 117 114 114
-0.24262242 0.043014094 -0.81503993 111 103 104
-0.24260548 0.042182885 -0.81496918 103 96 96
-0.24252628 0.042658087 -0.81484139 107 99 100
-0.2425485 0.04383551 -0.81496572 116 107 109
-0.24254154 0.043360248 -0.81491476 113 104 105
-0.24200065 0.044840816 -0.8140465 120 105 110
-0.24231137 0.044585079 -0.81459308 120 108 111
-0.24168447 0.042078737 -0.81324744 99 85 87
-0.24200705 0.043606136 -0.81395894 111 98 101
-0.24149534 0.052809909 -0.81120777 153 144 154
-0.24197195 0.053404968 -0.81244683 151 142 151
-0.24191481 0.053316191 -0.81229836 151 142 151
-0.24159594 0.053254768 -0.81146759 155 147 156
-0.2412706 0.050838608 -0.81110221 131 115 129
-0.24133813 0.049706992 -0.81136656 123 106 115
-0.24165043 0.04973302 -0.81207258 122 107 113
-0.24157433 0.05079281 -0.81179589 130 115 126
-0.24149704 0.050989609 -0.81160116 132 117 129
-0.24181093 0.051580478 -0.81225532 136 123 133
-0.24141362 0.051668234 -0.81127399 139 126 139
-0.24082881 0.050421651 -0.8100757 131 113 129
-0.24150503 0.052291512 -0.81134915 146 136 147
-0.24116987 0.051742081 -0.81061929 143 131 144
-0.24036498 0.049352013 -0.80914658 123 102 121
-0.24071585 0.050568387 -0.80974299 134 118 133
-0.24048029 0.047857229 -0.809843 118 96 113
-0.24093029 0.046011645 -0.81151229 119 99 109
-0.24026725 0.045600373 -0.81009823 130 116 120
-0.24103099 0.045839429 -0.81180543 118 98 107
-0.2403288 0.048453793 -0.80929083 118 95 114
-0.24063702 0.048302382 -0.81004775 117 96 111
-0.24145952 0.046565987 -0.81252706 116 98 103
-0.24130563 0.046824705 -0.81208664 116 97 105
-0.24126285 0.048060764 -0.81155294 116 98 105
-0.24051851 0.048317432 -0.8097735 117 95 112
-0.24131265 0.047981463 -0.81169397 116 98 105
-0.24021249 0.046173178 -0.80979222 128 113 119
-0.23990378 0.04540582 -0.80951798 128 115 117
-0.24118704 0.042133614 -0.81218964 103 90 90
-0.2409206 0.044212978 -0.81178045 119 104 107
-0.24126783 0.04470931 -0.81264406 117 98 104
-0.24127883 0.042739652 -0.81246686 105 90 92
-0.24090312 0.04212169 -0.81174427 106 94 95
-0.24023801 0.043733325 -0.81046057 125 114 115
-0.24030805 0.042529512 -0.81077629 116 105 107
-0.23975991 0.042247787 -0.81006455 112 97 103
-0.23929417 0.04161533 -0.80953699 104 85 96
-0.23945037 0.042469319 -0.80960184 111 93 102
-0.23953083 0.04457571 -0.80914307 124 111 112
-0.23949 0.043176077 -0.80949467 116 99 106
-0.24055967 0.040266361 -0.81149262 99 87 90
-0.24059437 0.040610433 -0.81151146 100 89 92
-0.2402914 0.040518943 -0.81105137 103 92 95
-0.23974229 0.039996479 -0.81027478 99 90 93
0 0 0 1 0 0 0 1 0 0 0 1 0 0 0 0 0 115 1 0 0
