ply
format ascii 1.0
comment PCL generated
element vertex 305
property float x
property float y
property float z
property uchar red
property uchar green
property uchar blue
element camera 1
property float view_px
property float view_py
property float view_pz
property float x_axisx
property float x_axisy
property float x_axisz
property float y_axisx
property float y_axisy
property float y_axisz
property float z_axisx
property float z_axisy
property float z_axisz
property float focal
property float scalex
property float scaley
property float centerx
property float centery
property int viewportx
property int viewporty
property float k1
property float k2
end_header
-0.11366591 -0.39563772 -0.69172925 171 151 176
-0.11344276 -0.39537591 -0.69158328 170 151 174
-0.11338698 -0.39577001 -0.69156963 170 151 177
-0.11165121 -0.39483324 -0.69051909 174 159 177
-0.11167143 -0.39567477 -0.69058722 178 164 185
-0.11222546 -0.39557788 -0.69089478 175 158 181
-0.11161693 -0.39471048 -0.69049144 173 158 176
-0.10838392 -0.39524862 -0.68885922 178 156 174
-0.10743128 -0.39547262 -0.68836242 179 155 172
-0.10806295 -0.39596739 -0.68870938 182 160 179
-0.10864371 -0.39549452 -0.68900305 179 158 177
-0.1097222 -0.39577466 -0.68958002 181 163 183
-0.11277173 -0.39794573 -0.6913721 173 156 184
-0.11318237 -0.39879155 -0.69166654 169 150 179
-0.11321854 -0.39744508 -0.69158894 172 153 182
-0.11147296 -0.39657873 -0.69053608 183 170 194
-0.11142797 -0.39912227 -0.69069678 172 153 181
-0.11182317 -0.40029743 -0.69100654 166 146 175
-0.11181511 -0.39808223 -0.69083983 176 161 187
-0.1089085 -0.39937201 -0.68940306 174 153 178
-0.10912737 -0.39888701 -0.68947208 175 153 178
-0.10835783 -0.39866668 -0.68905824 177 156 179
-0.10911655 -0.39984599 -0.68955171 172 152 178
-0.1099604 -0.39981538 -0.68998128 170 149 177
-0.10932741 -0.39855847 -0.68954533 175 153 178
-0.10826613 -0.39708465 -0.6888746 182 160 181
-0.10958422 -0.39658305 -0.68953371 184 166 189
-0.10970081 -0.39836007 -0.68972534 175 154 180
-0.11112275 -0.39744186 -0.69040877 180 164 190
-0.10955166 -0.39739883 -0.68957621 180 161 184
-0.11114559 -0.39828804 -0.69048274 176 159 185
-0.10623953 -0.39974204 -0.68815422 162 140 168
-0.10583327 -0.39979416 -0.68798018 157 135 164
-0.10737184 -0.40027717 -0.6886999 175 155 179
-0.10646584 -0.39742649 -0.68807209 175 153 175
-0.11310056 -0.40228215 -0.69176525 166 152 170
-0.11273897 -0.40041614 -0.69153237 165 146 175
-0.11262682 -0.40082753 -0.69147509 165 147 174
-0.1119962 -0.4040451 -0.69119841 159 148 161
-0.11278787 -0.40398952 -0.69161958 167 155 164
-0.11138456 -0.40406889 -0.69087243 154 142 159
-0.10773716 -0.40087044 -0.68891251 173 154 176
-0.10999709 -0.40379801 -0.69017667 155 144 157
-0.10866334 -0.40280771 -0.68947399 161 148 161
-0.1084873 -0.40334147 -0.68942034 158 147 156
-0.10780539 -0.40229264 -0.68902916 164 151 163
-0.10830694 -0.40348649 -0.68934178 157 147 154
-0.10946454 -0.40187851 -0.68982255 165 149 170
-0.11090793 -0.40181574 -0.6905601 162 145 169
-0.11012176 -0.40161508 -0.69015145 165 147 171
-0.10953628 -0.40100771 -0.68983346 168 149 174
-0.10960487 -0.40053767 -0.68985468 169 149 176
-0.10590579 -0.40381461 -0.68833017 140 122 125
-0.10694704 -0.40125802 -0.68859404 166 146 164
-0.10683729 -0.40298617 -0.6886521 154 140 146
-0.10713495 -0.40058172 -0.68862247 171 151 174
-0.11264892 -0.40632212 -0.69158691 159 147 158
-0.11220197 -0.40504417 -0.69132775 158 147 159
-0.11206941 -0.40512347 -0.69125819 157 145 158
-0.11145692 -0.40763268 -0.69096929 149 134 152
-0.11247662 -0.40718436 -0.69150853 155 142 156
-0.11204065 -0.40728274 -0.69127661 153 139 154
-0.10793505 -0.40790868 -0.68951923 157 144 145
-0.10895374 -0.40718177 -0.68985718 153 140 146
-0.10965594 -0.40783873 -0.69020277 152 138 148
-0.11055293 -0.4078632 -0.69056499 149 134 149
-0.10878143 -0.40738386 -0.68980771 153 141 146
-0.10746077 -0.40535444 -0.68908042 154 146 143
-0.10928255 -0.40462583 -0.68986589 152 143 149
-0.10997689 -0.40513355 -0.69020915 151 141 151
-0.11113553 -0.40455386 -0.69075996 152 141 156
-0.10930285 -0.40545186 -0.68988842 151 141 148
-0.1091483 -0.40515178 -0.68980908 151 142 148
-0.11025438 -0.40432701 -0.6903308 152 143 153
-0.10679501 -0.40809485 -0.68905169 159 143 142
-0.10533297 -0.40778115 -0.68836856 160 137 135
-0.10585683 -0.40763488 -0.68858814 160 139 137
-0.10665547 -0.40766755 -0.6889478 159 143 141
-0.10707247 -0.40735343 -0.68910336 158 144 143
-0.10462068 -0.40529999 -0.68790436 135 110 110
-0.10468696 -0.4070116 -0.6880284 155 129 127
-0.10484627 -0.40495756 -0.68797457 134 110 110
-0.10520782 -0.40673822 -0.68822008 157 135 132
-0.11214939 -0.40871996 -0.69137096 155 138 153
-0.11261346 -0.41054806 -0.69169748 169 142 156
-0.11247117 -0.41159853 -0.69166577 174 141 155
-0.11182225 -0.41139036 -0.69130403 163 127 150
-0.10972624 -0.41091609 -0.69035023 155 122 145
-0.10750366 -0.41085282 -0.68933392 147 122 149
-0.10941054 -0.41123864 -0.69020015 153 120 146
-0.10804379 -0.41138688 -0.68957204 146 118 149
-0.10812937 -0.40960202 -0.68964177 155 134 146
-0.11088945 -0.41177404 -0.69086796 156 115 145
-0.1107538 -0.40992612 -0.69074661 153 125 147
-0.10974997 -0.41012266 -0.69035161 156 128 145
-0.11008607 -0.40899661 -0.69044209 153 132 147
-0.11059293 -0.41107258 -0.69072723 156 120 145
-0.1082239 -0.40875596 -0.68968552 158 140 145
-0.10982354 -0.40997493 -0.69037533 156 128 145
-0.10561781 -0.41085836 -0.6884743 171 157 164
-0.10557891 -0.41112521 -0.68845195 170 155 164
-0.10684709 -0.40947863 -0.68905818 160 145 151
-0.10652675 -0.41054279 -0.68889391 160 142 156
-0.10668555 -0.41085529 -0.68896091 156 136 155
-0.10599717 -0.40988687 -0.68866491 169 155 157
-0.10460947 -0.41080445 -0.68802309 175 158 162
-0.10640053 -0.40950114 -0.68885434 166 153 155
-0.1059691 -0.40900064 -0.68867403 164 147 147
-0.1049016 -0.41058546 -0.68815881 173 157 161
-0.11208184 -0.41351658 -0.69143945 157 116 150
-0.11261786 -0.41463119 -0.69170433 157 117 153
-0.11164161 -0.41474354 -0.69118804 145 94 142
-0.11135354 -0.41319275 -0.69106072 151 103 142
-0.1113504 -0.41274002 -0.69106555 153 107 143
-0.10964911 -0.41476664 -0.69025666 137 87 143
-0.10961919 -0.41306236 -0.69026715 144 103 145
-0.10994986 -0.41302621 -0.69041902 146 103 145
-0.10957358 -0.41353878 -0.69023943 142 99 144
-0.1090239 -0.41247803 -0.69000298 145 108 148
-0.11012909 -0.41245431 -0.69050926 150 109 146
-0.11033168 -0.41389462 -0.69058132 143 95 142
-0.10730135 -0.41227382 -0.68922085 142 113 153
-0.1065146 -0.41308892 -0.68886781 153 126 162
-0.12232579 -0.38419881 -0.69616991 202 189 185
-0.12202924 -0.38354605 -0.69585913 191 171 175
-0.12278625 -0.38509923 -0.69659936 215 211 198
-0.12133391 -0.38582873 -0.69572091 199 188 189
-0.12188218 -0.39633399 -0.69672787 195 179 191
-0.12201443 -0.39500061 -0.69676739 205 193 199
-0.12152105 -0.39519775 -0.69646728 207 196 198
-0.12086194 -0.39499828 -0.69602466 207 196 195
-0.12111963 -0.39394784 -0.69611996 206 193 199
-0.12081376 -0.40036911 -0.6963684 182 156 168
-0.1201672 -0.39850539 -0.69579303 199 182 184
-0.12058894 -0.39720872 -0.69597459 201 187 187
-0.12095777 -0.39668798 -0.69617134 201 187 189
-0.1201756 -0.39731422 -0.69572443 204 192 187
-0.12035863 -0.40238613 -0.69610798 184 163 171
-0.12055269 -0.40314847 -0.69625831 181 160 167
-0.12035859 -0.40297431 -0.69612187 183 164 170
-0.12012036 -0.4008092 -0.69590813 189 167 176
-0.12116 -0.3840512 -0.6953975 190 174 175
-0.12060936 -0.38295117 -0.69485694 180 160 164
-0.12146576 -0.38293993 -0.69539344 184 161 168
-0.11994222 -0.38463932 -0.69469774 179 153 166
-0.12063529 -0.38396281 -0.69504309 185 166 170
-0.12020477 -0.38356429 -0.69469672 179 157 164
-0.11971663 -0.38529783 -0.69461578 179 151 167
-0.12088314 -0.38612852 -0.69545138 195 180 186
-0.12079576 -0.38499397 -0.695297 190 172 177
-0.12039337 -0.38562733 -0.69508749 188 167 177
-0.11948872 -0.38642046 -0.6945709 182 159 174
-0.1194687 -0.38855809 -0.69476122 194 184 191
-0.11925172 -0.38592228 -0.69437307 178 151 168
-0.11874073 -0.38544706 -0.69400656 168 136 160
-0.11807267 -0.38852733 -0.69388008 175 157 179
-0.11812748 -0.38695201 -0.69376481 167 140 167
-0.11826303 -0.38610151 -0.69376904 164 133 161
-0.11855852 -0.38723657 -0.69406229 175 153 172
-0.11743988 -0.38843176 -0.69347399 165 142 173
-0.11863448 -0.3873122 -0.69411713 177 155 174
-0.11919937 -0.38937375 -0.69461894 193 181 189
-0.11960468 -0.39238316 -0.69496262 195 176 194
-0.11980499 -0.39179885 -0.69509 195 178 194
-0.11748935 -0.39131358 -0.69361424 171 147 177
-0.1181627 -0.39182979 -0.6940341 180 158 184
-0.11756869 -0.39166373 -0.69369382 176 153 178
-0.11682656 -0.3907477 -0.69319493 162 135 171
-0.11752754 -0.38997227 -0.69357842 168 144 177
-0.11814287 -0.39144212 -0.69399458 178 155 183
-0.11897682 -0.3891038 -0.69446987 190 178 188
-0.1189795 -0.39098552 -0.69451004 191 174 190
-0.11864214 -0.38922295 -0.69426233 185 170 185
-0.12003872 -0.39498395 -0.6954568 203 189 191
-0.12009002 -0.39404973 -0.69541943 200 185 193
-0.12008188 -0.3930414 -0.69533491 197 179 195
-0.11929984 -0.39631379 -0.69512242 215 210 194
-0.11937863 -0.39512277 -0.69504881 207 197 192
-0.11762537 -0.39506108 -0.69406658 200 191 180
-0.11687579 -0.39589444 -0.69362849 188 171 179
-0.11618915 -0.39554998 -0.69319493 179 159 174
-0.11720685 -0.39544281 -0.69381952 193 180 179
-0.11663339 -0.39400595 -0.69342387 189 176 171
-0.11539583 -0.39426988 -0.6926682 171 150 165
-0.11703239 -0.39269516 -0.6935091 183 165 174
-0.11803245 -0.39500523 -0.69428903 203 194 184
-0.11650965 -0.3934837 -0.69330531 186 171 169
-0.11806761 -0.39433393 -0.69423956 199 187 184
-0.11808894 -0.39297092 -0.69411188 191 173 183
-0.11663485 -0.39274615 -0.6932981 182 164 170
-0.11473943 -0.39590746 -0.69234508 168 143 173
-0.11395328 -0.39554015 -0.69189668 171 152 176
-0.11383051 -0.39544383 -0.69181788 171 152 175
-0.11984182 -0.39972079 -0.69566703 196 177 182
-0.11945668 -0.39784604 -0.69531828 208 198 189
-0.11971865 -0.40009144 -0.69560713 195 175 182
-0.1163459 -0.39921018 -0.69346696 173 150 176
-0.11717304 -0.39888209 -0.69393599 180 155 179
-0.11655843 -0.40017128 -0.69365466 175 154 177
-0.1155808 -0.39901349 -0.69300097 167 143 173
-0.11893315 -0.40020531 -0.69506395 196 172 185
-0.11524192 -0.39761737 -0.69271052 164 137 172
-0.11708817 -0.39760351 -0.69382143 183 161 180
-0.11717431 -0.39763767 -0.69387591 184 162 180
-0.11649829 -0.39671105 -0.6934219 180 158 178
-0.11763808 -0.39685723 -0.69413084 195 180 185
-0.11862225 -0.39983612 -0.69485688 193 170 184
-0.11719045 -0.3981733 -0.69390726 182 157 179
-0.11474785 -0.39874521 -0.69251758 164 140 173
-0.11404284 -0.39952949 -0.69218987 164 143 174
-0.11487434 -0.39795384 -0.69253451 164 138 172
-0.11340467 -0.39925486 -0.69182533 166 147 177
-0.11371464 -0.39650047 -0.69180125 171 151 181
-0.11390142 -0.39722583 -0.69195473 169 147 178
-0.1196308 -0.40310308 -0.69562393 191 174 179
-0.11955199 -0.40396523 -0.69559413 190 175 179
-0.1157495 -0.40339509 -0.69322777 180 165 170
-0.11528174 -0.40254387 -0.69293171 175 158 170
-0.11754257 -0.40274408 -0.69432968 181 165 177
-0.11620394 -0.40305144 -0.69350553 179 164 172
-0.11722533 -0.40427783 -0.69414669 188 174 174
-0.11564926 -0.40244192 -0.69315779 175 158 171
-0.11907123 -0.40356076 -0.69526398 193 178 180
-0.11908209 -0.40247595 -0.695234 194 177 182
-0.11611168 -0.40085697 -0.69341969 171 151 175
-0.11760014 -0.40063888 -0.69429433 184 163 180
-0.11827473 -0.40074176 -0.6946975 190 168 182
-0.11854769 -0.40043196 -0.69484884 192 170 183
-0.11779044 -0.40143842 -0.69443387 184 165 179
-0.11513963 -0.40131116 -0.69284219 168 149 171
-0.11382537 -0.40366372 -0.69217134 170 157 166
-0.11448476 -0.40302259 -0.69251245 172 157 168
-0.11445848 -0.40233329 -0.69249284 168 152 169
-0.11391832 -0.40190879 -0.69220012 166 150 170
-0.11343028 -0.40348688 -0.69196093 168 155 166
-0.11372295 -0.40197241 -0.69209629 166 150 170
-0.1195877 -0.40472275 -0.69563782 187 171 177
-0.11588253 -0.40606403 -0.69335884 178 160 166
-0.11630961 -0.40718901 -0.69364887 175 154 165
-0.11620329 -0.40765902 -0.69359493 174 154 165
-0.11755833 -0.40448567 -0.69435668 188 173 174
-0.11716294 -0.40510046 -0.69412583 183 164 171
-0.11866141 -0.40445048 -0.69503719 190 176 178
-0.11427834 -0.40681222 -0.69246167 170 157 162
-0.11383075 -0.40798333 -0.69224823 164 151 159
-0.11466003 -0.40604427 -0.69264925 175 161 164
-0.11486182 -0.40533245 -0.69274104 178 164 165
-0.11453091 -0.40440446 -0.69254917 178 165 166
-0.11319837 -0.4052301 -0.69186181 167 155 162
-0.11364628 -0.40508798 -0.69209498 170 158 163
-0.11653315 -0.4109723 -0.69388258 200 182 182
-0.11539457 -0.40927106 -0.69314241 185 171 168
-0.11544036 -0.41194001 -0.69325417 214 198 176
-0.11570583 -0.41086218 -0.69338024 201 186 175
-0.11575867 -0.40880507 -0.69334733 179 164 169
-0.11656614 -0.4102622 -0.69388014 192 174 180
-0.11626159 -0.4085705 -0.6936512 176 157 168
-0.1157093 -0.40851915 -0.6933105 176 161 167
-0.1160004 -0.408317 -0.69348556 174 156 165
-0.11509144 -0.40881914 -0.69295686 179 165 164
-0.11301925 -0.40837589 -0.69182241 158 144 156
-0.11345602 -0.40886497 -0.69207954 164 148 158
-0.11317387 -0.40960169 -0.69195873 167 146 157
-0.11391085 -0.40822577 -0.69229788 164 151 159
-0.11293221 -0.41398028 -0.69188768 167 131 156
-0.11290359 -0.413957 -0.69187325 167 130 156
-0.10569875 -0.39537367 -0.6876322 176 158 176
-0.10549971 -0.39515811 -0.68753183 175 158 177
-0.10491933 -0.39612281 -0.68736607 176 159 175
-0.10538665 -0.39633027 -0.68756974 178 159 176
-0.10515693 -0.39941338 -0.68768525 157 136 163
-0.10581639 -0.39697111 -0.68778622 176 156 175
-0.10492909 -0.39663425 -0.68740982 176 157 173
-0.10515321 -0.39867038 -0.68763441 162 142 166
-0.10427356 -0.40570971 -0.68778759 137 109 109
-0.10414224 -0.40617332 -0.68776125 140 112 111
-0.10369046 -0.4072012 -0.68762094 151 120 118
-0.10319458 -0.40612599 -0.68734431 138 104 108
-0.10318371 -0.40485409 -0.68727696 122 89 94
-0.10396043 -0.40970972 -0.6877563 171 146 147
-0.10402739 -0.41107994 -0.68775249 179 162 164
-0.099715017 -0.41024542 -0.68601924 166 143 140
-0.10292402 -0.41206178 -0.68727279 191 185 180
-0.099775352 -0.41160202 -0.68610281 184 167 161
-0.10025385 -0.41167518 -0.68628073 186 170 164
-0.10282116 -0.41177598 -0.6872223 187 180 176
-0.1034228 -0.40842628 -0.68754369 165 134 131
-0.10350886 -0.40924037 -0.68756062 172 146 143
-0.099190176 -0.41174918 -0.68588895 184 166 159
-0.098766781 -0.4118976 -0.68572927 180 162 156
-0.097344965 -0.41200796 -0.68517917 164 146 141
-0.09959583 -0.41139042 -0.68602747 182 163 157
-0.10392157 -0.41229224 -0.68767887 187 178 180
-0.10032326 -0.41341758 -0.68633837 188 172 174
-0.10024277 -0.41390136 -0.68631405 184 168 174
-0.10257059 -0.41237345 -0.68714839 192 184 181
-0.10153944 -0.41383553 -0.68678546 193 179 182
-0.10139385 -0.41237551 -0.68671888 192 181 176
-0.10215203 -0.41311696 -0.68700248 192 182 182
-0.097466812 -0.41260678 -0.68523538 163 145 145
-0.098648325 -0.41428432 -0.68571299 165 147 160
-0.097769767 -0.41225439 -0.68534982 169 152 147
-0.099204004 -0.414231 -0.68592894 172 154 166
-0.098958939 -0.4136124 -0.68582714 173 156 162
-0.099495821 -0.4127019 -0.68602699 186 170 167
0 0 0 1 0 0 0 1 0 0 0 1 0 0 0 0 0 305 1 0 0
