ply
format ascii 1.0
comment PCL generated
element vertex 110
property float x
property float y
property float z
property uchar red
property uchar green
property uchar blue
element camera 1
property float view_px
property float view_py
property float view_pz
property float x_axisx
property float x_axisy
property float x_axisz
property float y_axisx
property float y_axisy
property float y_axisz
property float z_axisx
property float z_axisy
property float z_axisz
property float focal
property float scalex
property float scaley
property float centerx
property float centery
property int viewportx
property int viewporty
property float k1
property float k2
end_header
-0.19939624 -0.133081 -0.80809295 108 78 95
-0.19961157 -0.13370606 -0.80836856 120 88 103
-0.19891055 -0.1327612 -0.80760711 101 72 91
-0.20015703 -0.13321371 -0.80880809 110 83 95
-0.19902001 -0.13339943 -0.80774361 113 82 100
-0.19930625 -0.13437697 -0.80796218 132 99 113
-0.19745536 -0.13341987 -0.80570287 108 84 101
-0.19824085 -0.13434295 -0.80658019 127 99 113
-0.1985641 -0.13283081 -0.80723953 102 73 93
-0.19846527 -0.13370265 -0.8069734 117 88 104
-0.19787179 -0.13556381 -0.8057726 136 109 118
-0.19754452 -0.13478687 -0.80559993 133 107 118
-0.19919381 -0.13504228 -0.80766428 139 107 118
-0.19830795 -0.13555698 -0.80634284 138 109 118
-0.19855194 -0.13684937 -0.80623901 143 112 117
-0.19823867 -0.13492483 -0.80645883 135 107 118
-0.19728722 -0.13477315 -0.8052693 132 108 118
-0.19867091 -0.1378904 -0.80626595 144 108 115
-0.1983642 -0.13838047 -0.80563146 146 112 116
-0.20684184 -0.13039617 -0.81906623 120 91 114
-0.20719093 -0.13006078 -0.81911528 130 100 120
-0.20767789 -0.13466772 -0.81929809 209 181 194
-0.20631622 -0.1325182 -0.81913912 150 110 140
-0.20682812 -0.13319641 -0.81927562 169 133 158
-0.20705913 -0.13343054 -0.8193773 176 142 164
-0.20703755 -0.1320084 -0.82014889 143 105 132
-0.20733394 -0.13373692 -0.81948274 185 153 172
-0.20598121 -0.13086599 -0.81790727 101 81 104
-0.20556036 -0.13125694 -0.81679803 106 91 112
-0.20553121 -0.13177845 -0.81685364 119 100 123
-0.20609012 -0.13131489 -0.81834179 115 88 114
-0.20550603 -0.13366452 -0.81728649 170 133 162
-0.19431603 -0.13363117 -0.79976124 108 85 96
-0.1947756 -0.13376574 -0.80050087 114 87 102
-0.1941244 -0.13283536 -0.79961699 99 78 89
-0.19456172 -0.13537127 -0.7997421 124 91 105
-0.19437072 -0.13492358 -0.79955447 121 93 102
-0.1946215 -0.13568594 -0.79974926 126 89 105
-0.19378167 -0.13665566 -0.79805672 121 79 95
-0.19484486 -0.13531984 -0.80023134 127 92 108
-0.1936534 -0.1362574 -0.79795957 118 82 94
-0.19529122 -0.13710323 -0.80066901 140 88 123
-0.19468969 -0.13799074 -0.79934859 136 78 113
-0.19510353 -0.13798872 -0.80013478 142 82 122
-0.1954176 -0.13715798 -0.80089802 142 89 126
-0.19438963 -0.13816687 -0.79874343 133 74 107
-0.19485141 -0.13592482 -0.80007046 129 88 108
-0.19727507 -0.14153415 -0.80116642 136 84 138
-0.19694413 -0.14176491 -0.80047995 132 85 131
-0.19663191 -0.14096721 -0.80068064 138 85 133
-0.19700871 -0.14127499 -0.80098236 136 84 136
-0.19587238 -0.14045219 -0.79998958 139 87 127
-0.19580394 -0.13905081 -0.80099249 150 86 137
-0.1947858 -0.13909237 -0.79909223 138 77 115
-0.19425331 -0.13956033 -0.79774487 128 73 101
-0.19454104 -0.1391968 -0.79855245 134 75 109
-0.19442594 -0.13928193 -0.79827267 132 74 106
-0.19534917 -0.14024487 -0.79933399 138 87 121
-0.19548562 -0.13896264 -0.80051434 148 84 132
-0.20538832 -0.1296408 -0.8132841 111 86 106
-0.20535468 -0.12982874 -0.81353164 110 85 106
-0.20567249 -0.13044144 -0.81544143 114 94 114
-0.20662919 -0.12970321 -0.81634724 130 115 126
-0.20570886 -0.13033617 -0.81516916 118 97 116
-0.2060567 -0.13016371 -0.81587964 119 102 118
-0.20491876 -0.13063543 -0.81404614 108 83 107
-0.2051872 -0.13090561 -0.81517047 105 84 108
-0.20525105 -0.1311184 -0.81550592 108 88 111
-0.20532541 -0.13279842 -0.81643039 147 119 144
-0.20500569 -0.13220413 -0.81521589 134 105 131
-0.20357746 -0.13227601 -0.81296366 120 87 112
-0.2045408 -0.13146968 -0.81416565 111 84 109
-0.20365667 -0.13261433 -0.81336641 119 86 112
-0.19561517 -0.13445969 -0.80187625 124 94 111
-0.19633661 -0.13474682 -0.80336386 131 103 118
-0.19572729 -0.13388473 -0.80221277 114 83 103
-0.19539259 -0.13260709 -0.80150867 98 70 87
-0.19732623 -0.13655847 -0.80463952 135 102 116
-0.19748183 -0.13688564 -0.80476117 138 105 117
-0.19718842 -0.13836068 -0.80369693 138 88 116
-0.19690172 -0.13793448 -0.80339736 140 91 121
-0.19642811 -0.13861738 -0.80234987 146 86 128
-0.19714935 -0.13584167 -0.8046366 135 104 119
-0.19676414 -0.13509685 -0.8041966 135 105 122
-0.19549239 -0.13583596 -0.80132163 136 95 121
-0.19667876 -0.13543428 -0.80393881 136 103 123
-0.19647618 -0.13560937 -0.80346793 137 101 124
-0.19538715 -0.13487995 -0.8013128 130 98 115
-0.1962947 -0.13675125 -0.80282426 143 96 130
-0.19742249 -0.13942897 -0.80332917 139 94 121
-0.1970575 -0.13888802 -0.80316591 139 86 119
-0.19725938 -0.13922539 -0.80319548 137 86 119
-0.19676656 -0.13901341 -0.80257767 142 86 125
-0.19351719 -0.13821238 -0.79716408 124 69 92
-0.19321142 -0.13773404 -0.79686618 122 77 92
-0.19384383 -0.13935158 -0.79712957 125 72 95
-0.19361851 -0.13932183 -0.79677898 126 78 96
-0.19314657 -0.13926883 -0.79628003 127 80 98
-0.19300401 -0.1392362 -0.79612386 127 81 100
-0.20489064 -0.12951504 -0.81247884 101 76 97
-0.20269601 -0.13217983 -0.8119061 103 75 95
-0.20375271 -0.13165815 -0.81285369 118 87 110
-0.20303422 -0.13277443 -0.81255013 116 83 107
-0.2024388 -0.13305227 -0.81200898 108 76 99
-0.20304652 -0.13240507 -0.81239861 112 81 104
-0.20251322 -0.1338646 -0.81245559 118 81 108
-0.20076284 -0.13358305 -0.80982149 109 76 94
-0.20060138 -0.13342714 -0.80942565 111 81 94
-0.20055287 -0.13353612 -0.80936724 114 84 96
-0.20037752 -0.13501567 -0.80955881 133 92 113
0 0 0 1 0 0 0 1 0 0 0 1 0 0 0 0 0 110 1 0 0
