ply
format ascii 1.0
comment PCL generated
element vertex 371
property float x
property float y
property float z
property uchar red
property uchar green
property uchar blue
element camera 1
property float view_px
property float view_py
property float view_pz
property float x_axisx
property float x_axisy
property float x_axisz
property float y_axisx
property float y_axisy
property float y_axisz
property float z_axisx
property float z_axisy
property float z_axisz
property float focal
property float scalex
property float scaley
property float centerx
property float centery
property int viewportx
property int viewporty
property float k1
property float k2
end_header
-0.23806022 0.068759322 -0.80537623 163 147 157
-0.24020992 0.065494329 -0.80877823 194 179 192
-0.23882245 0.064807259 -0.80611175 169 153 168
-0.23946857 0.065320909 -0.8074553 178 162 177
-0.2398548 0.065728404 -0.80831283 182 166 181
-0.23838218 0.065014109 -0.80540597 159 143 158
-0.2381018 0.068036534 -0.80538428 162 147 158
-0.24028839 0.062924132 -0.80890566 203 190 199
-0.2399769 0.062201459 -0.80872661 196 182 192
-0.23940295 0.063239522 -0.80737299 184 170 182
-0.23893671 0.062853791 -0.80674934 172 158 170
-0.2399223 0.06411048 -0.80789346 198 186 196
-0.23900716 0.064079024 -0.80638272 176 162 175
-0.23967478 0.064259164 -0.80742282 193 180 191
-0.23849644 0.063021749 -0.80564785 161 148 161
-0.23894814 0.061354656 -0.80691904 168 156 167
-0.23908512 0.061840095 -0.80723751 173 160 171
-0.23840655 0.062470473 -0.80545455 157 146 158
-0.23935306 0.061130092 -0.80797273 178 165 175
-0.2399527 0.056956057 -0.80848682 182 165 179
-0.23918426 0.059355643 -0.80795974 178 163 176
-0.23989816 0.059390213 -0.80895704 187 172 182
-0.23988168 0.057478227 -0.80850899 184 167 180
-0.23911378 0.058338746 -0.80763584 176 160 174
-0.24006245 0.057978887 -0.80887091 186 170 182
-0.2381946 0.058545299 -0.80591905 159 146 161
-0.23791753 0.057828803 -0.80552274 157 142 159
-0.23890993 0.059410833 -0.80737394 173 158 171
-0.2393056 0.060491331 -0.80791485 175 163 173
-0.23810898 0.057929933 -0.8059693 162 146 163
-0.23836957 0.058527112 -0.80637568 164 149 165
-0.24050592 0.054049283 -0.80892485 170 160 172
-0.2403941 0.054518849 -0.80880302 173 161 174
-0.2393315 0.054628652 -0.807289 154 138 156
-0.23940398 0.054970279 -0.807432 157 141 158
-0.23996426 0.053760655 -0.80807745 164 152 168
-0.23916703 0.05452954 -0.80704528 149 133 152
-0.23953238 0.05368191 -0.80745912 154 140 158
-0.2380023 0.054116014 -0.80537367 130 113 136
-0.23933278 0.056021534 -0.80747181 167 150 166
-0.23917793 0.055456225 -0.80718106 158 141 159
-0.23902684 0.055847101 -0.80702507 161 144 162
-0.23768029 0.056110967 -0.80519879 151 133 154
-0.23824121 0.054828696 -0.80580062 141 124 145
-0.23926364 0.050426077 -0.80704486 121 100 128
-0.2398607 0.050757114 -0.80801046 135 117 139
-0.23988514 0.051980227 -0.80785918 150 137 157
-0.23910433 0.050356802 -0.80678421 117 96 125
-0.23828593 0.051077429 -0.8055656 106 85 115
-0.23799405 0.05140584 -0.80515862 103 82 111
-0.23805308 0.049882684 -0.80522096 91 64 100
-0.23831396 0.052617449 -0.80562627 120 105 128
-0.23820218 0.051996738 -0.80546016 112 94 121
-0.23838243 0.050353851 -0.80569172 102 78 111
-0.24424081 0.071071535 -0.82037586 200 184 185
-0.24437939 0.069962502 -0.81989563 205 190 195
-0.2444621 0.069732562 -0.81988442 207 192 198
-0.24245757 0.069387898 -0.81768847 156 134 150
-0.24244519 0.069102399 -0.81740761 158 135 154
-0.241879 0.070133939 -0.81779349 127 108 122
-0.24312446 0.069099188 -0.81774026 183 159 176
-0.24350116 0.06943506 -0.8184045 190 169 181
-0.24386162 0.068404891 -0.81817842 201 182 196
-0.24480142 0.066556692 -0.82027584 202 183 209
-0.2443237 0.067516431 -0.81911474 204 185 204
-0.24478266 0.066343173 -0.82032943 201 181 209
-0.24436399 0.066315033 -0.81965512 196 174 203
-0.24414727 0.065044194 -0.81980354 185 160 199
-0.24387693 0.066070691 -0.8188436 190 168 194
-0.24396834 0.065200135 -0.81937599 185 160 195
-0.24322566 0.06505987 -0.81790161 177 155 178
-0.24313226 0.065619834 -0.81748784 180 159 177
-0.24335644 0.065343946 -0.81805867 180 158 181
-0.24371383 0.068242244 -0.8179782 198 178 193
-0.24304393 0.067825019 -0.81719774 183 159 178
-0.24306783 0.067771435 -0.81722891 183 159 179
-0.24454261 0.064430639 -0.82067996 184 158 202
-0.24447596 0.061352044 -0.82005888 164 141 158
-0.24461582 0.060805961 -0.82023704 164 142 155
-0.24425137 0.062600397 -0.81985462 168 143 171
-0.24403445 0.061694723 -0.8191697 151 128 146
-0.24379726 0.061872672 -0.81865227 145 122 139
-0.24363481 0.060662683 -0.81800467 128 106 111
-0.24351685 0.061504949 -0.81791329 132 110 122
-0.24377914 0.064388148 -0.8192625 177 151 189
-0.24363893 0.063865051 -0.81881976 167 143 174
-0.24310721 0.064375393 -0.81787461 170 147 173
-0.24280933 0.063391879 -0.8169716 152 131 145
-0.2442483 0.058885731 -0.8181296 156 139 148
-0.24426372 0.059273422 -0.81846195 154 136 145
-0.24447693 0.059303068 -0.81893933 162 144 154
-0.24446431 0.057188056 -0.81730682 172 161 171
-0.2444793 0.056965668 -0.81722838 173 162 172
-0.24512269 0.057690438 -0.82059902 168 151 158
-0.24486774 0.057066757 -0.81910592 170 156 164
-0.24483688 0.060250796 -0.82045072 171 150 161
-0.24472272 0.056756075 -0.81827718 171 159 167
-0.24375466 0.058760274 -0.81684512 139 122 127
-0.243945 0.058421336 -0.81702334 146 130 137
-0.24351482 0.05998164 -0.81724983 125 106 109
-0.24417408 0.053407669 -0.81693608 131 117 163
-0.24461024 0.052911062 -0.81822765 118 101 150
-0.24462071 0.0552116 -0.81769246 151 138 161
-0.24451472 0.054822072 -0.81750441 147 134 162
-0.24467686 0.0548652 -0.81792963 146 131 158
-0.24451762 0.054638974 -0.81755781 145 131 161
-0.24482705 0.055607196 -0.81838822 155 141 159
-0.24511172 0.055034958 -0.81954879 144 127 149
-0.24459575 0.05601513 -0.81742734 163 151 166
-0.24511039 0.05525472 -0.81961197 148 131 151
-0.24466141 0.052669913 -0.8183912 115 98 147
-0.24451211 0.052684773 -0.81799102 117 100 151
-0.24852179 0.064926475 -0.83637643 82 61 68
-0.23563625 0.06457743 -0.79978925 175 159 168
-0.23619142 0.065566346 -0.80085844 174 160 171
-0.23630065 0.065798193 -0.801072 173 160 171
-0.23618224 0.063077278 -0.80111444 185 170 182
-0.23596802 0.062746644 -0.80083823 179 164 176
-0.23556173 0.064223677 -0.79970998 174 158 167
-0.23584665 0.064218134 -0.80021626 181 166 175
-0.23560421 0.0618545 -0.80044049 168 152 163
-0.23557293 0.05808571 -0.80101591 164 146 160
-0.23603973 0.05395646 -0.80105418 161 154 151
-0.23582701 0.055354055 -0.80113846 164 151 157
-0.23626986 0.051823169 -0.80113691 141 134 136
-0.23573251 0.05089543 -0.80060482 114 100 116
-0.23607613 0.051844709 -0.80090702 138 130 133
-0.23584652 0.050892655 -0.80074048 116 103 118
-0.23605685 0.051098857 -0.80096728 124 113 124
-0.23618089 0.051786628 -0.80103791 139 131 134
-0.24273823 0.068929307 -0.81668854 175 149 168
-0.24228877 0.068803415 -0.81521797 181 160 173
-0.24184243 0.068362743 -0.813833 188 171 180
-0.24227978 0.069138609 -0.81510812 180 160 171
-0.24166048 0.068886392 -0.81312501 187 173 177
-0.24242128 0.067030527 -0.81584173 182 160 178
-0.24189202 0.064802691 -0.81419665 193 178 189
-0.24260439 0.066189997 -0.81665325 172 149 168
-0.24253763 0.066333324 -0.81638193 175 153 171
-0.24268013 0.067606516 -0.81672359 175 150 171
-0.24169037 0.06687776 -0.81336552 195 181 188
-0.24203146 0.06722495 -0.81449497 189 171 184
-0.24179773 0.066339217 -0.81373823 195 180 190
-0.24193993 0.066743091 -0.81420219 192 175 187
-0.24178769 0.066385016 -0.81370342 195 181 190
-0.24229549 0.067230187 -0.81537634 186 165 181
-0.24231 0.061981782 -0.81524259 149 128 140
-0.24260156 0.061998129 -0.81598419 141 120 129
-0.24230655 0.06273368 -0.81550491 157 136 150
-0.24234547 0.062465757 -0.81550658 153 132 145
-0.24265918 0.061106164 -0.81580806 130 109 115
-0.24285485 0.062290765 -0.81672883 136 115 123
-0.24242081 0.063969113 -0.81620258 166 146 162
-0.24165511 0.062604219 -0.81326717 178 162 172
-0.24170737 0.0637253 -0.81352067 189 176 185
-0.24197508 0.063777365 -0.81452507 180 164 176
-0.24214068 0.063834988 -0.81514758 175 157 170
-0.24435489 0.056710158 -0.81672525 173 163 173
-0.24397366 0.056989368 -0.81622553 171 159 168
-0.24303719 0.057685684 -0.81499779 156 145 148
-0.24396011 0.057510048 -0.81646413 158 144 151
-0.24308844 0.058522575 -0.81556445 143 129 131
-0.24377237 0.057759698 -0.81628847 154 140 146
-0.24269131 0.060479566 -0.81566292 124 103 107
-0.24210297 0.060472198 -0.81417567 141 121 129
-0.24193011 0.059131585 -0.81324935 158 144 151
-0.24267496 0.060250849 -0.81553799 126 107 110
-0.24233402 0.05898203 -0.81421381 148 134 137
-0.24207067 0.058888733 -0.81351525 156 143 148
-0.24414119 0.053795312 -0.81677192 137 124 166
-0.24403042 0.053108703 -0.81675404 125 113 162
-0.24402289 0.055506077 -0.81633151 163 151 174
-0.24367441 0.054318555 -0.81593078 143 132 166
-0.24312554 0.055207498 -0.81482792 155 146 167
-0.24280171 0.056501016 -0.81404579 174 167 172
-0.24234599 0.056608941 -0.81323779 175 169 170
-0.24345487 0.05603002 -0.81525785 169 160 174
-0.24333811 0.054000504 -0.81537676 138 128 162
-0.24340868 0.053909443 -0.81552398 137 126 162
-0.24373625 0.051748898 -0.8161729 121 109 147
-0.24354184 0.051419459 -0.81580979 121 108 142
-0.24463597 0.065421894 -0.82942563 20 12 16
-0.24461141 0.06456437 -0.82984561 26 16 22
-0.24466239 0.067043684 -0.82864738 8 5 6
-0.24464151 0.065801345 -0.82924408 17 10 14
-0.23762299 0.067958541 -0.80426884 165 150 160
-0.23667897 0.065859318 -0.80191702 178 164 174
-0.23663914 0.066848874 -0.80191159 164 151 161
-0.23705043 0.066408977 -0.80281836 176 162 172
-0.23803158 0.065558642 -0.80470717 165 150 162
-0.23750268 0.06503363 -0.80352509 174 159 171
-0.23802021 0.066585727 -0.8048737 164 149 161
-0.23662913 0.064645454 -0.80166125 189 175 185
-0.23674172 0.064468756 -0.80185956 187 173 183
-0.2378124 0.0675864 -0.80463243 167 152 163
-0.2371611 0.061479662 -0.80308348 167 157 167
-0.23664784 0.061112203 -0.80228442 173 162 172
-0.23667148 0.062959075 -0.80192637 181 169 180
-0.23766473 0.060982838 -0.80405253 156 148 158
-0.23730825 0.062358774 -0.80315197 168 158 169
-0.23749334 0.062105935 -0.80352551 164 155 165
-0.23809199 0.062434051 -0.8047359 156 145 157
-0.23792365 0.063377269 -0.80433959 162 150 162
-0.23772602 0.063452154 -0.80393004 166 154 165
-0.23683867 0.064419284 -0.80205739 185 171 182
-0.23709023 0.06307926 -0.80264592 175 164 174
-0.23608461 0.061626751 -0.80130136 177 163 175
-0.23806384 0.060066067 -0.80497038 148 140 151
-0.23726965 0.059732951 -0.80370873 160 149 162
-0.23793735 0.059014659 -0.80506158 150 139 153
-0.23657382 0.06053482 -0.80228329 172 160 170
-0.23661172 0.0604707 -0.80236691 171 160 170
-0.23705524 0.056790821 -0.80400145 164 146 165
-0.23678125 0.058850441 -0.80309743 168 153 168
-0.23671997 0.057740029 -0.80313134 170 153 169
-0.23700041 0.057284169 -0.80380833 165 148 166
-0.23628938 0.058250938 -0.80213708 176 160 174
-0.23569179 0.057054974 -0.80127954 168 150 163
-0.23572743 0.058001898 -0.80124819 168 151 164
-0.23668164 0.054691471 -0.80252677 162 152 157
-0.23683135 0.055722833 -0.80321485 164 150 162
-0.236748 0.055932812 -0.80310792 167 151 165
-0.23679742 0.056518607 -0.80342144 168 150 168
-0.23676944 0.052820545 -0.80218804 147 143 141
-0.23722045 0.053089894 -0.80339193 136 127 136
-0.23754023 0.054402597 -0.80452275 137 123 141
-0.23685455 0.052749783 -0.80238515 144 139 139
-0.23688793 0.053476878 -0.80264908 149 142 145
-0.23591959 0.056226537 -0.80159104 170 153 165
-0.23645179 0.050177727 -0.80172062 109 93 116
-0.23641792 0.051457547 -0.80145323 134 126 132
-0.23718227 0.050132833 -0.80325115 107 87 111
-0.23650205 0.050645567 -0.80175358 118 105 121
-0.23717926 0.050120484 -0.80324674 107 87 111
-0.23690768 0.050953384 -0.80255246 123 109 123
-0.23768538 0.051685609 -0.80445063 111 93 117
-0.23741584 0.05209478 -0.80378091 122 109 124
-0.23773035 0.051737029 -0.80456525 110 92 116
-0.23729026 0.052422788 -0.80347234 129 118 129
-0.23779464 0.051164649 -0.80471331 104 83 111
-0.23781344 0.051406246 -0.80476671 105 85 112
-0.23631938 0.050465856 -0.80140442 115 101 120
-0.24514148 0.069201492 -0.82104748 205 194 201
-0.24522799 0.068956375 -0.82211483 188 179 186
-0.24542643 0.068533741 -0.82124978 213 203 211
-0.24550048 0.068740301 -0.82449126 193 187 188
-0.2451421 0.069355607 -0.82460594 160 155 156
-0.24531093 0.064821281 -0.82362807 173 156 171
-0.24549377 0.064721793 -0.82437277 167 152 160
-0.24538648 0.066032425 -0.8236891 188 174 187
-0.24478658 0.065123841 -0.82148921 189 166 202
-0.24518414 0.064849377 -0.82311982 176 158 178
-0.24554019 0.065211304 -0.82446039 173 159 166
-0.24540518 0.067277998 -0.82348633 205 193 206
-0.24534072 0.067657165 -0.82091701 216 202 218
-0.24519084 0.066769473 -0.82197499 204 189 209
-0.24525681 0.066844895 -0.82276243 203 188 207
-0.24558175 0.068232223 -0.8226034 217 208 215
-0.24556959 0.061420117 -0.82326865 150 128 138
-0.24549501 0.06112862 -0.82290447 151 129 140
-0.24558847 0.061112773 -0.82318109 148 125 136
-0.24535687 0.062022965 -0.82290632 159 140 149
-0.24507356 0.061712671 -0.82189888 168 149 158
-0.24542682 0.063494585 -0.82381296 163 146 153
-0.24473782 0.064384364 -0.82140666 180 156 193
-0.24491608 0.06390889 -0.82196581 175 154 181
-0.24501032 0.063392766 -0.8221792 172 152 173
-0.24481805 0.063751198 -0.82152808 177 155 185
-0.24518472 0.062593117 -0.82262236 167 149 158
-0.2448881 0.062566407 -0.82143778 174 152 173
-0.24645895 0.057018708 -0.82382613 155 137 152
-0.24609612 0.059790362 -0.82415515 133 109 121
-0.24604966 0.05790855 -0.82321608 150 131 142
-0.24600427 0.057931133 -0.82311505 150 131 142
-0.24625185 0.05845077 -0.82394814 144 123 136
-0.24633484 0.056809288 -0.82343096 158 141 154
-0.24578962 0.059846871 -0.82331431 140 117 128
-0.24568048 0.060047224 -0.82304305 144 120 131
-0.24558659 0.05905278 -0.82245737 149 128 137
-0.24577868 0.059326928 -0.82312411 142 120 129
-0.24569483 0.059636757 -0.82296276 144 122 132
-0.24522197 0.057198826 -0.82078934 166 150 156
-0.24531461 0.056249943 -0.82079929 160 144 153
-0.24550809 0.056419268 -0.82129997 161 146 155
-0.24592452 0.056638792 -0.82235384 162 146 156
-0.24554786 0.056333158 -0.82138306 160 144 154
-0.24909766 0.064473756 -0.83609682 109 86 93
-0.24832654 0.063042626 -0.83576417 81 60 65
-0.24910216 0.064040199 -0.83626813 109 86 92
-0.24817087 0.063806459 -0.83518231 79 56 63
-0.24135661 0.069948182 -0.81237316 177 159 166
-0.24137834 0.06843777 -0.81253487 189 175 180
-0.24108359 0.068890154 -0.81193614 183 166 174
-0.24054696 0.065018274 -0.80912346 202 189 199
-0.24081436 0.065320008 -0.80979955 204 191 199
-0.24062274 0.06805072 -0.81091267 180 164 176
-0.24069315 0.066535346 -0.81022549 193 178 189
-0.24058859 0.06774734 -0.81068188 182 166 178
-0.24107623 0.066176027 -0.81085026 200 188 195
-0.24126327 0.067038581 -0.81163859 197 184 190
-0.24112682 0.066038445 -0.81107634 201 188 195
-0.24095508 0.065553747 -0.81034178 203 191 198
-0.24151593 0.064759217 -0.81282324 204 193 199
-0.24004193 0.067423724 -0.80952585 172 153 170
-0.24028587 0.062041331 -0.80927122 199 185 194
-0.24106136 0.061092742 -0.8114596 173 155 167
-0.24086231 0.061843164 -0.81067193 182 166 177
-0.24136831 0.061221294 -0.81210029 166 147 159
-0.24084458 0.062893778 -0.81015897 191 176 186
-0.24078085 0.063891873 -0.80958378 200 187 196
-0.24110734 0.063110143 -0.81096494 189 175 185
-0.24106832 0.064421073 -0.81087357 206 195 202
-0.24129155 0.062590294 -0.81173944 182 167 177
-0.2410738 0.064276285 -0.81088877 204 192 200
-0.24017483 0.061518125 -0.80928552 198 184 193
-0.24026684 0.057841402 -0.80915755 188 172 183
-0.24070604 0.05892127 -0.81044066 178 161 173
-0.24047391 0.057542667 -0.80953109 182 165 178
-0.24035178 0.059916891 -0.80990553 191 176 185
-0.24033323 0.059164476 -0.80965614 190 174 184
-0.24041839 0.057810847 -0.80947804 184 168 180
-0.24087802 0.056907233 -0.81022483 179 166 176
-0.24146722 0.058051683 -0.8118583 170 157 165
-0.2417703 0.057981346 -0.81249189 169 158 163
-0.24096 0.057454396 -0.81057376 176 161 172
-0.24131255 0.058089364 -0.81153548 171 156 166
-0.24157591 0.059571996 -0.81256998 161 144 155
-0.2401523 0.059703533 -0.80945289 192 177 186
-0.24102114 0.053094771 -0.80997026 161 154 164
-0.24126503 0.053399254 -0.81060433 160 153 162
-0.24041426 0.056493212 -0.80911368 182 167 180
-0.24139836 0.055523071 -0.81108201 173 165 171
-0.24068198 0.053444438 -0.80918807 167 159 169
-0.24059001 0.055526961 -0.80933386 177 165 176
-0.24128969 0.05648018 -0.81100541 178 168 174
-0.24086493 0.055701569 -0.80995756 176 165 175
-0.24487515 0.068906695 -0.82583946 117 113 114
-0.24449179 0.069276571 -0.826217 76 74 75
-0.24471346 0.068485044 -0.8267895 87 85 85
-0.2448376 0.069728866 -0.82480049 130 125 126
-0.24535851 0.06789986 -0.8261103 133 129 130
-0.24608333 0.065977015 -0.8270486 94 86 89
-0.24556449 0.066709183 -0.82725674 78 72 75
-0.24522576 0.067116901 -0.8274886 63 59 60
-0.24455354 0.067798235 -0.82812327 24 23 23
-0.24487638 0.067933187 -0.8271873 75 72 72
-0.24598338 0.065625608 -0.82647365 111 101 105
-0.24594143 0.066090196 -0.82615882 128 119 123
-0.24591136 0.066654675 -0.82587743 145 137 140
-0.24576835 0.066501923 -0.8252219 167 157 161
-0.24609932 0.064577281 -0.82728702 68 58 63
-0.24635944 0.064226143 -0.82836729 28 18 23
-0.24631223 0.063298464 -0.82744104 53 39 46
-0.24684094 0.062417481 -0.82842112 62 44 51
-0.24721889 0.060974445 -0.82844383 89 65 73
-0.24645633 0.062079534 -0.82689238 80 61 69
-0.24654222 0.061150301 -0.82639647 101 78 88
-0.24615577 0.061437141 -0.82532495 109 87 97
-0.24596481 0.06408979 -0.82639289 95 82 88
-0.24585944 0.064116478 -0.82590282 113 99 105
-0.24576083 0.064423032 -0.82565558 125 111 117
-0.2458946 0.06352713 -0.82563025 117 101 108
-0.24708623 0.058441464 -0.82643056 128 107 120
-0.24747436 0.058799963 -0.82780969 125 105 116
-0.24721213 0.057628036 -0.82630605 142 124 138
-0.24733077 0.058146395 -0.82697904 134 115 129
-0.24687295 0.058671962 -0.82587492 131 109 122
-0.24713935 0.060006958 -0.82751548 108 83 93
-0.24719955 0.059685111 -0.82752335 111 87 97
-0.24665888 0.060325328 -0.82614291 116 91 102
-0.24683025 0.059543569 -0.8262437 121 98 109
0 0 0 1 0 0 0 1 0 0 0 1 0 0 0 0 0 371 1 0 0
