ply
format ascii 1.0
comment PCL generated
element vertex 122
property float x
property float y
property float z
property uchar red
property uchar green
property uchar blue
element camera 1
property float view_px
property float view_py
property float view_pz
property float x_axisx
property float x_axisy
property float x_axisz
property float y_axisx
property float y_axisy
property float y_axisz
property float z_axisx
property float z_axisy
property float z_axisz
property float focal
property float scalex
property float scaley
property float centerx
property float centery
property int viewportx
property int viewporty
property float k1
property float k2
end_header
-0.34379816 0.064761631 -0.91224808 31 30 19
-0.34506398 0.066233106 -0.91276401 23 23 14
-0.3420395 0.061038487 -0.91309595 38 24 19
-0.34203914 0.061894998 -0.91222072 38 24 19
-0.34181297 0.063291505 -0.91055852 39 24 19
-0.3422752 0.063348845 -0.91087526 29 18 15
-0.34205368 0.062700868 -0.91140717 38 24 19
-0.34269476 0.0618187 -0.91290611 31 21 17
-0.34339967 0.063919656 -0.91212606 24 22 14
-0.34334749 0.063512579 -0.9125163 27 24 16
-0.34306976 0.061454117 -0.91435897 43 33 25
-0.34321553 0.062846608 -0.91271126 25 20 14
-0.34316304 0.062203132 -0.91361457 36 29 21
-0.34047055 0.061067566 -0.91172796 71 36 35
-0.34093168 0.060784288 -0.91239595 59 32 29
-0.34075713 0.061994318 -0.91101658 65 34 32
-0.34176505 0.063162997 -0.91065055 40 25 20
-0.34113771 0.061996583 -0.91132683 55 30 27
-0.34121215 0.06166153 -0.91173023 53 29 26
-0.34247318 0.060099039 -0.91438591 39 26 22
-0.33939421 0.060179163 -0.91154182 91 44 45
-0.33963981 0.058530152 -0.91283447 59 54 34
-0.33863491 0.058748208 -0.91180831 86 58 46
-0.34010482 0.059408806 -0.91264379 61 44 33
-0.33933002 0.059193406 -0.91211319 76 50 40
-0.33921272 0.058981624 -0.91215461 76 53 41
-0.33916873 0.05792769 -0.9128322 61 62 37
-0.33886006 0.059812192 -0.91128218 97 47 48
-0.3409338 0.059046954 -0.91366822 48 39 28
-0.34169364 0.059166163 -0.91430563 44 29 25
-0.33990934 0.058072001 -0.91343123 57 54 34
-0.34013736 0.058032285 -0.91368985 56 52 34
-0.33930874 0.057196807 -0.91365558 67 72 43
-0.33943847 0.057419293 -0.91355532 64 66 40
-0.33906347 0.056460176 -0.91428781 72 87 48
-0.33806071 0.055974133 -0.91385162 66 84 41
-0.34464422 0.052944526 -0.92272949 57 33 18
-0.34523055 0.053151738 -0.92339063 56 31 21
-0.34480053 0.056761369 -0.9201991 35 23 21
-0.3446466 0.058361873 -0.92009181 21 14 12
-0.34516826 0.057175718 -0.92059857 31 20 18
-0.34407559 0.057066228 -0.91944951 33 22 19
-0.34370038 0.057075821 -0.91905648 34 22 20
-0.34316322 0.057800878 -0.9185192 27 18 16
-0.34355852 0.058210135 -0.91894722 23 15 13
-0.34513089 0.056257691 -0.92068201 40 26 22
-0.34399185 0.055487122 -0.91977078 51 32 24
-0.34248471 0.054084174 -0.91870582 71 44 29
-0.34509519 0.056261089 -0.92064333 40 26 22
-0.34317282 0.055857547 -0.91877627 48 31 24
-0.34247014 0.05341094 -0.91908342 76 47 30
-0.34553438 0.056341477 -0.92110288 38 24 21
-0.3450183 0.054488163 -0.92147976 56 33 18
-0.3426303 0.053445321 -0.91925287 75 46 30
-0.34347564 0.053948745 -0.91997039 67 41 26
-0.34364876 0.054181874 -0.92004883 64 39 26
-0.3428005 0.052830689 -0.92005366 74 45 26
-0.3440704 0.053700726 -0.92084342 65 39 22
-0.34517801 0.054102417 -0.92199814 56 33 16
-0.34365869 0.052725274 -0.9215045 64 38 20
-0.34185639 0.052140947 -0.92037946 60 37 22
-0.34340301 0.052345045 -0.92216229 51 31 15
-0.34344298 0.052595522 -0.92153424 61 36 19
-0.34339347 0.064929903 -0.90549487 49 32 27
-0.34358326 0.067049794 -0.90421289 23 15 13
-0.34428912 0.066467047 -0.90623456 33 22 18
-0.34402257 0.066900492 -0.90531969 26 17 14
-0.34400424 0.065680817 -0.90614367 47 31 26
-0.34197873 0.063891441 -0.90482372 25 16 14
-0.34201956 0.063373044 -0.90623021 44 29 25
-0.34197524 0.063461058 -0.90592593 40 26 23
-0.34151059 0.063923009 -0.90423304 24 15 13
-0.34049243 0.063593633 -0.90440315 56 35 29
-0.34174725 0.063153587 -0.90637207 45 29 26
-0.34086424 0.06398724 -0.90363717 35 22 17
-0.33969873 0.063206233 -0.90494204 85 57 45
-0.34103149 0.063106336 -0.90604699 61 41 34
-0.34397763 0.065465346 -0.90807581 26 17 14
-0.34365109 0.064523138 -0.90834194 38 25 21
-0.34393817 0.065175615 -0.90766591 38 25 21
-0.34251237 0.063792355 -0.91001064 22 14 11
-0.34228328 0.063641377 -0.91035205 27 17 14
-0.34199786 0.063377447 -0.90947801 37 23 19
-0.34344989 0.064352475 -0.90859789 33 21 18
-0.34338343 0.064166553 -0.90693039 60 39 33
-0.34355643 0.064325467 -0.90741795 54 35 30
-0.34340402 0.064343266 -0.9088589 28 18 15
-0.3409785 0.062974378 -0.90992993 61 42 34
-0.34084174 0.063016571 -0.90898407 66 50 39
-0.34132081 0.063147292 -0.90965819 53 37 29
-0.34311563 0.061606467 -0.91454852 45 36 26
-0.34291151 0.060607389 -0.91663444 16 11 9
-0.34205094 0.057149839 -0.9165225 48 31 28
-0.34289348 0.056685798 -0.91810316 40 27 24
-0.34283814 0.05983771 -0.91507876 37 25 21
-0.34259784 0.057733241 -0.91675818 40 26 23
-0.34255281 0.059836928 -0.91471821 39 26 22
-0.34296396 0.058760747 -0.9171747 29 19 16
-0.34291372 0.06011837 -0.91677356 19 13 11
-0.34292614 0.059731353 -0.91672772 23 15 13
-0.34300122 0.057748869 -0.91745657 36 24 21
-0.34293956 0.059452396 -0.91707236 23 15 13
-0.34124136 0.056667585 -0.91608298 58 47 36
-0.34160823 0.058004979 -0.91524452 49 35 30
-0.3416343 0.058124039 -0.91516387 49 35 29
-0.34045202 0.057056386 -0.91501731 64 64 41
-0.3425203 0.05657478 -0.91765523 45 30 26
-0.34195572 0.05432317 -0.91796672 71 44 30
-0.34187436 0.054074172 -0.91797483 75 46 31
-0.33837816 0.055752888 -0.91455323 63 83 39
-0.34093291 0.056362215 -0.91615337 54 45 32
-0.33958161 0.055068053 -0.91615075 50 43 27
-0.33839682 0.054324191 -0.91582006 50 50 26
-0.33856124 0.05497342 -0.9154073 54 61 30
-0.34125054 0.056399014 -0.91637862 53 40 32
-0.33852667 0.054101907 -0.91611159 47 42 24
-0.3411575 0.05541632 -0.91692281 56 36 29
-0.34040806 0.054193594 -0.91717863 57 36 26
-0.34160566 0.056352127 -0.91667002 53 34 31
-0.34095871 0.055297676 -0.91689044 54 35 28
-0.33966169 0.054068111 -0.91690117 49 31 23
-0.33972177 0.053044129 -0.91742754 59 36 23
0 0 0 1 0 0 0 1 0 0 0 1 0 0 0 0 0 122 1 0 0
