ply
format ascii 1.0
comment PCL generated
element vertex 105
property float x
property float y
property float z
property uchar red
property uchar green
property uchar blue
element camera 1
property float view_px
property float view_py
property float view_pz
property float x_axisx
property float x_axisy
property float x_axisz
property float y_axisx
property float y_axisy
property float y_axisz
property float z_axisx
property float z_axisy
property float z_axisz
property float focal
property float scalex
property float scaley
property float centerx
property float centery
property int viewportx
property int viewporty
property float k1
property float k2
end_header
-0.14682327 -0.49293762 -0.72456378 137 104 133
-0.14668645 -0.49220347 -0.72421682 134 92 131
-0.14650668 -0.49304476 -0.72421819 135 106 131
-0.1461346 -0.49351236 -0.72392261 134 109 129
-0.14592667 -0.49369439 -0.72373825 133 109 127
-0.14468452 -0.49801189 -0.72314596 114 95 128
-0.14544079 -0.49703878 -0.72378522 125 107 133
-0.1457981 -0.49508125 -0.72387391 131 113 130
-0.14531212 -0.49518421 -0.72335339 127 107 125
-0.14697413 -0.50024825 -0.72573894 137 119 139
-0.14674191 -0.50026858 -0.72550339 135 116 137
-0.14702351 -0.5004102 -0.72580951 137 119 139
-0.14621964 -0.50078601 -0.72506285 128 107 130
-0.14643483 -0.50134712 -0.72532696 128 108 129
-0.14536004 -0.50138092 -0.72435665 116 95 120
-0.14643537 -0.50150615 -0.72534698 128 107 128
-0.14607818 -0.50092137 -0.72495127 126 105 129
-0.14508438 -0.49870425 -0.7236802 119 100 130
-0.14532174 -0.49969968 -0.72411096 122 102 130
-0.14508706 -0.49836621 -0.72361791 120 101 131
-0.14490017 -0.49835601 -0.72342741 117 98 129
-0.1472315 -0.50214624 -0.72623748 133 115 131
-0.147743 -0.50329721 -0.72691172 136 121 131
-0.14724515 -0.50329196 -0.72640061 132 115 128
-0.14663011 -0.50400901 -0.72584933 129 109 124
-0.14722441 -0.50570691 -0.72668618 130 115 123
-0.14636351 -0.50322729 -0.72549605 129 107 125
-0.14415084 -0.50529087 -0.72384244 145 112 133
-0.14622083 -0.50474113 -0.7255559 131 109 125
-0.14636961 -0.50251681 -0.72541565 128 106 126
-0.14560384 -0.50300938 -0.72481662 133 108 128
-0.14548625 -0.50380915 -0.72481197 135 109 128
-0.14457169 -0.50413126 -0.72406209 140 110 131
-0.14550477 -0.50201565 -0.72456825 116 95 119
-0.14552358 -0.50224751 -0.72462255 120 98 121
-0.14569613 -0.50196201 -0.72473311 118 96 120
-0.14703523 -0.50715792 -0.72668016 131 114 133
-0.14552717 -0.50607449 -0.72512144 136 112 128
-0.14483577 -0.50655186 -0.72458696 140 115 131
-0.14485459 -0.4931531 -0.72246987 125 98 123
-0.14441563 -0.49199784 -0.72176039 120 86 126
-0.14523889 -0.49287942 -0.7227996 127 94 123
-0.14432451 -0.49275565 -0.72183931 121 95 125
-0.14384679 -0.49290559 -0.72135711 115 90 117
-0.14409065 -0.49293143 -0.72162414 118 93 120
-0.14484237 -0.49495685 -0.72280043 123 102 119
-0.14431401 -0.49591187 -0.72239512 115 94 115
-0.14444031 -0.49426877 -0.72225094 120 98 111
-0.14481433 -0.49655551 -0.72304267 119 99 124
-0.1441125 -0.49741659 -0.72245872 110 90 118
-0.14388208 -0.49797955 -0.72239172 110 91 119
-0.13970555 -0.50171304 -0.71926832 120 84 121
-0.14318147 -0.50497025 -0.72293258 139 106 129
-0.14284751 -0.50431156 -0.72251278 131 101 123
-0.13996437 -0.50353038 -0.71991611 127 96 129
-0.13967715 -0.50278473 -0.71948183 124 90 126
-0.14032467 -0.50286233 -0.72007686 120 89 122
-0.14160478 -0.50433576 -0.72147787 133 105 130
-0.14205925 -0.50499028 -0.72196269 144 114 135
-0.14214817 -0.50440013 -0.72193396 135 107 129
-0.14158392 -0.50408059 -0.72141689 129 102 127
-0.14104712 -0.50394607 -0.72095406 127 99 127
-0.15104517 -0.50379926 -0.73036385 143 115 144
-0.15079513 -0.50436378 -0.73017728 137 106 138
-0.15121828 -0.50541347 -0.73070067 134 98 137
-0.14826638 -0.50560135 -0.72775543 129 110 124
-0.14828573 -0.50476396 -0.72767526 136 121 130
-0.15016191 -0.50482696 -0.72961652 128 97 129
-0.15012217 -0.50556701 -0.72966403 123 87 124
-0.14909756 -0.50555617 -0.72860664 127 100 124
-0.14790235 -0.50429767 -0.72721112 135 121 129
-0.15088825 -0.50744671 -0.73046613 123 89 126
-0.1507038 -0.50588459 -0.7302705 124 84 126
-0.15071946 -0.50745595 -0.73031044 121 87 124
-0.14901648 -0.50918847 -0.72882801 124 99 133
-0.14992152 -0.50735956 -0.72959673 121 87 125
-0.14968278 -0.50829697 -0.72940999 121 92 127
-0.14901893 -0.50878239 -0.72881591 124 98 134
-0.14944567 -0.50929517 -0.72922695 122 96 129
-0.14806303 -0.50761348 -0.72780806 128 106 136
-0.1476545 -0.50705528 -0.72731334 130 112 132
-0.14814806 -0.50790703 -0.72793442 128 104 138
-0.14864476 -0.50608832 -0.72820646 126 101 124
-0.15090945 -0.51017475 -0.73055935 124 99 127
-0.15100011 -0.51118255 -0.73065203 132 112 132
-0.14945199 -0.5112021 -0.72928673 135 111 129
-0.15007216 -0.51019591 -0.72983152 123 96 123
-0.14997093 -0.51005763 -0.7297346 122 96 124
-0.14891343 -0.51067615 -0.72877669 132 108 132
-0.13929093 -0.50193048 -0.71893126 120 80 121
-0.13904907 -0.50261956 -0.71888047 125 85 127
-0.15302207 -0.50532949 -0.73248041 156 126 158
-0.15245354 -0.50546825 -0.73193264 148 115 150
-0.15287043 -0.50440979 -0.73226231 157 128 156
-0.15189379 -0.50900424 -0.73145777 133 108 138
-0.15249357 -0.50825399 -0.7320348 142 118 147
-0.15308595 -0.50824666 -0.7325927 152 129 155
-0.15302262 -0.50922805 -0.732517 150 131 152
-0.15217473 -0.50824147 -0.73172367 138 112 143
-0.15136653 -0.50609905 -0.73089838 132 94 136
-0.15263453 -0.50588101 -0.73214006 150 117 153
-0.15256861 -0.50651091 -0.73208469 147 116 151
-0.15312061 -0.50609618 -0.73262054 155 126 159
-0.15279646 -0.50761259 -0.73232478 148 122 152
-0.15142834 -0.51079965 -0.73102528 134 113 135
0 0 0 1 0 0 0 1 0 0 0 1 0 0 0 0 0 105 1 0 0
