ply
format ascii 1.0
comment PCL generated
element vertex 149
property float x
property float y
property float z
property uchar red
property uchar green
property uchar blue
element camera 1
property float view_px
property float view_py
property float view_pz
property float x_axisx
property float x_axisy
property float x_axisz
property float y_axisx
property float y_axisy
property float y_axisz
property float z_axisx
property float z_axisy
property float z_axisz
property float focal
property float scalex
property float scaley
property float centerx
property float centery
property int viewportx
property int viewporty
property float k1
property float k2
end_header
-0.34353325 0.064462364 -0.89576942 66 57 51
-0.34229901 0.064689882 -0.89734256 19 16 14
-0.34227225 0.065491907 -0.89645362 18 15 13
-0.34181184 0.065662988 -0.89694059 0 0 0
-0.34222308 0.065477431 -0.8965435 16 14 12
-0.34177402 0.067026809 -0.89547658 0 0 0
-0.34148443 0.067973621 -0.89553356 0 0 0
-0.34125534 0.067439385 -0.89732343 2 1 0
-0.34129736 0.068196364 -0.89640558 0 0 0
-0.34148636 0.066468552 -0.89686865 4 2 1
-0.34143165 0.067814805 -0.8959778 1 0 0
-0.34230235 0.062858447 -0.89550507 66 47 39
-0.34273499 0.063321494 -0.89547312 69 52 44
-0.34228662 0.063946664 -0.8969664 33 26 22
-0.34212351 0.062243696 -0.89495897 78 53 43
-0.34185654 0.06364385 -0.89720625 26 17 14
-0.3416492 0.064341143 -0.89841908 7 4 3
-0.34123039 0.063331924 -0.89734852 45 28 22
-0.34162623 0.063063718 -0.89675194 46 29 23
-0.34110114 0.062661588 -0.89645982 67 41 34
-0.34144062 0.06303668 -0.89681321 50 31 25
-0.34104615 0.062277477 -0.8959403 79 49 40
-0.34148002 0.063781977 -0.89785743 27 17 13
-0.34711939 0.068667926 -0.91340262 7 4 4
-0.34680504 0.068608023 -0.91183066 18 12 10
-0.3463591 0.067657046 -0.91215676 0 0 0
-0.34664151 0.067761198 -0.91424471 0 0 0
-0.34671175 0.067893274 -0.91315675 0 0 0
-0.34685716 0.068199649 -0.91258138 9 6 5
-0.34613287 0.067682572 -0.91090316 9 5 5
-0.34378836 0.064514309 -0.91416711 66 65 40
-0.34469435 0.066019334 -0.9105525 0 0 0
-0.34391358 0.065026306 -0.91119397 11 11 7
-0.34345749 0.06447275 -0.91135299 14 14 9
-0.34527582 0.0665529 -0.912045 15 15 9
-0.34550691 0.066769116 -0.91326922 7 7 4
-0.34569409 0.067075551 -0.91227299 0 0 0
-0.34148395 0.068566687 -0.89966935 0 0 0
-0.35082889 0.065124922 -0.90239513 83 73 66
-0.35078034 0.067236349 -0.90222269 31 27 24
-0.35067448 0.066895291 -0.90147537 44 38 34
-0.35063383 0.065372981 -0.90108413 85 74 67
-0.35076621 0.065149851 -0.90196973 85 75 68
-0.35064188 0.06764783 -0.90083146 22 19 17
-0.35048264 0.067196943 -0.89926404 36 31 28
-0.35065657 0.068307094 -0.900639 1 1 1
-0.35052162 0.067453764 -0.89956814 28 24 22
-0.35067871 0.068317011 -0.90088576 1 1 1
-0.3506622 0.067955874 -0.90089458 12 10 9
-0.34232774 0.067363277 -0.90200841 0 0 0
-0.3429518 0.06777624 -0.90256959 0 0 0
-0.34192425 0.066333294 -0.90208399 0 0 0
-0.34288564 0.06804581 -0.90233004 0 0 0
-0.34164497 0.067138478 -0.90139699 4 2 1
-0.34114695 0.068069749 -0.89968044 1 0 0
-0.3415713 0.067198403 -0.90128541 5 3 2
-0.34157136 0.067240655 -0.90124965 5 3 2
-0.34096473 0.067474835 -0.89909756 2 1 1
-0.34100619 0.066980839 -0.89952785 4 2 2
-0.34107664 0.065286495 -0.90186799 14 8 6
-0.3414 0.064477623 -0.89949304 10 5 4
-0.34109303 0.066301078 -0.89976066 6 4 3
-0.35387611 0.061669737 -0.90269995 103 86 81
-0.35188577 0.0628241 -0.90167618 111 94 87
-0.35210636 0.06292814 -0.90220183 104 88 81
-0.35218629 0.063074447 -0.90257019 99 85 78
-0.35082671 0.064141318 -0.90117669 110 95 86
-0.35062706 0.06437362 -0.90067518 111 97 87
-0.33994028 0.063899711 -0.8994292 52 31 26
-0.34133539 0.064434901 -0.89973921 12 7 5
-0.34126708 0.064421393 -0.90012991 14 8 6
-0.34457511 0.060739391 -0.91987842 0 0 0
-0.34455761 0.060640633 -0.91997021 0 0 0
-0.34539783 0.062049601 -0.91927928 0 0 0
-0.34547612 0.062941931 -0.91836679 0 0 0
-0.34564504 0.062525645 -0.91900748 0 0 0
-0.3447347 0.060254209 -0.92024958 2 1 1
-0.3430298 0.05968431 -0.91844565 8 5 5
-0.34499517 0.060331356 -0.92052478 2 1 1
-0.35484082 0.067728654 -0.90618551 22 15 15
-0.35429257 0.068047978 -0.90577579 10 7 7
-0.35570183 0.066234514 -0.90639716 74 53 50
-0.35493201 0.0649001 -0.90579915 100 76 70
-0.35352191 0.066239111 -0.90513575 48 40 36
-0.35404992 0.067267023 -0.9053849 32 24 23
-0.35360834 0.068183258 -0.90517741 5 4 3
-0.35357043 0.067347817 -0.90515912 24 19 17
-0.35278192 0.064725913 -0.90446281 86 72 65
-0.35296249 0.066564709 -0.90462846 43 36 33
-0.35308546 0.065225057 -0.9047398 73 61 55
-0.35299709 0.06743063 -0.9046604 23 20 18
-0.35282224 0.064465702 -0.90449941 92 77 69
-0.35297292 0.06803789 -0.90464318 8 7 6
-0.35170978 0.067365244 -0.9035024 25 22 20
-0.3516103 0.066769399 -0.90340722 40 35 32
-0.35170087 0.067492716 -0.90349567 21 19 17
-0.35168907 0.065662429 -0.903467 68 60 54
-0.34230953 0.065383941 -0.90326083 9 6 5
-0.34274146 0.066311754 -0.90328717 9 6 5
-0.34254757 0.066200905 -0.90303725 5 3 3
-0.34270859 0.065898687 -0.90355206 14 9 8
-0.34311113 0.066809468 -0.90354073 14 9 8
-0.34488088 0.067977242 -0.90651077 6 4 3
-0.34429216 0.067963891 -0.90517908 7 4 3
-0.34151492 0.064578705 -0.90283287 7 4 3
-0.35377815 0.063464254 -0.90433884 97 80 74
-0.35359803 0.063582413 -0.90436339 93 77 70
-0.3538104 0.062293109 -0.90326804 100 83 78
-0.35437512 0.063329935 -0.90459085 106 88 83
-0.35466269 0.064342216 -0.90560061 106 83 76
-0.35459676 0.063610271 -0.90509737 106 86 80
-0.35309923 0.063600458 -0.90396142 93 78 71
-0.35311228 0.062674969 -0.90311509 95 80 73
-0.35280681 0.063569613 -0.9036662 94 79 72
-0.34616449 0.069002688 -0.90890884 15 9 8
-0.34536761 0.068878785 -0.90695584 0 0 0
-0.34603149 0.068139233 -0.90958172 10 6 6
-0.34525141 0.066908687 -0.91008675 0 0 0
-0.34490818 0.066872425 -0.90937519 0 0 0
-0.34454879 0.066293307 -0.90968329 0 0 0
-0.34490091 0.067096002 -0.90891135 0 0 0
-0.34352934 0.064761199 -0.91033882 0 0 0
-0.34483036 0.067789786 -0.90726453 0 0 0
-0.34422874 0.066359423 -0.90829736 6 4 3
-0.34368786 0.065131105 -0.90957385 5 3 2
-0.3443948 0.066541381 -0.90741479 18 12 10
-0.34213173 0.062154572 -0.89487529 81 55 45
-0.34393975 0.063539855 -0.89399928 82 67 58
-0.34344375 0.063103311 -0.89436507 95 75 65
-0.3445394 0.06430874 -0.89388829 70 61 53
-0.34504354 0.063949391 -0.89241368 47 39 33
-0.34415853 0.061447121 -0.89336616 111 87 77
-0.34564126 0.061671793 -0.89308482 113 97 88
-0.34493282 0.061172388 -0.8933962 124 102 92
-0.3441835 0.062760793 -0.89277017 71 53 46
-0.34459794 0.063007548 -0.89260852 66 52 44
-0.34464249 0.065531418 -0.91449165 39 38 24
-0.34565485 0.065446347 -0.91560191 1 1 1
-0.34543183 0.066122703 -0.9148308 10 9 6
-0.34465218 0.062410995 -0.91800994 0 0 0
-0.34545141 0.064040482 -0.91670811 0 0 0
-0.34375021 0.062017266 -0.91741681 8 7 4
-0.34398586 0.062374268 -0.91722268 8 8 5
-0.34398288 0.063153811 -0.91626585 29 29 18
-0.34404346 0.064399853 -0.91480368 60 59 36
-0.34437916 0.062867299 -0.91702431 7 7 4
-0.34290916 0.06055053 -0.91753942 7 5 4
-0.34355304 0.063479424 -0.91529149 55 54 33
-0.34343767 0.062943771 -0.91590548 44 43 27
0 0 0 1 0 0 0 1 0 0 0 1 0 0 0 0 0 149 1 0 0
