ply
format ascii 1.0
comment PCL generated
element vertex 971
property float x
property float y
property float z
property uchar red
property uchar green
property uchar blue
element camera 1
property float view_px
property float view_py
property float view_pz
property float x_axisx
property float x_axisy
property float x_axisz
property float y_axisx
property float y_axisy
property float y_axisz
property float z_axisx
property float z_axisy
property float z_axisz
property float focal
property float scalex
property float scaley
property float centerx
property float centery
property int viewportx
property int viewporty
property float k1
property float k2
end_header
-0.21413174 0.3855429 -0.82062435 214 210 197
-0.2133089 0.3866002 -0.82004565 214 205 199
-0.21327372 0.3862825 -0.8199122 212 203 195
-0.21314156 0.38675287 -0.81990886 214 203 198
-0.21355487 0.38640931 -0.82025683 215 207 199
-0.21232721 0.38501304 -0.8185131 201 187 176
-0.21128441 0.38751447 -0.81789225 188 170 172
-0.21129309 0.38672325 -0.81777787 192 172 175
-0.21113364 0.38593227 -0.81744027 192 170 173
-0.21430959 0.38368908 -0.82054329 209 200 189
-0.21349558 0.3846291 -0.81969464 206 200 183
-0.21297011 0.38461724 -0.81912112 204 194 177
-0.21378808 0.38219595 -0.81986934 204 184 181
-0.21321091 0.38291362 -0.81921256 203 187 179
-0.21301933 0.38421974 -0.81913584 203 192 177
-0.21422397 0.38165098 -0.82036495 204 181 183
-0.21217015 0.38101435 -0.81777853 201 180 178
-0.21267477 0.38208264 -0.81845611 201 184 178
-0.21254392 0.38246831 -0.81836808 202 186 178
-0.21161701 0.38361508 -0.81753093 197 178 173
-0.21198007 0.3844122 -0.81802243 198 182 173
-0.21193877 0.38342664 -0.81784987 200 183 175
-0.21266334 0.3845318 -0.81876743 202 192 176
-0.21408546 0.38026363 -0.82006824 203 182 182
-0.21388102 0.38038963 -0.81980437 203 181 182
-0.2141953 0.37977952 -0.82020193 204 184 182
-0.21347974 0.37992361 -0.8192727 202 185 180
-0.21305814 0.37922508 -0.81880999 205 188 182
-0.21345508 0.37735441 -0.81936836 210 196 184
-0.21304613 0.3781606 -0.81886059 209 192 184
-0.21324953 0.37953344 -0.81900644 203 187 181
-0.21136731 0.377112 -0.81707376 204 183 173
-0.21171263 0.37739694 -0.81743634 205 185 175
-0.21207944 0.37869811 -0.81776148 203 183 176
-0.21219245 0.38062716 -0.81779164 201 179 178
-0.21136495 0.37916142 -0.81697559 201 180 175
-0.21160345 0.37970054 -0.81720579 201 179 176
-0.21170923 0.38034061 -0.81729048 201 179 177
-0.21438929 0.37382481 -0.82048035 206 174 182
-0.21393904 0.3762522 -0.81994468 209 193 183
-0.2135179 0.37662524 -0.81946713 211 196 185
-0.21385153 0.3752799 -0.81985843 209 185 184
-0.2140277 0.37367642 -0.82007223 206 172 180
-0.21403477 0.37419581 -0.820077 208 176 183
-0.21302545 0.37645885 -0.81891501 212 193 186
-0.21353899 0.37381732 -0.81951576 205 171 178
-0.21217792 0.37425336 -0.81779164 207 181 178
-0.2121446 0.37426564 -0.81774557 207 182 178
-0.21289089 0.37651867 -0.81876171 212 194 185
-0.21270485 0.37371466 -0.81852269 204 171 173
-0.21212196 0.37635452 -0.81785512 209 190 180
-0.21179736 0.37549379 -0.81741452 207 185 178
-0.21151452 0.37488854 -0.81704468 205 182 175
-0.21204661 0.37571827 -0.8177104 208 188 180
-0.21156806 0.37082571 -0.81704992 198 178 173
-0.21185379 0.37206274 -0.81739289 201 174 173
-0.2120368 0.37159842 -0.81766492 199 172 172
-0.22496313 0.40095079 -0.83734965 154 129 130
-0.22572583 0.40206647 -0.83954817 163 122 137
-0.22600354 0.40161613 -0.83986706 162 126 136
-0.22570039 0.40064162 -0.83869463 157 132 131
-0.22573963 0.40186888 -0.8394655 162 124 136
-0.2260246 0.40182957 -0.84003049 163 124 137
-0.22452991 0.40168265 -0.83690685 154 120 131
-0.22553979 0.39708856 -0.83733553 177 132 144
-0.22641243 0.39651358 -0.83878779 190 159 162
-0.22592938 0.39703727 -0.83805019 181 143 151
-0.22572114 0.39811516 -0.83800733 171 130 139
-0.22575036 0.39774027 -0.83794117 174 133 142
-0.22616504 0.39662147 -0.83835828 187 152 158
-0.22580643 0.39916626 -0.83845764 164 132 135
-0.22537124 0.39744872 -0.83712012 173 127 140
-0.22564065 0.39844066 -0.8379299 168 130 137
-0.2253911 0.3988727 -0.83752674 164 130 135
-0.22610371 0.40011355 -0.83931339 160 134 132
-0.22489369 0.40018177 -0.83683813 153 132 128
-0.22783157 0.39292005 -0.83916724 201 186 176
-0.22696228 0.39399192 -0.83852279 196 181 170
-0.22716358 0.39407396 -0.83885628 197 182 172
-0.22730918 0.39598399 -0.8401286 199 181 175
-0.22668782 0.39436662 -0.83833927 195 180 168
-0.22750838 0.39431894 -0.83948565 200 183 175
-0.22747196 0.39476165 -0.83968025 200 183 175
-0.22583508 0.39645314 -0.83768171 185 144 154
-0.22546649 0.39553881 -0.83660722 182 141 149
-0.22601399 0.39457816 -0.83723271 188 164 158
-0.22550653 0.39576378 -0.83677649 182 141 149
-0.22576375 0.39515051 -0.83700258 185 152 154
-0.22544129 0.39565137 -0.83660698 182 140 148
-0.22872925 0.39184046 -0.84023237 208 193 189
-0.22868013 0.39110956 -0.84004611 210 196 193
-0.22857977 0.39180252 -0.83993828 205 190 185
-0.227082 0.38868183 -0.8372457 184 163 166
-0.22834596 0.39009878 -0.83922356 203 188 185
-0.22799528 0.39072567 -0.83887333 196 179 176
-0.22834273 0.38916597 -0.83903778 204 190 189
-0.22799405 0.38875964 -0.83848912 199 183 184
-0.22651634 0.38921595 -0.83657444 177 153 155
-0.22741242 0.39157563 -0.83821195 192 175 168
-0.22808906 0.39211717 -0.83925718 197 181 174
-0.22625789 0.39231446 -0.83668512 190 177 161
-0.22700967 0.39011914 -0.83741492 183 162 161
-0.22773783 0.39176476 -0.83870363 194 178 171
-0.22887701 0.38663077 -0.84002888 213 196 201
-0.22885285 0.38761169 -0.83997959 216 201 206
-0.22864127 0.38713446 -0.83948189 207 192 193
-0.22826113 0.38659054 -0.83894199 205 189 188
-0.22767338 0.38690814 -0.83824724 206 191 189
-0.22709535 0.38618815 -0.83759576 206 190 187
-0.22787942 0.38531393 -0.83853638 203 185 184
-0.2266801 0.38560909 -0.83712965 206 189 186
-0.22658575 0.38835937 -0.83662206 180 156 159
-0.22658314 0.38613909 -0.83694923 202 184 182
-0.22687319 0.38766223 -0.83711302 191 171 172
-0.22625159 0.38572937 -0.83656377 200 182 179
-0.22657827 0.38764304 -0.83671868 187 165 166
-0.22141382 0.38494074 -0.83925104 225 211 215
-0.22208215 0.38509083 -0.83985817 221 205 212
-0.21987234 0.38578913 -0.84002382 221 206 206
-0.21945001 0.38507894 -0.83999181 222 207 207
-0.22044283 0.38664719 -0.84000462 220 205 204
-0.22555433 0.38169599 -0.83639777 216 198 200
-0.22541845 0.38140893 -0.83672321 218 200 204
-0.22512208 0.38088652 -0.83747685 222 205 210
-0.22511095 0.38146728 -0.83775878 222 204 209
-0.22666121 0.38358095 -0.83826721 210 193 192
-0.22786906 0.3833507 -0.83969676 209 191 191
-0.22561902 0.38340572 -0.83743173 213 196 196
-0.22737373 0.38372672 -0.8388108 208 190 189
-0.22602396 0.38186511 -0.83946866 221 203 208
-0.22594103 0.38209432 -0.83914334 219 202 206
-0.22512238 0.38126788 -0.83922017 225 208 215
-0.22546314 0.38179412 -0.84010303 222 205 211
-0.22778225 0.3844628 -0.83865494 204 186 184
-0.22758061 0.38399804 -0.83874959 206 188 186
-0.22274745 0.3842268 -0.83994961 222 205 214
-0.22318712 0.38331684 -0.83991563 224 207 215
-0.22290473 0.38305479 -0.83959091 226 211 217
-0.2229332 0.38349745 -0.83979404 224 208 216
-0.2228177 0.3827073 -0.83900607 229 213 219
-0.22334194 0.38238272 -0.83946604 227 212 218
-0.22237054 0.38134828 -0.83872724 232 218 223
-0.22152938 0.38199794 -0.83859587 233 220 223
-0.2220405 0.3811717 -0.83864945 233 220 223
-0.22098233 0.38389966 -0.8386001 230 217 220
-0.22143444 0.38251123 -0.83860767 232 219 222
-0.22027555 0.3818197 -0.83883178 233 221 221
-0.2192122 0.38388485 -0.84006184 224 209 209
-0.22042924 0.38139725 -0.8386746 234 223 223
-0.22032189 0.38443187 -0.83894163 228 215 216
-0.22067097 0.38423634 -0.83859462 230 218 219
-0.22056942 0.38164788 -0.83853513 234 223 224
-0.22471316 0.3789911 -0.83769244 217 193 193
-0.2248712 0.38065985 -0.83817089 224 206 212
-0.2246778 0.37982148 -0.83830529 222 201 204
-0.22492053 0.37911701 -0.83708608 215 192 191
-0.22496787 0.37839726 -0.83650899 211 185 180
-0.22073154 0.37708339 -0.83685791 219 203 204
-0.22238334 0.37783584 -0.8371613 217 197 193
-0.22093357 0.37861282 -0.83746654 225 211 211
-0.22169581 0.37820479 -0.83730626 221 203 202
-0.22248909 0.37745199 -0.83700895 215 194 190
-0.22179888 0.38037387 -0.83829135 232 217 218
-0.22424108 0.37891263 -0.83791327 218 195 194
-0.2242038 0.37865388 -0.83775097 217 193 191
-0.22400555 0.37819278 -0.83743495 215 190 185
-0.22432765 0.3804456 -0.8388477 227 209 215
-0.22381671 0.38063794 -0.83885896 229 212 218
-0.21958068 0.37702754 -0.83869612 214 194 195
-0.21961717 0.37887219 -0.83925933 222 207 205
-0.2191409 0.37847137 -0.83991516 218 200 199
-0.2203283 0.37801689 -0.8377884 221 207 206
-0.21910788 0.37796831 -0.83979988 216 196 197
-0.22048758 0.37798661 -0.8375355 222 207 208
-0.21978037 0.38019693 -0.83946007 228 217 214
-0.22031333 0.37953863 -0.8384102 228 216 215
-0.22463425 0.37462017 -0.83750063 208 186 178
-0.22484803 0.37374341 -0.83733767 210 192 184
-0.22489567 0.37348545 -0.83733279 210 194 186
-0.2226755 0.37454304 -0.83742601 215 199 195
-0.22136462 0.37552065 -0.83697194 219 203 202
-0.2216762 0.37484846 -0.83705026 219 203 201
-0.22299808 0.37402573 -0.83751911 215 199 194
-0.22113641 0.37311211 -0.83671933 227 208 208
-0.22134373 0.37380975 -0.8368485 224 206 206
-0.22315744 0.37655634 -0.8369419 211 188 183
-0.22396505 0.37553647 -0.83727711 210 187 180
-0.22326635 0.37591723 -0.83715093 211 190 185
-0.22378853 0.37403163 -0.83776826 211 195 189
-0.22172025 0.37640277 -0.83698839 216 198 197
-0.21881209 0.37512395 -0.83657038 223 206 211
-0.21992791 0.37471271 -0.83660907 224 207 210
-0.21830083 0.37443319 -0.83649349 224 207 213
-0.22023848 0.37427405 -0.83659798 226 208 210
-0.21979733 0.37385041 -0.83654326 227 209 212
-0.21801269 0.3731167 -0.83634776 227 210 217
-0.21888295 0.37576503 -0.83756107 219 200 204
-0.21996088 0.37656093 -0.83729017 218 201 203
-0.21737386 0.37398073 -0.83666027 224 207 215
-0.21844253 0.37508735 -0.8369984 221 204 209
-0.21951349 0.37604192 -0.83704215 220 202 206
-0.21826729 0.37511358 -0.83733964 221 202 207
-0.21978009 0.37667146 -0.83780175 216 198 200
-0.21768886 0.37424797 -0.83927405 222 204 207
-0.21804306 0.3750236 -0.83992898 218 199 201
-0.21782517 0.37442866 -0.83967727 221 203 205
-0.2181284 0.37570956 -0.83944601 215 194 197
-0.21688619 0.37335855 -0.83667493 226 209 218
-0.22487821 0.37267816 -0.83742493 210 195 189
-0.22468166 0.37162527 -0.8375352 209 192 188
-0.22475213 0.37155956 -0.83736938 209 193 189
-0.22527814 0.37077773 -0.83637053 209 192 192
-0.2213797 0.3721329 -0.83660918 224 206 207
-0.22101434 0.37071791 -0.8364982 217 199 201
-0.22231451 0.37082896 -0.83669901 217 199 200
-0.22101688 0.37111622 -0.83651429 219 201 202
-0.2225434 0.3709538 -0.83673847 217 199 201
-0.22455122 0.3725152 -0.83791757 209 193 187
-0.22188742 0.37232703 -0.83680755 223 204 205
-0.22199549 0.37198591 -0.83675319 222 204 205
-0.22372088 0.37029004 -0.83695418 212 194 196
-0.22289877 0.37302378 -0.83740723 218 201 197
-0.22032286 0.37185392 -0.83645374 221 203 204
-0.22026786 0.37238252 -0.83647454 224 206 208
-0.21709725 0.37263149 -0.83937472 229 215 218
-0.21665595 0.37211549 -0.83861238 230 216 221
-0.21639809 0.3709977 -0.84022862 234 222 224
-0.21592769 0.37023014 -0.83934259 234 221 223
-0.21649182 0.37208861 -0.83758879 229 213 220
-0.2161601 0.37107748 -0.83803749 224 208 213
-0.21552411 0.36843386 -0.84003657 230 216 216
-0.22648534 0.40199953 -0.846093 179 157 159
-0.22500478 0.40306324 -0.84740466 190 163 171
-0.227106 0.40047291 -0.84490705 172 153 148
-0.22705385 0.40081576 -0.84524804 173 155 151
-0.22681743 0.40147308 -0.84593987 177 158 156
-0.22675447 0.40111494 -0.84561652 176 157 154
-0.22567359 0.40068054 -0.84550506 179 157 154
-0.22325051 0.40197563 -0.84711456 190 175 170
-0.22371598 0.40055412 -0.84573424 185 165 159
-0.22421387 0.40237448 -0.84743834 191 169 171
-0.22302178 0.40113619 -0.84632868 187 173 164
-0.22278255 0.40112957 -0.84633631 187 175 165
-0.22381942 0.40273383 -0.84783071 194 173 175
-0.22124377 0.40123832 -0.84658623 191 187 169
-0.22071347 0.40192628 -0.84739608 200 192 176
-0.22146785 0.40209243 -0.84746957 198 187 176
-0.22024098 0.40072992 -0.84656477 184 181 162
-0.21882389 0.40058953 -0.84778845 169 156 149
-0.22029282 0.40185004 -0.84771359 195 185 172
-0.21292275 0.400994 -0.84657025 56 38 46
-0.21337771 0.40109938 -0.84699881 63 43 53
-0.21532279 0.40049699 -0.84773803 104 79 91
-0.224939 0.39919013 -0.84528673 188 163 160
-0.22767553 0.39682207 -0.84445423 183 145 146
-0.22466284 0.39928377 -0.84534854 189 166 162
-0.22696617 0.39753276 -0.84468484 184 149 149
-0.22480211 0.3994678 -0.84535271 187 162 160
-0.22513673 0.39721382 -0.84495074 197 176 171
-0.22607955 0.39909369 -0.84505725 181 150 150
-0.2262255 0.39919528 -0.84502101 180 150 149
-0.22792555 0.39774609 -0.84448016 178 142 142
-0.22777964 0.39996529 -0.84462154 170 150 145
-0.22829823 0.39986598 -0.84447211 168 149 143
-0.22220255 0.39870104 -0.84537446 193 187 171
-0.22170073 0.39900428 -0.84541422 190 186 168
-0.22257504 0.39767161 -0.84507728 194 182 173
-0.22225803 0.39850521 -0.84531599 193 186 171
-0.22129041 0.39792851 -0.84500623 187 174 168
-0.22202308 0.39680484 -0.84472162 190 171 171
-0.22166155 0.39944988 -0.84555447 190 188 168
-0.22234473 0.39884812 -0.8454228 193 188 170
-0.22418559 0.39726761 -0.84507436 201 186 177
-0.22410789 0.39708507 -0.84505099 202 188 179
-0.22415423 0.39819106 -0.84521729 196 179 171
-0.22333063 0.39935151 -0.84544247 190 176 165
-0.21700495 0.39869148 -0.84714341 131 110 116
-0.21805835 0.40000203 -0.8478263 156 140 138
-0.21763746 0.39771274 -0.84570724 154 142 136
-0.2186081 0.39839974 -0.84554052 164 157 144
-0.21753851 0.39765728 -0.84574062 153 140 135
-0.21847124 0.39961031 -0.84703779 163 152 144
-0.21947458 0.39939424 -0.84582144 173 170 152
-0.21850291 0.39927462 -0.84662873 163 153 144
-0.2203197 0.39729038 -0.84478933 179 162 162
-0.22007288 0.39819899 -0.84513485 178 167 159
-0.21909235 0.39839908 -0.84537286 168 162 149
-0.21930009 0.39726907 -0.84496051 169 154 152
-0.21736307 0.39659548 -0.84507507 150 135 133
-0.22866105 0.39544195 -0.84414357 190 156 156
-0.22630714 0.39309755 -0.84457999 206 191 182
-0.22477742 0.39605826 -0.84488738 204 189 181
-0.22475518 0.3934654 -0.8446604 200 183 173
-0.22645426 0.39448959 -0.84469771 209 194 187
-0.22779846 0.39273706 -0.84450215 212 198 190
-0.22725506 0.39427742 -0.84459239 207 190 184
-0.22851135 0.3935068 -0.84441733 206 186 181
-0.22776207 0.39335224 -0.84455442 212 199 191
-0.22774893 0.39520302 -0.8444581 196 168 165
-0.22653244 0.396458 -0.84460056 192 163 161
-0.22104192 0.39558429 -0.84427291 189 167 171
-0.22252043 0.39399013 -0.84431207 197 178 174
-0.22277524 0.39410695 -0.84443271 194 174 171
-0.22441646 0.39487028 -0.84476483 201 184 176
-0.22337955 0.39577362 -0.84471774 196 178 175
-0.22414126 0.39576432 -0.84480983 201 183 177
-0.22439863 0.39447781 -0.84472823 200 183 175
-0.22432388 0.3963103 -0.84487998 203 186 180
-0.21797101 0.39537367 -0.84460443 175 157 154
-0.21975166 0.39536324 -0.84425533 188 167 168
-0.21781245 0.39578331 -0.84474754 166 149 146
-0.21731131 0.39626923 -0.84497815 152 137 135
-0.21791956 0.39435264 -0.8443346 196 176 170
-0.2192561 0.39644447 -0.84469271 169 149 152
-0.22857206 0.39183301 -0.84445405 211 197 191
-0.22884394 0.39066246 -0.84432429 207 191 189
-0.22487111 0.39015603 -0.84414601 204 183 176
-0.22463442 0.39113709 -0.84430307 201 182 173
-0.22773263 0.38939714 -0.84468138 196 177 177
-0.22660232 0.38989025 -0.84446639 199 180 178
-0.22652052 0.38934496 -0.84429109 202 182 180
-0.22844961 0.39047042 -0.84460783 204 188 185
-0.22698496 0.3911567 -0.84460765 201 184 179
-0.22742876 0.39238071 -0.84451276 209 194 186
-0.22547463 0.39182407 -0.84461021 198 180 172
-0.22740144 0.39122733 -0.84459013 203 187 181
-0.22717385 0.39168683 -0.8445667 204 189 182
-0.22451055 0.39187559 -0.84441352 200 182 172
-0.21769217 0.38897201 -0.84585446 195 162 174
-0.21785817 0.39035076 -0.8442834 213 193 187
-0.21700038 0.39163691 -0.84440058 214 190 182
-0.21861818 0.38896981 -0.84440917 209 190 189
-0.21711259 0.38934067 -0.84640962 191 151 167
-0.21767001 0.39004883 -0.84486473 207 181 181
-0.22818176 0.38794106 -0.84438461 202 184 185
-0.21680085 0.3880724 -0.84761053 189 147 170
-0.21743548 0.38679126 -0.84678417 221 203 209
-0.21785291 0.3878392 -0.84599626 209 185 193
-0.21690707 0.38610318 -0.84769911 225 206 216
-0.21766023 0.38643304 -0.84647918 231 220 221
-0.21807335 0.38696894 -0.84579206 227 215 215
-0.21888787 0.38601968 -0.84538484 232 222 221
-0.21972702 0.38627154 -0.84442753 228 217 215
-0.21964151 0.38506657 -0.8450408 238 230 228
-0.22031546 0.38491121 -0.84442836 237 229 227
-0.21888618 0.38839063 -0.84434968 214 199 196
-0.21814862 0.38482067 -0.84665555 243 237 238
-0.21860841 0.38678786 -0.84533101 227 216 214
-0.21797459 0.38483065 -0.84791499 242 234 235
-0.22029284 0.38494992 -0.84747028 232 219 216
-0.21842834 0.38477677 -0.84687287 242 235 235
-0.21828786 0.38483649 -0.84772784 241 232 233
-0.22127546 0.38311958 -0.84713966 194 180 179
-0.22077607 0.38458234 -0.84527028 231 222 218
-0.22126459 0.38303375 -0.84655213 193 180 180
-0.22128204 0.3830972 -0.84714943 193 179 179
-0.22096805 0.38327846 -0.84575647 213 200 200
-0.22071929 0.38428468 -0.8450399 233 223 220
-0.22157499 0.38178232 -0.84718871 167 152 154
-0.21958479 0.38383088 -0.84607762 235 225 225
-0.21948111 0.38304019 -0.84642297 232 220 221
-0.21985921 0.38446116 -0.84564573 237 229 226
-0.21949565 0.38440555 -0.84596097 238 230 228
-0.21897078 0.38282239 -0.84691161 232 220 223
-0.22055085 0.38212729 -0.84585017 224 209 211
-0.21949196 0.38374549 -0.84618163 235 225 225
-0.21951163 0.38200799 -0.8466382 227 213 216
-0.21718462 0.38433075 -0.84776449 245 238 240
-0.21965948 0.38135925 -0.84553921 226 213 215
-0.21793537 0.3833375 -0.84690112 239 231 233
-0.21727468 0.38416258 -0.84756041 244 238 240
-0.2183561 0.38396353 -0.84621435 241 234 234
-0.21902078 0.38348374 -0.84538859 238 230 229
-0.21965031 0.38260424 -0.8444699 234 225 223
-0.21743451 0.38408369 -0.84718424 244 238 239
-0.21945113 0.38211769 -0.84451491 233 224 222
-0.21883121 0.38386893 -0.8457039 240 232 232
-0.21828689 0.38357356 -0.84615904 240 233 233
-0.2189209 0.38275057 -0.845254 236 228 227
-0.22172029 0.38044447 -0.84802562 147 129 134
-0.22097367 0.38079429 -0.84661078 200 182 186
-0.22055161 0.37948227 -0.846973 193 173 179
-0.21977678 0.38052648 -0.84496289 219 206 207
-0.21979931 0.37816581 -0.84688669 169 149 157
-0.22044057 0.37967408 -0.84668189 195 175 182
-0.21986179 0.38008299 -0.84545052 209 194 196
-0.21989651 0.37713683 -0.84785843 146 122 135
-0.21956198 0.37784043 -0.84593064 188 171 178
-0.21941243 0.3794176 -0.84461552 218 206 207
-0.2192677 0.37746131 -0.84459299 216 204 209
-0.21949093 0.37833261 -0.84539807 200 185 190
-0.21977542 0.3776719 -0.84706002 163 143 153
-0.21898502 0.37638265 -0.84784764 111 89 103
-0.21964866 0.37683916 -0.84715593 154 133 144
-0.21972553 0.37689227 -0.84732038 153 132 143
-0.21063958 0.38299054 -0.81639796 195 169 171
-0.21046133 0.38264811 -0.81615818 196 170 172
-0.21080819 0.38215494 -0.81647056 197 173 174
-0.21017437 0.38152379 -0.81581938 198 174 174
-0.21052966 0.38097584 -0.81612748 200 176 176
-0.21037002 0.38173535 -0.81600469 198 173 174
-0.20974524 0.38134715 -0.81542176 198 173 174
-0.21024266 0.38044173 -0.81587708 200 176 175
-0.20992881 0.37966001 -0.81561929 200 176 173
-0.20958334 0.38065794 -0.81526631 199 175 174
-0.21072112 0.37875083 -0.8163774 201 179 173
-0.20899917 0.37718913 -0.81439954 187 166 154
-0.20967428 0.37827572 -0.81527162 196 173 165
-0.20976491 0.37762228 -0.81531698 194 173 163
-0.21032158 0.37789458 -0.81598014 199 178 169
-0.20878361 0.38035008 -0.81448472 193 167 167
-0.21015663 0.37594837 -0.81560469 195 173 163
-0.21037722 0.37570801 -0.81583345 197 174 165
-0.20923977 0.37687966 -0.81464702 188 167 155
-0.21061061 0.37544721 -0.81607485 199 176 167
-0.21039993 0.37421921 -0.81572425 196 170 164
-0.20985886 0.37534961 -0.81520927 192 169 160
-0.21103963 0.37311396 -0.81634921 200 172 170
-0.2101948 0.37461948 -0.81552702 194 169 163
-0.21129093 0.37206322 -0.81665289 201 177 173
-0.21116361 0.37207112 -0.81651294 199 175 171
-0.21063387 0.37203452 -0.81593287 194 167 164
-0.21125959 0.37242445 -0.81660652 201 176 173
-0.22071438 0.3972396 -0.8305732 205 186 185
-0.22118697 0.39670801 -0.83101672 205 187 183
-0.22152297 0.39655265 -0.83142257 203 183 180
-0.22224593 0.39494431 -0.83165878 206 191 185
-0.22255655 0.39560214 -0.83241063 199 176 173
-0.22145863 0.39586642 -0.83100599 208 193 188
-0.22102973 0.39343327 -0.82953823 208 178 187
-0.22097023 0.39337462 -0.82944316 208 177 187
-0.22215301 0.39395425 -0.83111882 208 193 189
-0.22074522 0.39369377 -0.82928145 208 178 188
-0.22257158 0.39258081 -0.83113432 207 186 187
-0.22125812 0.39267683 -0.82954413 207 174 186
-0.22042635 0.39282498 -0.8285749 200 163 180
-0.22058034 0.39568704 -0.82982051 207 190 189
-0.22336958 0.39252439 -0.83211601 207 194 187
-0.22087665 0.39164212 -0.82895184 209 177 187
-0.22128341 0.39199966 -0.82948726 208 178 187
-0.22198278 0.39255995 -0.83040303 207 181 186
-0.22172843 0.39143804 -0.82998759 209 187 188
-0.22150099 0.39047429 -0.82961959 211 192 189
-0.2222628 0.39158005 -0.83066159 209 191 188
-0.22303282 0.38880029 -0.83127278 206 187 185
-0.22119083 0.38906607 -0.82910252 214 197 191
-0.22356832 0.38912767 -0.83195251 204 185 184
-0.22312585 0.39095667 -0.83164406 207 193 187
-0.22154085 0.38870388 -0.82947737 212 194 189
-0.22368027 0.38887918 -0.8320564 203 184 184
-0.22340277 0.38972867 -0.83182704 205 188 185
-0.22061017 0.39230776 -0.82867992 205 168 184
-0.22228412 0.38509297 -0.83023661 212 198 201
-0.22273071 0.38578191 -0.83079869 210 195 197
-0.22363162 0.38767874 -0.8319419 205 186 187
-0.22150144 0.38552475 -0.8292821 209 193 200
-0.22323407 0.38767543 -0.83145291 204 185 188
-0.22367325 0.38526282 -0.83194822 215 200 198
-0.22322048 0.3863118 -0.83141088 209 193 194
-0.22119789 0.38609767 -0.82894528 211 195 199
-0.22301152 0.38755947 -0.83118075 205 186 189
-0.22183457 0.38821501 -0.82980371 210 193 190
-0.22130674 0.3874273 -0.82913643 212 195 194
-0.22206832 0.38832489 -0.8300882 209 191 189
-0.22233421 0.38856071 -0.83041692 209 190 187
-0.22127701 0.38690725 -0.82907701 211 195 196
-0.22078937 0.38163784 -0.82873106 224 212 214
-0.22224629 0.38108733 -0.83095425 209 194 188
-0.22074273 0.38161749 -0.82866365 225 212 214
-0.22130598 0.3833133 -0.82930708 211 197 200
-0.22139782 0.38346162 -0.82942402 210 195 198
-0.22222818 0.3817437 -0.83085763 207 191 187
-0.22373858 0.38472268 -0.83203095 217 203 200
-0.22333825 0.38273594 -0.83206952 207 192 185
-0.22318199 0.38354972 -0.83165985 210 196 191
-0.2234389 0.38379261 -0.83191097 212 198 193
-0.22263466 0.38373783 -0.83093643 210 195 194
-0.22192672 0.38367739 -0.83008194 208 193 194
-0.22268006 0.38407809 -0.83090132 211 197 196
-0.22276694 0.38076624 -0.83175755 204 188 179
-0.22215652 0.37978837 -0.83090925 212 196 191
-0.22297637 0.379922 -0.83212191 202 185 175
-0.22304468 0.37709889 -0.83239907 203 184 175
-0.22229892 0.37854475 -0.83119857 211 194 188
-0.22143404 0.38041353 -0.82979441 220 206 204
-0.22147983 0.37800121 -0.82992637 222 206 203
-0.22250785 0.37739742 -0.8315556 209 191 184
-0.22118297 0.37766942 -0.82945955 226 211 209
-0.22091228 0.37826726 -0.82902741 229 215 214
-0.22184905 0.37729174 -0.83051503 218 201 197
-0.22123027 0.378481 -0.82952845 225 210 208
-0.22219223 0.37628162 -0.83100331 210 191 184
-0.22077294 0.37511024 -0.82866126 221 203 199
-0.22261484 0.37639523 -0.83168089 205 186 177
-0.22122811 0.37679857 -0.82952303 226 209 206
-0.22225715 0.37664694 -0.8311367 211 193 186
-0.22076291 0.37602198 -0.82872224 227 210 208
-0.22332242 0.37436271 -0.83201027 210 193 188
-0.22128795 0.37335446 -0.82921606 209 188 181
-0.22302888 0.37326807 -0.83133513 213 196 192
-0.22184634 0.37462994 -0.83026916 206 186 178
-0.22292922 0.37596974 -0.83198661 205 186 178
-0.22304156 0.37529859 -0.8319326 207 189 182
-0.22180149 0.37411416 -0.83006614 208 187 180
-0.22382832 0.36972678 -0.83185095 210 195 196
-0.22404428 0.36915046 -0.83203977 209 193 195
-0.22402829 0.37230432 -0.83240908 214 199 198
-0.22407798 0.36943883 -0.83211583 209 194 195
-0.22214226 0.37047449 -0.82991481 213 199 199
-0.22244087 0.37052062 -0.83027971 213 199 199
-0.22363442 0.37239248 -0.83194613 215 200 198
-0.22153671 0.37155369 -0.82928121 211 194 191
-0.22164774 0.37082949 -0.8293438 212 196 195
-0.22151612 0.37231788 -0.8293342 211 192 187
-0.22185999 0.37288523 -0.8298158 211 192 187
-0.22260655 0.37291497 -0.83073813 213 195 191
-0.22105156 0.37248048 -0.8287788 210 189 184
-0.22195719 0.37075514 -0.82971722 213 198 197
-0.2217522 0.36885259 -0.82945305 207 192 193
-0.22226243 0.36832082 -0.83038354 199 183 183
-0.21523951 0.38905942 -0.82257241 218 200 203
-0.21528788 0.38881567 -0.82257324 221 204 206
-0.21665534 0.38907826 -0.82398325 219 202 198
-0.21644874 0.38992488 -0.82401085 211 194 190
-0.21664487 0.38913485 -0.82398874 218 202 198
-0.21677931 0.38992083 -0.82442528 213 198 191
-0.21706265 0.38801956 -0.82419372 223 208 204
-0.21712625 0.38644648 -0.82401162 225 213 207
-0.21717177 0.38595158 -0.823982 226 215 208
-0.21483834 0.38482973 -0.82119417 214 212 195
-0.2160185 0.38498601 -0.82256001 221 216 203
-0.21612431 0.3869001 -0.82297683 220 210 201
-0.21607392 0.38735104 -0.82298934 219 208 200
-0.21668166 0.38748732 -0.82370138 223 210 204
-0.21488222 0.38735142 -0.82181519 219 208 204
-0.21510437 0.38739496 -0.82204264 219 208 203
-0.21573544 0.38843867 -0.82292259 222 207 206
-0.2143342 0.38744619 -0.82130545 219 208 206
-0.2150737 0.38596612 -0.82164967 215 209 196
-0.21616791 0.38776889 -0.8231737 220 207 201
-0.21417439 0.38750899 -0.82116574 219 208 207
-0.21772303 0.38248891 -0.82457781 231 217 218
-0.2174188 0.38461933 -0.82406723 227 218 211
-0.21684654 0.38332391 -0.82354796 227 217 212
-0.21693459 0.38145995 -0.82375431 229 212 216
-0.21621308 0.38121653 -0.82283682 222 202 207
-0.21539089 0.38174191 -0.82173568 213 192 195
-0.21662492 0.38225168 -0.82331955 226 211 211
-0.21643472 0.38338289 -0.82301134 223 211 206
-0.21672435 0.38379243 -0.82336771 225 217 209
-0.21515493 0.38193777 -0.82142162 210 189 191
-0.21481338 0.38304466 -0.82108128 210 197 191
-0.21519752 0.38265872 -0.82150126 212 196 193
-0.21527405 0.38334027 -0.82161784 214 202 195
-0.21515298 0.38443971 -0.82152784 215 211 197
-0.2174388 0.37981045 -0.82437307 224 205 210
-0.21746838 0.37803558 -0.82435977 209 189 191
-0.21681379 0.37736386 -0.82354015 201 185 183
-0.21706817 0.37946224 -0.82391036 219 199 204
-0.21519011 0.37738666 -0.82144791 207 198 183
-0.21651712 0.37846455 -0.82318962 211 195 193
-0.21670546 0.38045323 -0.82348853 226 207 213
-0.21660806 0.380045 -0.82335144 223 205 209
-0.21553539 0.37792283 -0.8219083 210 199 189
-0.21625464 0.38083759 -0.82290959 223 202 209
-0.21552064 0.38077134 -0.82195014 215 192 198
-0.21620105 0.38009843 -0.82282531 222 205 207
-0.21521659 0.37925732 -0.8215239 212 196 191
-0.21652116 0.38046438 -0.82325029 226 208 212
-0.21755226 0.37500191 -0.82434762 212 195 194
-0.21749951 0.37485066 -0.82427651 213 196 194
-0.21772341 0.37342963 -0.82448745 222 206 205
-0.21706128 0.37577257 -0.82377225 206 190 187
-0.21631074 0.37326452 -0.82264799 219 197 202
-0.21517757 0.37406999 -0.82145733 204 172 181
-0.21605648 0.37546968 -0.82255602 201 179 181
-0.21662594 0.37559864 -0.82320058 205 188 187
-0.21560815 0.37351879 -0.82188857 211 183 191
-0.21478792 0.37343267 -0.82096702 205 169 181
-0.21479513 0.37685928 -0.82092762 205 197 179
-0.2152175 0.37488273 -0.82150042 203 178 180
-0.21535538 0.37669462 -0.82165253 203 192 179
-0.21778066 0.3720535 -0.82441801 221 205 204
-0.2176429 0.37141705 -0.82415295 218 202 203
-0.21722329 0.37046474 -0.82360685 216 200 201
-0.21694642 0.37052232 -0.82330865 216 201 202
-0.21706331 0.37011969 -0.82343113 215 199 200
-0.21660058 0.37013835 -0.8229146 210 194 194
-0.2166452 0.37254941 -0.82298833 219 201 204
-0.21658544 0.37190121 -0.82291269 215 198 200
-0.21623999 0.37146676 -0.82250547 204 185 187
-0.2171573 0.36781096 -0.82381546 199 181 177
-0.21739498 0.36741996 -0.82415766 194 176 170
-0.21694735 0.367854 -0.82356995 200 183 178
-0.21654016 0.3680926 -0.82294059 205 187 184
-0.21679306 0.36805972 -0.82332671 205 188 184
-0.22245251 0.40042248 -0.83394068 165 130 139
-0.22400138 0.4012683 -0.8359971 158 137 134
-0.22475077 0.39852139 -0.83614022 162 127 133
-0.22458975 0.40030167 -0.83626586 151 133 127
-0.22428377 0.39948717 -0.83568853 159 136 133
-0.22440174 0.39835978 -0.83557683 164 129 134
-0.22287923 0.40005022 -0.83428717 164 134 139
-0.22290283 0.40012118 -0.8343367 164 133 138
-0.2221818 0.39674479 -0.83242303 195 168 167
-0.22509614 0.3959378 -0.83608216 178 130 143
-0.2251303 0.39467314 -0.83560693 181 148 148
-0.22555791 0.3930293 -0.83569926 191 175 162
-0.22539881 0.39364064 -0.83566475 187 165 157
-0.22471723 0.39261088 -0.83382988 207 197 184
-0.22432107 0.39475745 -0.83426642 187 153 158
-0.22420157 0.39384475 -0.83370322 196 171 170
-0.22322534 0.39440593 -0.83273429 199 178 175
-0.22362471 0.39302915 -0.8326354 204 189 183
-0.22275987 0.3950657 -0.83243376 200 179 175
-0.22381005 0.39374733 -0.83318669 197 174 173
-0.22615668 0.39081353 -0.8363024 182 165 157
-0.22528671 0.39190343 -0.834804 197 185 173
-0.22531164 0.39150414 -0.83476728 196 182 173
-0.22567701 0.39094043 -0.8353737 189 173 166
-0.22493733 0.39114112 -0.83403373 200 186 179
-0.22510375 0.38986665 -0.83420479 194 175 175
-0.22565553 0.38922948 -0.83509552 185 163 165
-0.22493185 0.3893221 -0.8338604 195 175 176
-0.22609542 0.38897789 -0.83582878 178 155 158
-0.22446209 0.39106202 -0.83326101 205 192 185
-0.22438291 0.38869327 -0.83293909 199 178 181
-0.22421658 0.39010298 -0.83284026 204 188 184
-0.22397961 0.39139944 -0.83271474 205 192 186
-0.22576249 0.38699648 -0.83554757 193 172 173
-0.22626881 0.38842195 -0.83614671 177 153 156
-0.22564697 0.38711539 -0.83532649 194 173 174
-0.22534639 0.38787761 -0.83466506 193 171 174
-0.22583778 0.38653049 -0.83576548 195 175 175
-0.2246428 0.38555402 -0.83327174 214 197 197
-0.22463556 0.38542023 -0.83325267 215 198 198
-0.22559209 0.38495827 -0.83545721 208 190 187
-0.22510205 0.38510609 -0.83432627 212 195 193
-0.22489728 0.38599175 -0.83386785 209 191 191
-0.22433613 0.38649163 -0.83282864 209 192 191
-0.22445057 0.38856864 -0.83302772 199 178 181
-0.22544385 0.38203681 -0.83592218 216 199 200
-0.22541532 0.38468981 -0.83506769 211 194 191
-0.22560203 0.38448495 -0.83556044 210 192 189
-0.22507766 0.3839986 -0.83449209 216 199 198
-0.22580859 0.3840372 -0.83617127 209 191 188
-0.22470458 0.3834551 -0.83385295 216 200 199
-0.22478379 0.3820172 -0.83454013 213 196 196
-0.22443351 0.38409117 -0.83315158 215 199 197
-0.22456747 0.38401884 -0.8333897 216 200 198
-0.2233519 0.38087836 -0.83262777 199 182 172
-0.22399954 0.38305527 -0.83284819 210 193 188
-0.2239992 0.38441518 -0.83243519 216 202 197
-0.2249293 0.38028753 -0.83546001 211 192 191
-0.22471224 0.37930745 -0.83537757 207 185 180
-0.22357295 0.37707981 -0.83353424 203 180 171
-0.22390583 0.37732291 -0.83419549 203 179 170
-0.22452672 0.37820539 -0.83529085 205 179 171
-0.22414689 0.37959221 -0.83400023 206 188 184
-0.22430432 0.37814018 -0.83481771 205 180 173
-0.22405142 0.37993139 -0.83380008 205 188 183
-0.22337034 0.38054553 -0.8326847 200 183 173
-0.22332402 0.3803975 -0.83262128 200 183 173
-0.22489956 0.37592927 -0.83619118 207 181 171
-0.22468971 0.37484172 -0.83496952 209 188 180
-0.22500935 0.37348771 -0.83520764 213 197 190
-0.22461909 0.37342861 -0.83398056 213 198 191
-0.22474267 0.37535048 -0.83540982 208 184 175
-0.22456191 0.37622997 -0.8353855 206 178 169
-0.22449055 0.37392157 -0.8339774 212 194 188
-0.22432838 0.37645483 -0.83499593 205 177 169
-0.22377241 0.37643147 -0.83374852 205 182 173
-0.22390451 0.37688825 -0.83427823 203 178 168
-0.22398135 0.37561753 -0.83379191 207 185 178
-0.22351795 0.37511894 -0.83250451 209 191 185
-0.22525966 0.37059927 -0.836182 209 192 192
-0.22514156 0.37088296 -0.8357684 209 193 192
-0.22527906 0.37101924 -0.83616436 209 193 192
-0.22466397 0.37247559 -0.83394587 213 199 194
-0.22466744 0.37080121 -0.8337512 210 194 194
-0.22499837 0.37016794 -0.8353402 208 191 192
-0.22462445 0.37211433 -0.83370078 213 198 194
-0.22444649 0.36997727 -0.8328076 210 194 194
-0.22430249 0.37288058 -0.83308035 215 200 196
-0.22420457 0.37081262 -0.83244807 211 196 196
-0.21860091 0.37139747 -0.83627743 216 199 204
-0.22431122 0.36870727 -0.83296776 202 184 186
-0.22100122 0.40325764 -0.84867984 209 188 184
-0.22258216 0.40331793 -0.84854692 203 178 181
-0.22249442 0.40328962 -0.84853125 204 179 181
-0.22421664 0.40330532 -0.84831125 195 169 176
-0.22400594 0.4032841 -0.84833527 197 170 177
-0.2168283 0.3998659 -0.84838074 116 91 103
-0.22077189 0.38493156 -0.84807026 229 214 210
-0.22138166 0.38480225 -0.85075772 186 176 176
-0.22105724 0.38513124 -0.85078108 186 175 176
-0.22100027 0.38409078 -0.85193115 167 158 160
-0.22071193 0.38260576 -0.85078126 160 147 150
-0.22157037 0.38289094 -0.85026574 156 143 146
-0.22172114 0.38171011 -0.84902823 147 132 136
-0.22157194 0.38157204 -0.84902787 148 132 136
-0.22168839 0.38256523 -0.84913039 162 148 150
-0.22158539 0.38222685 -0.84814197 170 154 155
-0.2215611 0.3844097 -0.85100186 174 164 165
-0.22116923 0.3847082 -0.84940898 207 194 192
-0.22127229 0.38457125 -0.84974808 198 186 185
-0.22071168 0.38070986 -0.84904164 151 133 137
-0.22091563 0.3801778 -0.84864444 155 136 141
-0.21982679 0.39354056 -0.82822537 191 159 172
-0.21984313 0.39333344 -0.82816374 193 159 173
-0.21918006 0.39301577 -0.82748765 189 159 169
-0.21702494 0.3897557 -0.82463819 212 197 192
-0.21805426 0.38930082 -0.82563728 211 194 191
-0.2189182 0.38975418 -0.82677966 204 187 182
-0.21846406 0.38985443 -0.82629097 203 187 182
-0.21893841 0.38977319 -0.82680917 204 187 181
-0.217233 0.39002359 -0.8249324 203 187 184
-0.21977793 0.38972643 -0.82772416 204 186 181
-0.22005808 0.39020097 -0.82800335 205 183 182
-0.22040664 0.39145944 -0.82839489 204 172 182
-0.21988294 0.3914741 -0.82793254 199 171 178
-0.22012472 0.39144358 -0.82814437 201 172 180
-0.22071217 0.38639686 -0.82837319 213 197 199
-0.21952268 0.38497314 -0.82671392 219 205 207
-0.22011389 0.38748264 -0.82762706 217 201 196
-0.22019637 0.38657445 -0.82769299 216 201 199
-0.21872601 0.38507485 -0.82565361 224 211 208
-0.22062053 0.38784847 -0.82832247 214 198 194
-0.22047737 0.38553095 -0.82801771 213 198 202
-0.21832766 0.38654351 -0.82535809 224 209 205
-0.21988945 0.38791096 -0.82740033 218 202 196
-0.21781115 0.38669065 -0.82479131 224 210 206
-0.21871553 0.387218 -0.82592595 221 206 202
-0.22037734 0.38858131 -0.82808232 215 198 192
-0.21840136 0.38569164 -0.82528841 226 212 207
-0.21885312 0.38716307 -0.82607406 221 206 201
-0.22071517 0.38302746 -0.82847905 219 206 211
-0.21920563 0.38395414 -0.8263585 224 212 211
-0.21984473 0.38266066 -0.82733834 226 214 214
-0.22019701 0.38368043 -0.82771057 219 206 209
-0.22009782 0.38332671 -0.82761222 222 208 211
-0.21814793 0.38455564 -0.82488596 228 216 212
-0.21853043 0.38418531 -0.82543331 228 215 212
-0.21900424 0.38170996 -0.82633615 231 217 218
-0.21917829 0.38202256 -0.82652736 230 217 217
-0.21876194 0.38259855 -0.82591563 230 217 216
-0.22024241 0.38134196 -0.82799852 229 217 217
-0.21788794 0.3824569 -0.82478899 231 217 218
-0.21934974 0.38101408 -0.82686913 231 217 220
-0.2189292 0.3810716 -0.82631236 231 217 220
-0.21902415 0.37696517 -0.82639885 216 198 197
-0.22001423 0.37748662 -0.82773393 227 211 210
-0.21836859 0.37737387 -0.82551455 208 189 189
-0.2201893 0.37932831 -0.82796937 227 213 212
-0.21937764 0.37894151 -0.82687491 218 202 202
-0.21837206 0.37741807 -0.82551926 208 189 189
-0.21844341 0.37800628 -0.82561672 209 190 191
-0.21987222 0.38069347 -0.82756567 229 216 217
-0.21964911 0.37998071 -0.82725257 224 209 210
-0.21818672 0.37993416 -0.82533842 225 208 212
-0.21841507 0.37887275 -0.82560545 216 198 200
-0.21824665 0.37812224 -0.8253628 210 191 192
-0.21970929 0.37995878 -0.82733065 223 209 209
-0.219667 0.37409589 -0.82709926 221 203 200
-0.21896344 0.37349084 -0.8261283 221 203 201
-0.22032428 0.3735472 -0.82792592 214 193 188
-0.21999568 0.375734 -0.82764375 229 214 212
-0.21940519 0.37410977 -0.82675475 222 205 202
-0.22044703 0.37636301 -0.82828224 231 216 213
-0.21982448 0.37661338 -0.82746202 227 211 210
-0.21944788 0.37647808 -0.82694769 223 207 206
-0.21825933 0.37685829 -0.82536286 208 189 188
-0.21792598 0.3763414 -0.82488865 207 188 187
-0.21786124 0.37457308 -0.8247171 216 199 198
-0.21787958 0.37409911 -0.82471925 219 202 201
-0.2201471 0.37684187 -0.82790798 229 214 213
-0.22076833 0.37122762 -0.82823533 210 192 189
-0.21982662 0.36982995 -0.82681435 211 195 194
-0.22030909 0.37111086 -0.82761031 210 192 189
-0.22026764 0.37174565 -0.82764971 209 190 185
-0.21873173 0.36999628 -0.82545257 209 193 190
-0.21967803 0.37144598 -0.82686007 209 190 185
-0.22046308 0.37180004 -0.82790494 209 190 186
-0.21938543 0.37113512 -0.82644087 209 191 187
-0.21878183 0.37189645 -0.82572955 215 198 195
-0.21806389 0.37113917 -0.82469952 217 201 200
-0.21913336 0.37294856 -0.82630932 217 198 195
-0.22035149 0.37302896 -0.82792372 210 189 183
-0.21937837 0.37269112 -0.82660377 215 196 191
-0.2208183 0.36896142 -0.82804996 209 194 195
-0.21997413 0.36893612 -0.82693899 207 192 193
-0.21970007 0.36810338 -0.82674468 189 171 170
-0.21957332 0.3677907 -0.82664162 182 163 161
-0.2199104 0.36832926 -0.8269695 194 177 177
-0.21923679 0.36634222 -0.82654488 162 138 133
-0.21940589 0.36706975 -0.82656991 168 146 143
-0.21893489 0.36760259 -0.8258872 181 161 158
-0.21836606 0.36275139 -0.82606059 166 144 134
-0.21863402 0.3619293 -0.82647055 168 145 138
-0.21825668 0.36268181 -0.82593936 168 146 136
-0.21815151 0.36519346 -0.82553577 162 139 128
-0.21761066 0.36499539 -0.82492036 170 148 135
-0.21808171 0.36321631 -0.82567364 169 147 136
-0.22672208 0.4004108 -0.84063035 161 137 134
-0.22816852 0.40113452 -0.84404194 168 147 145
-0.22768255 0.40066642 -0.84265321 165 144 140
-0.22816098 0.40076235 -0.84362704 166 147 143
-0.22858045 0.39744839 -0.84405863 177 142 143
-0.22779091 0.39765796 -0.8418842 187 166 161
-0.22751935 0.39702341 -0.84114021 192 172 167
-0.22848095 0.40016758 -0.84378093 169 154 146
-0.22823189 0.3976717 -0.84308541 181 153 151
-0.22830939 0.39686805 -0.84329093 184 149 149
-0.22735202 0.39716104 -0.84074497 193 174 169
-0.22689717 0.39940575 -0.84061968 171 149 144
-0.22677638 0.39949867 -0.84042877 170 147 143
-0.2267796 0.39958188 -0.84046066 169 146 142
-0.22808556 0.39935192 -0.84276807 175 160 153
-0.22858903 0.39512286 -0.84264225 190 158 157
-0.22872464 0.39308336 -0.84234786 206 189 183
-0.22865713 0.39464363 -0.84275186 193 164 163
-0.22865893 0.39536694 -0.84389752 190 156 157
-0.22872329 0.39340168 -0.84278965 205 185 181
-0.22871183 0.39427304 -0.84377503 200 174 172
-0.2285143 0.39383557 -0.84103477 200 179 174
-0.22769707 0.39576164 -0.84085363 197 175 171
-0.22851206 0.39451897 -0.84175414 196 169 166
-0.22831635 0.39615428 -0.84295714 187 152 152
-0.22845516 0.39514744 -0.84226632 192 162 160
-0.22097023 0.3950755 -0.84399289 194 173 175
-0.221204 0.39273021 -0.84265947 218 206 202
-0.22109194 0.39304334 -0.84277594 216 202 199
-0.22192809 0.39392847 -0.84398288 200 183 179
-0.21914253 0.39300451 -0.84315479 217 200 195
-0.21938583 0.39280468 -0.84291685 219 204 199
-0.21954177 0.39455029 -0.84397185 200 179 178
-0.2194147 0.394591 -0.84405512 199 178 176
-0.22040342 0.39365709 -0.84300977 211 195 194
-0.21497077 0.39458859 -0.84410387 191 158 154
-0.21646944 0.39313862 -0.84411865 214 190 179
-0.21306016 0.39331242 -0.8440665 155 98 135
-0.21497455 0.39298189 -0.84399682 187 149 161
-0.21484306 0.39356479 -0.84399259 187 149 157
-0.21453072 0.39333484 -0.84400856 181 139 154
-0.21416743 0.39459339 -0.84400249 178 137 144
-0.22899196 0.38898838 -0.84089363 222 207 213
-0.22914331 0.39044508 -0.8437686 209 193 192
-0.22929759 0.38927436 -0.84337634 206 189 191
-0.22905535 0.38998538 -0.84258181 215 200 201
-0.2293043 0.38873976 -0.84275395 208 191 195
-0.22873859 0.39208066 -0.84097034 209 195 190
-0.22874224 0.39240456 -0.8417384 210 196 190
-0.2288527 0.39027822 -0.8405869 217 203 204
-0.22890021 0.39005011 -0.84149539 221 208 210
-0.22878014 0.39166975 -0.84133273 213 198 195
-0.22884052 0.39053515 -0.84075993 217 202 203
-0.22566922 0.38910851 -0.84389895 206 184 182
-0.22270006 0.39185369 -0.84337145 212 197 190
-0.2216979 0.39207515 -0.84270906 218 205 201
-0.2234958 0.3898375 -0.84281492 214 195 191
-0.22379364 0.39059711 -0.84358674 209 190 184
-0.2236701 0.39085215 -0.84364831 208 190 184
-0.22238769 0.3903318 -0.84244817 217 201 198
-0.22144569 0.3888371 -0.84183908 218 203 200
-0.22165583 0.38970724 -0.8420645 218 204 200
-0.22076188 0.39032561 -0.8418265 221 209 206
-0.22165844 0.38915911 -0.84197408 218 203 200
-0.22239457 0.38901898 -0.84223163 216 199 196
-0.21886542 0.39013198 -0.8429597 218 200 194
-0.21956369 0.38942108 -0.84255904 218 202 197
-0.21965204 0.38893357 -0.84287339 216 201 197
-0.21896781 0.38977841 -0.84312993 216 200 194
-0.22022107 0.38915113 -0.84182632 219 205 201
-0.22034821 0.39085427 -0.84205139 221 208 205
-0.21988206 0.39220765 -0.84248644 222 209 204
-0.21831964 0.39252281 -0.84323978 220 203 195
-0.22039995 0.3902972 -0.84193522 221 208 204
-0.22058938 0.39201859 -0.84213763 223 211 208
-0.2189666 0.39049232 -0.84261066 219 203 196
-0.22865778 0.38681886 -0.843831 207 190 191
-0.22875418 0.38588324 -0.84270626 208 191 192
-0.22895733 0.38572165 -0.84175998 207 189 192
-0.22868428 0.38527581 -0.8421393 210 192 194
-0.22904769 0.38615841 -0.8420825 206 187 190
-0.22913623 0.38642141 -0.8414408 207 189 193
-0.2291972 0.38784868 -0.84190279 210 193 197
-0.22923595 0.38675478 -0.84214294 204 185 189
-0.22904667 0.38753745 -0.84084803 216 200 205
-0.2293755 0.38787353 -0.84314293 202 183 186
-0.22640409 0.38831145 -0.84380537 207 187 185
-0.22812456 0.38585675 -0.84281921 210 193 193
-0.22824706 0.38550279 -0.8425529 211 193 194
-0.22750923 0.38591731 -0.84241605 211 193 192
-0.22758546 0.38662422 -0.84319031 209 192 191
-0.22672446 0.38599727 -0.84220183 211 193 193
-0.22514129 0.38672453 -0.84219801 210 192 192
-0.22537714 0.38681209 -0.84229314 210 192 191
-0.22647187 0.38486165 -0.84159684 210 195 198
-0.22526564 0.38499215 -0.84138942 209 195 200
-0.22819103 0.38494989 -0.84202492 211 194 195
-0.22158615 0.38655633 -0.84047818 218 203 206
-0.22201127 0.38612929 -0.84058654 219 203 208
-0.22125365 0.38776112 -0.84125382 219 205 205
-0.22424431 0.38482964 -0.84098732 210 197 203
-0.221531 0.38764203 -0.84132177 218 204 204
-0.22420965 0.38678056 -0.84195328 210 194 195
-0.22396751 0.38777316 -0.84234011 212 193 192
-0.22428183 0.38838795 -0.84275699 211 191 187
-0.22262137 0.38769332 -0.8417877 215 199 198
-0.22248606 0.38763273 -0.84170681 215 200 199
-0.22448097 0.38638729 -0.84186697 210 193 195
-0.22388776 0.38769946 -0.84227413 212 194 192
-0.2205646 0.38857529 -0.84163642 219 205 202
-0.22045287 0.38793638 -0.841142 217 203 201
-0.21910068 0.38514438 -0.84044856 221 205 205
-0.22015119 0.38749397 -0.84115368 216 201 200
-0.21951702 0.38602659 -0.84067953 219 203 203
-0.21911106 0.38609403 -0.84137273 218 202 201
-0.22010802 0.38747048 -0.84119707 216 201 200
-0.21935727 0.38771009 -0.84406972 218 203 200
-0.2193229 0.38684857 -0.8431139 219 205 203
-0.2193208 0.38525134 -0.84148639 223 209 208
-0.22036453 0.38502941 -0.84370863 234 225 222
-0.21933633 0.38642892 -0.84271908 221 206 204
-0.21919475 0.38637376 -0.84233093 219 204 203
-0.22505659 0.38279787 -0.84054196 218 202 209
-0.22486906 0.38229388 -0.84043264 221 204 212
-0.2251692 0.38304088 -0.84059161 216 201 207
-0.22651432 0.3824991 -0.84025896 216 199 203
-0.22496489 0.38189104 -0.84031105 222 206 213
-0.22566481 0.38445362 -0.84095097 208 194 198
-0.22824107 0.3845906 -0.84171224 211 194 195
-0.22576846 0.38442039 -0.84092963 208 194 198
-0.22401048 0.38331091 -0.84043962 219 203 212
-0.22304551 0.38438877 -0.84024155 219 202 212
-0.22015601 0.3831566 -0.84284973 234 225 222
-0.21974339 0.38186577 -0.84348881 232 222 219
-0.22034724 0.38376957 -0.84386104 235 227 224
-0.22010282 0.38298404 -0.84238708 234 224 221
-0.21943967 0.3808797 -0.84077221 230 219 215
-0.22026581 0.3847205 -0.84319752 234 224 222
-0.21926257 0.38424087 -0.84071869 225 210 209
-0.21919686 0.38382718 -0.84045589 224 210 209
-0.21951917 0.38124841 -0.84053373 230 219 215
-0.21964325 0.38199434 -0.84102082 230 220 216
-0.21982145 0.38388726 -0.84193641 230 219 217
-0.21917482 0.37887141 -0.84333223 224 211 212
-0.21916319 0.37753043 -0.84399122 225 214 218
-0.2190344 0.37825406 -0.84258235 220 205 206
-0.21911772 0.37902585 -0.84280074 222 207 207
-0.21912768 0.37861508 -0.84310794 223 209 210
-0.21909717 0.37745011 -0.8435213 223 211 214
-0.21875496 0.37751898 -0.84030014 212 190 191
-0.21933848 0.38044181 -0.84347337 227 216 214
-0.2192055 0.37976936 -0.8423903 224 210 209
-0.21939746 0.38071629 -0.84260762 229 218 215
-0.21913196 0.37938991 -0.84135848 222 206 205
-0.21743537 0.37454835 -0.84327972 134 128 129
-0.21755591 0.37498873 -0.84401083 115 110 112
-0.21742927 0.37472901 -0.84374565 116 111 112
-0.2183443 0.37525338 -0.84261858 216 205 208
-0.21745801 0.37409157 -0.84212714 178 170 170
-0.21825072 0.374942 -0.84225547 219 207 210
-0.21847831 0.37635162 -0.84026492 212 190 192
-0.2181043 0.37480059 -0.84068024 221 204 205
-0.21880773 0.3767837 -0.84190571 217 199 202
-0.21785927 0.37389326 -0.84071863 225 211 212
-0.21868135 0.37639734 -0.84175014 218 201 204
-0.21701284 0.37257248 -0.8406117 208 197 198
-0.21650454 0.37135369 -0.84037989 225 214 216
-0.22083284 0.38538095 -0.85215724 168 159 161
0 0 0 1 0 0 0 1 0 0 0 1 0 0 0 0 0 971 1 0 0
