ply
format ascii 1.0
comment PCL generated
element vertex 110
property float x
property float y
property float z
property uchar red
property uchar green
property uchar blue
element camera 1
property float view_px
property float view_py
property float view_pz
property float x_axisx
property float x_axisy
property float x_axisz
property float y_axisx
property float y_axisy
property float y_axisz
property float z_axisx
property float z_axisy
property float z_axisz
property float focal
property float scalex
property float scaley
property float centerx
property float centery
property int viewportx
property int viewporty
property float k1
property float k2
end_header
-0.17806989 -0.63865119 -0.76648939 185 170 178
-0.1777202 -0.63893175 -0.76701862 190 177 182
-0.17748387 -0.63880831 -0.76651305 186 171 179
-0.17729528 -0.63891977 -0.76665604 184 169 176
-0.17688736 -0.63874912 -0.7664097 188 174 181
-0.17566858 -0.63895243 -0.76663589 186 172 176
-0.17096609 -0.63930231 -0.76604956 188 171 163
-0.1714157 -0.64060843 -0.76785767 175 159 160
-0.17020629 -0.63975626 -0.76637888 183 165 156
-0.17183769 -0.63971412 -0.76685888 184 169 167
-0.17148051 -0.63976675 -0.76680899 183 168 164
-0.17268437 -0.64031088 -0.76793289 174 157 159
-0.17279206 -0.63991565 -0.76744336 180 166 167
-0.17343596 -0.63938934 -0.76699406 184 170 171
-0.1674657 -0.64109647 -0.76772541 159 131 132
-0.1665407 -0.64138407 -0.76786953 165 138 143
-0.16653466 -0.64050484 -0.76687747 160 129 128
-0.1678582 -0.64055437 -0.76710832 163 136 133
-0.16903467 -0.63993293 -0.76642787 176 154 146
-0.16849716 -0.64090335 -0.76761144 164 139 137
-0.16791432 -0.63978392 -0.76613414 171 144 137
-0.16942064 -0.64046562 -0.76714098 174 152 147
-0.16965392 -0.64066881 -0.76742095 173 153 148
-0.16453668 -0.64169234 -0.76805705 167 144 141
-0.16250657 -0.64103639 -0.76716977 165 144 124
-0.1650205 -0.64151478 -0.76788545 166 141 141
-0.16396114 -0.64006305 -0.76621819 155 125 106
-0.16531685 -0.64128286 -0.76763284 165 139 139
-0.16591221 -0.64036322 -0.7666139 161 130 128
-0.16460845 -0.64137614 -0.76771712 164 139 135
-0.16559336 -0.64053553 -0.76679873 161 131 128
-0.16002639 -0.6412096 -0.76734978 165 139 137
-0.15942651 -0.64093232 -0.7670939 159 131 128
-0.16028309 -0.64032966 -0.76645476 152 122 108
-0.15951534 -0.64069378 -0.766837 156 126 122
-0.16147229 -0.64011878 -0.76621735 152 123 97
-0.1570127 -0.64061332 -0.76682287 148 117 114
-0.15719225 -0.64097136 -0.76720864 154 126 123
-0.15722238 -0.64098281 -0.76722121 154 126 124
-0.15772328 -0.64089233 -0.76712996 155 125 123
-0.16463009 -0.63695431 -0.7620101 152 122 106
-0.16192968 -0.63748795 -0.76196361 167 148 125
-0.1612874 -0.63682246 -0.76144677 148 126 106
-0.16192803 -0.63676465 -0.76134038 151 128 107
-0.16068666 -0.63730586 -0.76191634 154 137 116
-0.15761934 -0.63711756 -0.76206642 131 115 98
-0.17845029 -0.63423979 -0.76249331 182 167 159
-0.17832853 -0.63501477 -0.76302749 191 180 173
-0.1786696 -0.63527966 -0.76333952 187 174 169
-0.17785345 -0.63812548 -0.7658847 184 168 174
-0.17820705 -0.63595945 -0.76389933 189 176 173
-0.17690082 -0.63701653 -0.76477814 191 179 177
-0.177219 -0.63681501 -0.76460123 191 179 177
-0.17673378 -0.63738906 -0.76512337 190 177 177
-0.17608516 -0.6371237 -0.76484442 192 181 178
-0.17475735 -0.63836914 -0.7659654 189 177 178
-0.17716174 -0.63622022 -0.76403606 194 183 178
-0.17637488 -0.63694274 -0.76468575 192 181 178
-0.174567 -0.63745582 -0.76509082 189 178 173
-0.17651027 -0.63575447 -0.76356614 194 184 176
-0.1767156 -0.63557774 -0.76340789 195 185 176
-0.1768035 -0.63544762 -0.76328826 195 185 175
-0.17055725 -0.63770527 -0.76396 173 152 137
-0.17111444 -0.63834757 -0.76480681 183 166 156
-0.17177565 -0.63720816 -0.76398778 175 155 138
-0.17208859 -0.63829619 -0.76515174 184 170 163
-0.17374739 -0.63660419 -0.76420915 174 157 141
-0.17336982 -0.63863385 -0.7659927 193 183 181
-0.16770208 -0.63861448 -0.7639783 171 147 139
-0.16797167 -0.63819849 -0.76374131 168 142 133
-0.16621161 -0.63849092 -0.76347446 162 133 128
-0.16710623 -0.63777566 -0.76318592 159 129 121
-0.16960034 -0.63811904 -0.76403975 172 151 138
-0.16971898 -0.63805902 -0.764 172 150 137
-0.1648806 -0.63854921 -0.76332772 168 142 130
-0.16397387 -0.63847238 -0.76316988 172 149 130
-0.1649535 -0.63753182 -0.76251197 156 127 115
-0.16291276 -0.6377514 -0.76231033 169 148 128
-0.16539527 -0.63708299 -0.76225519 149 116 105
-0.16345812 -0.6378209 -0.76246017 167 145 127
-0.15870929 -0.63819951 -0.76298523 151 134 111
-0.15997858 -0.63859892 -0.76330495 167 148 118
-0.15868479 -0.63829464 -0.7630797 153 135 111
-0.16099286 -0.63766819 -0.76223278 163 147 123
-0.16088142 -0.63795817 -0.76257986 165 149 121
-0.15779692 -0.63774139 -0.76264089 140 123 103
-0.17003979 -0.63950449 -0.76600111 186 167 156
-0.17072234 -0.6386798 -0.76497024 185 169 160
-0.16854797 -0.63943464 -0.76568323 175 151 142
-0.16939269 -0.63924515 -0.76548094 181 160 150
-0.16666639 -0.63918483 -0.76482499 164 135 129
-0.16733296 -0.63924229 -0.76513094 167 140 133
-0.16929586 -0.63877439 -0.76467878 179 159 149
-0.16732626 -0.63893086 -0.76446754 169 142 136
-0.16376473 -0.6394313 -0.76504415 156 127 106
-0.16432291 -0.63976771 -0.76578975 155 125 107
-0.16339025 -0.63974196 -0.76568347 154 125 100
-0.1634316 -0.63885075 -0.76374966 172 149 123
-0.16316515 -0.63870609 -0.76341254 177 157 127
-0.16289242 -0.6390304 -0.76410174 170 148 117
-0.1636733 -0.63907665 -0.76426274 165 140 116
-0.16167273 -0.63887733 -0.76372713 177 157 122
-0.16188902 -0.6390574 -0.76411122 173 152 116
-0.16090529 -0.63969839 -0.76556116 153 123 98
-0.16093463 -0.63962889 -0.76540756 155 126 100
-0.16172503 -0.63875359 -0.76345479 180 161 125
-0.15864435 -0.63932461 -0.76486081 150 119 106
-0.15964714 -0.63897663 -0.76405305 162 137 114
-0.16012894 -0.63917863 -0.76446229 163 136 114
-0.15707412 -0.6389569 -0.76408917 147 123 104
0 0 0 1 0 0 0 1 0 0 0 1 0 0 0 0 0 110 1 0 0
