ply
format ascii 1.0
comment PCL generated
element vertex 194
property float x
property float y
property float z
property uchar red
property uchar green
property uchar blue
element camera 1
property float view_px
property float view_py
property float view_pz
property float x_axisx
property float x_axisy
property float x_axisz
property float y_axisx
property float y_axisy
property float y_axisz
property float z_axisx
property float z_axisy
property float z_axisz
property float focal
property float scalex
property float scaley
property float centerx
property float centery
property int viewportx
property int viewporty
property float k1
property float k2
end_header
-0.25587189 -0.57349652 -0.80807364 103 91 145
-0.25558597 -0.57544947 -0.80894935 83 71 135
-0.25511396 -0.57505703 -0.80833834 88 76 137
-0.25508282 -0.57451856 -0.80792707 92 81 140
-0.25495738 -0.57553792 -0.80846757 83 71 135
-0.25450385 -0.57277888 -0.8059811 102 94 148
-0.25365803 -0.57461369 -0.80574536 97 87 141
-0.2542617 -0.57504004 -0.80702585 90 79 138
-0.25431907 -0.57462895 -0.80688143 91 81 139
-0.25426367 -0.57453239 -0.80673009 92 82 140
-0.25378928 -0.57394284 -0.80557388 99 90 143
-0.25417456 -0.57511085 -0.80691904 90 79 138
-0.25199798 -0.57816136 -0.80643559 112 98 139
-0.25337085 -0.57751441 -0.80795407 99 84 136
-0.25276792 -0.57869959 -0.80849773 109 93 139
-0.25285321 -0.57807899 -0.8078202 106 90 138
-0.25419703 -0.57635802 -0.80782932 86 73 133
-0.25311202 -0.57711655 -0.80698526 99 85 136
-0.25324988 -0.57730794 -0.80747408 99 84 136
-0.25360769 -0.57682633 -0.80744547 93 80 135
-0.2535491 -0.57731456 -0.80799305 96 82 136
-0.25134328 -0.57916099 -0.80679905 121 109 143
-0.25169429 -0.57798219 -0.80573106 113 101 140
-0.25175717 -0.57856834 -0.80661392 116 102 141
-0.25100642 -0.57870138 -0.80568075 121 112 143
-0.25162271 -0.5799185 -0.80823368 124 107 142
-0.25159439 -0.58008409 -0.80841088 125 108 143
-0.25114104 -0.58085197 -0.80837339 131 113 142
-0.25128698 -0.58085799 -0.80863225 130 111 142
-0.26119968 -0.57191557 -0.82042766 102 84 91
-0.26041266 -0.57561797 -0.81943953 119 95 117
-0.26057976 -0.57573551 -0.81975877 111 88 109
-0.26063359 -0.57307786 -0.81736356 136 114 131
-0.26073253 -0.57497907 -0.81925809 112 90 110
-0.26084456 -0.57349902 -0.81800407 121 100 117
-0.26093012 -0.57391882 -0.81898147 109 88 104
-0.26095557 -0.57239383 -0.8189047 111 92 102
-0.26108584 -0.57257879 -0.82067949 90 72 79
-0.26102534 -0.57447827 -0.82039398 92 72 86
-0.26100084 -0.57252109 -0.81953859 104 85 94
-0.26100153 -0.57259643 -0.81956828 103 84 94
-0.25986165 -0.57730365 -0.82028657 133 107 134
-0.25595665 -0.57991892 -0.81710505 148 127 130
-0.25635171 -0.57970214 -0.81760985 147 125 130
-0.25747356 -0.57644558 -0.81685513 135 107 125
-0.25832349 -0.57798654 -0.81895685 138 113 133
-0.25724265 -0.5779736 -0.81758261 140 115 129
-0.257184 -0.57862914 -0.81794572 142 118 130
-0.25677672 -0.57848424 -0.81733447 142 118 128
-0.25847888 -0.5784775 -0.8194806 139 115 135
-0.25621006 -0.57979912 -0.81795502 145 122 129
-0.25702399 -0.57934803 -0.81863427 143 119 131
-0.25661185 -0.57920253 -0.82017046 133 103 123
-0.25729331 -0.57885534 -0.8205862 132 102 125
-0.25778043 -0.57877874 -0.82002008 136 109 129
-0.25723445 -0.57886904 -0.82063192 131 101 124
-0.25929177 -0.57640493 -0.81881344 137 110 135
-0.25834265 -0.57660252 -0.81801063 134 107 129
-0.25220713 -0.57092243 -0.80011612 113 96 146
-0.25191408 -0.57167494 -0.80020207 104 86 141
-0.25021067 -0.5707761 -0.7980749 108 91 146
-0.25090754 -0.57081169 -0.79876101 110 93 146
-0.25013548 -0.57056308 -0.79788488 110 93 147
-0.25003186 -0.57069051 -0.79785645 108 91 146
-0.25007486 -0.57050002 -0.79779202 111 94 148
-0.25024959 -0.57042378 -0.79791683 112 96 148
-0.24956623 -0.57093823 -0.79751801 103 85 144
-0.24837534 -0.57305813 -0.79745185 96 78 137
-0.2487559 -0.57284659 -0.79773402 94 76 136
-0.25126171 -0.57253629 -0.80005336 98 79 137
-0.24937099 -0.57377636 -0.79914403 97 82 137
-0.24950483 -0.57348567 -0.79900759 97 81 137
-0.24812619 -0.57346362 -0.79742837 99 82 137
-0.24836946 -0.57463884 -0.79886568 96 84 137
-0.24976285 -0.573322 -0.79913723 98 81 137
-0.24934275 -0.57333827 -0.79867876 98 81 137
-0.24960917 -0.5748356 -0.8004185 96 84 137
-0.24916248 -0.5751552 -0.80025387 94 85 137
-0.25011697 -0.57474655 -0.80113065 90 79 135
-0.24870123 -0.57583833 -0.80060929 88 82 135
-0.247848 -0.5739826 -0.79752606 104 87 139
-0.24795464 -0.57607478 -0.79977047 95 88 137
-0.24796295 -0.57759446 -0.80083132 114 116 145
-0.24744624 -0.57768601 -0.79993927 128 126 149
-0.26006183 -0.57206768 -0.81465185 150 129 156
-0.26009175 -0.57226908 -0.8149488 149 127 153
-0.25936213 -0.57303143 -0.81468409 152 128 157
-0.25878477 -0.57431835 -0.81594157 150 124 148
-0.25844458 -0.57494026 -0.81639582 147 120 142
-0.25915241 -0.57260042 -0.81357813 147 127 160
-0.25921494 -0.57264894 -0.81376821 148 127 160
-0.25740799 -0.5759697 -0.81477994 109 89 123
-0.25746831 -0.57567155 -0.81407177 104 87 125
-0.25806689 -0.5748083 -0.81519908 134 111 137
-0.25869328 -0.57312602 -0.81334674 137 119 153
-0.25830418 -0.57376349 -0.81291097 120 105 145
-0.25781903 -0.57528317 -0.81518924 126 104 132
-0.25600615 -0.57867515 -0.81412494 118 103 136
-0.25642425 -0.5777024 -0.81368911 103 89 128
-0.25656441 -0.57751828 -0.81382817 101 88 125
-0.2564688 -0.57770288 -0.81385189 104 90 127
-0.25659493 -0.57814264 -0.81554651 124 105 126
-0.25645059 -0.57862043 -0.81593686 131 112 128
-0.25723666 -0.57624328 -0.81450266 102 84 121
-0.2565805 -0.57826936 -0.81582862 128 109 127
-0.25665644 -0.5777005 -0.81464458 110 94 124
-0.25337783 -0.57930613 -0.81664777 154 138 157
-0.25416231 -0.57859749 -0.81463927 130 116 153
-0.25428042 -0.57945544 -0.81632072 149 133 149
-0.25519186 -0.5797869 -0.81636202 148 131 141
-0.25478593 -0.57850736 -0.81401575 122 108 148
-0.25483617 -0.57906073 -0.81511861 135 119 146
-0.25372049 -0.57988834 -0.81377113 120 108 152
-0.25272569 -0.57950723 -0.81521696 137 123 159
-0.25211528 -0.57891876 -0.81658691 156 141 168
-0.25403956 -0.57974207 -0.81361318 118 107 151
-0.25553018 -0.57866383 -0.81294429 109 96 142
-0.25349182 -0.58103883 -0.81294203 116 103 137
-0.25207821 -0.58035129 -0.81476825 128 113 150
-0.25300214 -0.58021915 -0.81403732 121 107 149
-0.24391824 -0.5716784 -0.79308432 104 104 149
-0.243368 -0.57176036 -0.79253346 109 108 149
-0.25242212 -0.57511979 -0.80371183 99 85 137
-0.25195867 -0.57599837 -0.80390829 101 87 137
-0.25211558 -0.57310021 -0.80145919 100 82 137
-0.25335073 -0.57234609 -0.80337232 100 89 144
-0.25316301 -0.57454872 -0.80477077 99 89 141
-0.25359327 -0.57310176 -0.80460042 101 93 145
-0.2531487 -0.57353234 -0.80387938 99 88 141
-0.25267062 -0.57381606 -0.80295277 97 82 137
-0.25283748 -0.57239729 -0.80216408 98 83 139
-0.24995424 -0.57506347 -0.80130219 88 79 135
-0.2500332 -0.57587749 -0.80211705 89 80 135
-0.25146422 -0.57609528 -0.80356371 98 86 136
-0.2519435 -0.57582211 -0.80373102 101 87 137
-0.25128108 -0.57425642 -0.80171877 97 82 136
-0.25178072 -0.57419759 -0.80210024 100 84 137
-0.25258797 -0.57623249 -0.80495328 99 86 137
-0.24970703 -0.57695228 -0.80234748 106 102 141
-0.25012153 -0.57677031 -0.80265158 104 98 140
-0.24888013 -0.57710356 -0.80167431 104 103 141
-0.24878463 -0.57764268 -0.80179656 116 117 146
-0.25057283 -0.577402 -0.80341625 120 114 144
-0.25130239 -0.57719779 -0.80416459 114 105 141
-0.25171277 -0.57744306 -0.8050161 111 100 140
-0.24891657 -0.57052702 -0.79639584 101 85 144
-0.24877082 -0.56982237 -0.79566002 105 92 148
-0.24837472 -0.56945592 -0.79488653 106 94 150
-0.24937932 -0.5693838 -0.79605508 113 99 151
-0.24868998 -0.57147479 -0.79686999 91 75 139
-0.24836995 -0.57165766 -0.79657686 89 72 138
-0.24443561 -0.57165897 -0.79350591 103 103 148
-0.24647778 -0.57207346 -0.79514426 93 84 139
-0.24601409 -0.57179886 -0.79463398 96 89 142
-0.24779266 -0.57180846 -0.79586011 92 77 138
-0.24803707 -0.57125664 -0.79564106 95 80 140
-0.24609095 -0.57207763 -0.79488188 94 86 140
-0.24546064 -0.57142109 -0.79398984 100 96 145
-0.24772839 -0.57081902 -0.79512292 98 86 143
-0.24808848 -0.57239234 -0.79654068 89 72 135
-0.24759027 -0.5736531 -0.79686594 106 89 140
-0.24763641 -0.57270074 -0.79618138 97 81 137
-0.24768861 -0.57274181 -0.79627681 97 80 137
-0.245638 -0.5727554 -0.79481 103 95 142
-0.2559464 -0.57533538 -0.80931848 83 71 134
-0.25658399 -0.57475126 -0.81047916 90 79 133
-0.25653207 -0.57520777 -0.81073266 86 74 129
-0.2563931 -0.57370687 -0.80909973 98 87 142
-0.25693333 -0.57483077 -0.81144875 90 79 129
-0.25748459 -0.57503736 -0.81262177 96 83 130
-0.25706431 -0.57532454 -0.81215239 87 76 125
-0.25735468 -0.57464504 -0.81204432 98 85 132
-0.25683525 -0.57638496 -0.81262606 82 70 121
-0.25625178 -0.57686865 -0.81177163 86 74 128
-0.25602153 -0.5775196 -0.81212264 95 83 134
-0.25481376 -0.57907641 -0.8121444 101 89 142
-0.25484538 -0.57887751 -0.8119033 98 87 141
-0.25559857 -0.57810491 -0.81209338 99 87 139
-0.25509161 -0.57725149 -0.8102634 85 73 135
-0.25495958 -0.5777356 -0.81070346 90 78 137
-0.25499344 -0.57625902 -0.80905223 79 66 132
-0.2536543 -0.57895905 -0.81028473 106 91 141
-0.25342917 -0.57889342 -0.8098374 106 91 140
-0.25436866 -0.57749301 -0.80959493 91 78 136
-0.2531203 -0.57886463 -0.80930072 108 91 139
-0.25298166 -0.57900035 -0.80924731 109 93 139
-0.253438 -0.57848048 -0.80933142 103 88 138
-0.25331214 -0.58045727 -0.81166738 116 102 142
-0.25198326 -0.58040684 -0.80941916 124 105 140
-0.2539165 -0.58053303 -0.81276584 113 100 142
-0.25342274 -0.58077097 -0.81230003 116 102 139
-0.25297168 -0.58011365 -0.8106153 118 102 145
-0.25343683 -0.58107668 -0.81276321 116 103 137
-0.25193578 -0.58034641 -0.8092469 124 105 141
0 0 0 1 0 0 0 1 0 0 0 1 0 0 0 0 0 194 1 0 0
