ply
format ascii 1.0
comment PCL generated
element vertex 112
property float x
property float y
property float z
property uchar red
property uchar green
property uchar blue
element camera 1
property float view_px
property float view_py
property float view_pz
property float x_axisx
property float x_axisy
property float x_axisz
property float y_axisx
property float y_axisy
property float y_axisz
property float z_axisx
property float z_axisy
property float z_axisz
property float focal
property float scalex
property float scaley
property float centerx
property float centery
property int viewportx
property int viewporty
property float k1
property float k2
end_header
-0.13868412 -0.48917237 -0.71521688 157 137 178
-0.13858506 -0.4884845 -0.71494806 163 143 179
-0.13796473 -0.48984939 -0.71475154 157 137 179
-0.13807836 -0.48978895 -0.71483731 157 136 178
-0.13729957 -0.49145299 -0.71459937 149 126 172
-0.1372948 -0.49327996 -0.71510673 135 107 159
-0.13788998 -0.49156785 -0.71516585 144 120 169
-0.137909 -0.49160838 -0.7151944 144 119 169
-0.13764599 -0.49102226 -0.71479225 150 128 174
-0.1370537 -0.49364161 -0.71498978 133 105 157
-0.1373826 -0.49286878 -0.71507102 137 110 162
-0.13659593 -0.49350452 -0.71454489 141 114 162
-0.13686132 -0.49428102 -0.71499836 136 108 159
-0.13624305 -0.49748933 -0.71514589 147 127 162
-0.136314 -0.49725369 -0.71515709 146 125 161
-0.13610989 -0.49794102 -0.71512485 150 131 162
-0.13546845 -0.49851459 -0.71471691 163 149 172
-0.144326 -0.50247508 -0.72357333 110 87 114
-0.14263843 -0.48825037 -0.71915507 132 108 150
-0.14289168 -0.48831561 -0.71944869 131 106 148
-0.14407836 -0.48730144 -0.72053927 147 124 154
-0.14428154 -0.48797205 -0.72090113 138 111 148
-0.14314237 -0.488392 -0.71973825 131 105 147
-0.14358111 -0.48898467 -0.72033614 123 93 141
-0.14291355 -0.48897988 -0.71960473 122 94 142
-0.14248328 -0.48962632 -0.71927762 113 83 138
-0.14371738 -0.49062446 -0.7207371 113 73 130
-0.14261201 -0.49030811 -0.71953762 105 72 132
-0.14291631 -0.4912872 -0.72005022 107 77 124
-0.14286126 -0.49384424 -0.72047532 102 79 92
-0.14238971 -0.49408743 -0.72003311 101 79 89
-0.1425454 -0.49079719 -0.71956187 104 73 126
-0.14255121 -0.49201527 -0.71979821 102 74 111
-0.14197117 -0.4920049 -0.71923447 109 84 121
-0.14346971 -0.49541199 -0.72140223 106 84 101
-0.14283568 -0.49678847 -0.72113496 104 84 103
-0.14292039 -0.49693078 -0.72124839 105 85 104
-0.14187835 -0.49735394 -0.72037446 109 89 111
-0.14145432 -0.49659002 -0.71977454 111 90 112
-0.141853 -0.49553472 -0.71988767 106 84 101
-0.14241774 -0.49782395 -0.72100997 106 87 108
-0.14114 -0.49787614 -0.71980077 116 96 123
-0.14129971 -0.49501106 -0.71921009 114 98 111
-0.14166026 -0.4946073 -0.719455 110 92 103
-0.14389637 -0.49981761 -0.72272944 104 84 114
-0.14334235 -0.49985054 -0.72223002 102 82 108
-0.14340654 -0.49961761 -0.72224814 103 83 110
-0.14291856 -0.50166559 -0.72213703 98 77 103
-0.14277491 -0.50151461 -0.72197729 98 77 103
-0.14344083 -0.50161499 -0.72261864 98 76 105
-0.14153355 -0.50028306 -0.72065949 109 83 111
-0.14170553 -0.50131595 -0.72098315 105 80 108
-0.1409326 -0.50016904 -0.72010571 114 85 115
-0.14067708 -0.50077009 -0.7199775 114 84 116
-0.14249851 -0.49892145 -0.72129363 104 84 107
-0.14064352 -0.4984208 -0.71945041 119 98 128
-0.14237535 -0.49812245 -0.72104251 107 87 109
-0.14063285 -0.49810642 -0.71937191 120 100 130
-0.14315826 -0.50292599 -0.72257107 111 85 112
-0.14156274 -0.50267261 -0.72113353 110 85 113
-0.14113232 -0.50256836 -0.72072542 112 85 115
-0.1418633 -0.50271082 -0.72141004 108 85 112
-0.13918924 -0.48862851 -0.71562338 159 140 176
-0.13933077 -0.48837122 -0.71571052 160 142 176
-0.13985492 -0.48871166 -0.7163673 156 137 175
-0.13906619 -0.48930711 -0.71566832 155 134 176
-0.14179935 -0.48882118 -0.71840888 133 109 153
-0.14137366 -0.4887554 -0.71795791 139 117 159
-0.13980837 -0.48938993 -0.71648145 149 128 171
-0.14233696 -0.48765779 -0.71872002 144 125 159
-0.13961889 -0.49011907 -0.71644169 140 116 166
-0.14200006 -0.48917919 -0.71869457 125 98 148
-0.14210318 -0.48920804 -0.7188074 123 96 146
-0.13965982 -0.49114147 -0.71668744 138 116 156
-0.14103222 -0.49153915 -0.71818298 120 96 136
-0.13958335 -0.49066123 -0.71651417 139 116 162
-0.14066936 -0.49214196 -0.71792662 125 104 135
-0.1403316 -0.49055973 -0.71726704 130 104 154
-0.14168967 -0.49145788 -0.71884602 112 86 129
-0.14144497 -0.49395174 -0.71908313 114 98 109
-0.14001867 -0.49255237 -0.71736228 128 107 138
-0.13940568 -0.49277076 -0.71683913 124 97 141
-0.1393294 -0.4930045 -0.71682751 121 92 139
-0.13965265 -0.49347499 -0.71725494 117 88 130
-0.13874897 -0.49151692 -0.71589375 137 109 161
-0.13948208 -0.49378225 -0.71717316 113 81 128
-0.13800654 -0.49317721 -0.71569008 127 96 152
-0.13834834 -0.49255618 -0.71581727 129 99 154
-0.13827737 -0.49213451 -0.71564835 135 107 160
-0.14071199 -0.4962939 -0.71898144 118 98 122
-0.14079136 -0.49469683 -0.71864665 114 93 115
-0.14035937 -0.49438512 -0.71815819 112 87 117
-0.14049238 -0.49459845 -0.71833867 113 89 117
-0.14100911 -0.4945409 -0.71881253 114 95 112
-0.13931452 -0.49579358 -0.71752763 113 81 132
-0.13874193 -0.4978435 -0.71744788 107 88 134
-0.13899033 -0.49645293 -0.71736354 110 82 133
-0.13891681 -0.49605355 -0.71719599 109 79 133
-0.13753487 -0.49679959 -0.71611887 126 100 146
-0.13784193 -0.4958795 -0.71617383 121 90 142
-0.1384555 -0.49675569 -0.71692789 110 85 136
-0.13851525 -0.49456027 -0.71645999 110 71 133
-0.13683484 -0.49651647 -0.7154448 137 111 154
-0.13709685 -0.49492368 -0.71533543 131 102 153
-0.13707764 -0.49573481 -0.7154873 132 104 152
-0.13885204 -0.49874374 -0.71776158 109 88 132
-0.14003703 -0.49926129 -0.71904981 120 95 129
-0.13985291 -0.49873635 -0.71874982 118 95 131
-0.13829766 -0.49896967 -0.71734446 116 94 138
-0.138495 -0.49824193 -0.71732914 110 92 137
-0.13835433 -0.49991068 -0.71762067 117 89 133
-0.13655484 -0.49806333 -0.71554774 142 123 157
0 0 0 1 0 0 0 1 0 0 0 1 0 0 0 0 0 112 1 0 0
