ply
format ascii 1.0
comment PCL generated
element vertex 282
property float x
property float y
property float z
property uchar red
property uchar green
property uchar blue
element camera 1
property float view_px
property float view_py
property float view_pz
property float x_axisx
property float x_axisy
property float x_axisz
property float y_axisx
property float y_axisy
property float y_axisz
property float z_axisx
property float z_axisy
property float z_axisz
property float focal
property float scalex
property float scaley
property float centerx
property float centery
property int viewportx
property int viewporty
property float k1
property float k2
end_header
-0.095796116 -0.39733541 -0.68381774 140 118 130
-0.09414006 -0.39936966 -0.68336803 131 112 115
-0.093665645 -0.39978704 -0.68322909 128 109 111
-0.0953696 -0.39814487 -0.68371814 139 119 126
-0.09268593 -0.39964002 -0.68287152 118 97 103
-0.095462099 -0.40038383 -0.68390769 147 132 123
-0.09488865 -0.39833465 -0.68356091 135 115 122
-0.091905452 -0.3989771 -0.68257743 122 104 112
-0.093620881 -0.39701691 -0.68305355 135 116 130
-0.094538718 -0.39702159 -0.68335879 134 113 128
-0.093126491 -0.39830583 -0.68295097 126 106 116
-0.092983887 -0.39769554 -0.68287444 131 112 124
-0.093852602 -0.39738479 -0.68314821 132 112 125
-0.089642085 -0.39985389 -0.68199575 110 88 100
-0.08977291 -0.39978954 -0.68202865 111 89 101
-0.089681357 -0.39951807 -0.68199146 113 90 104
-0.091505274 -0.40026608 -0.68252367 112 91 97
-0.089671679 -0.39974564 -0.68199903 111 89 101
-0.091133423 -0.39840379 -0.68233448 124 106 117
-0.091672048 -0.3993963 -0.6825276 119 100 107
-0.090934977 -0.39922282 -0.68232006 118 97 107
-0.091698781 -0.39670643 -0.68240613 139 125 138
-0.094935805 -0.40282393 -0.68391061 130 108 106
-0.092664443 -0.4004806 -0.68292344 120 100 102
-0.094262771 -0.40284169 -0.68367344 123 100 101
-0.095012285 -0.40150517 -0.68383527 137 119 114
-0.094348222 -0.40148836 -0.68359858 131 111 109
-0.09216138 -0.40255332 -0.68292636 112 93 94
-0.092361182 -0.40340057 -0.68306994 113 93 94
-0.091906741 -0.40411225 -0.68297964 111 93 92
-0.093402125 -0.40365824 -0.68344605 117 94 95
-0.093685657 -0.4028486 -0.68346959 118 94 97
-0.089598946 -0.40406656 -0.68226528 105 86 97
-0.089155741 -0.40229052 -0.68203378 105 84 95
-0.089108728 -0.4030658 -0.6820603 105 84 96
-0.089177489 -0.40355819 -0.68210769 105 84 97
-0.088118292 -0.40255466 -0.6817261 102 80 98
-0.090075172 -0.40087062 -0.68218118 107 86 95
-0.091047086 -0.40215868 -0.68256241 109 90 93
-0.091740161 -0.40372276 -0.68289202 111 93 92
-0.091005698 -0.40271053 -0.6826005 109 90 93
-0.090964481 -0.40118682 -0.68245268 109 89 94
-0.090383701 -0.40039375 -0.68222284 108 87 95
-0.086420923 -0.40333495 -0.68135917 110 88 116
-0.085016958 -0.40414724 -0.6810118 105 82 112
-0.087334037 -0.40046 -0.6814242 107 83 103
-0.087068275 -0.40071273 -0.68138015 109 86 108
-0.086714014 -0.4028632 -0.68141741 112 90 117
-0.087184079 -0.40245923 -0.68149775 108 86 109
-0.092696711 -0.40524623 -0.68330568 112 89 89
-0.094309144 -0.40583023 -0.683878 117 87 90
-0.09424679 -0.40640566 -0.68388206 116 83 88
-0.094152495 -0.407175 -0.68388385 115 79 84
-0.092824042 -0.40606701 -0.68338889 111 84 87
-0.092049822 -0.40568709 -0.68312836 109 85 88
-0.092166223 -0.40668279 -0.68322998 108 78 86
-0.088965222 -0.40768391 -0.68230832 102 77 90
-0.088653088 -0.4067854 -0.6821512 102 78 93
-0.08831542 -0.40611318 -0.68200153 101 79 96
-0.090497382 -0.40808836 -0.68280935 103 71 85
-0.089152664 -0.40629208 -0.68227249 102 76 93
-0.089962728 -0.40667814 -0.68254906 103 73 91
-0.090085723 -0.40551955 -0.68250978 105 79 93
-0.090902217 -0.40724775 -0.68287796 104 70 87
-0.091407716 -0.40686509 -0.68300927 106 74 87
-0.09125945 -0.40656373 -0.68294322 106 76 88
-0.089139923 -0.40494385 -0.68217826 103 80 97
-0.090582758 -0.40531605 -0.68265039 106 82 92
-0.08446303 -0.407599 -0.68107802 103 79 93
-0.086126998 -0.40729949 -0.68149453 102 81 95
-0.084709182 -0.40779182 -0.68115425 102 79 92
-0.085185409 -0.40666422 -0.68120939 103 80 99
-0.084357649 -0.40621307 -0.68096536 103 80 101
-0.085325487 -0.40803659 -0.68133032 102 80 90
-0.087130368 -0.4068909 -0.68172836 101 81 97
-0.085924953 -0.40599558 -0.68136019 103 81 103
-0.086166896 -0.40470213 -0.68133485 103 81 106
-0.08768896 -0.4061245 -0.68181944 101 81 97
-0.086678095 -0.40558434 -0.68152481 102 81 102
-0.080086 -0.40811557 -0.68012494 105 79 97
-0.082369588 -0.40584338 -0.68048918 105 80 107
-0.080513895 -0.40808994 -0.68021721 104 79 95
-0.083673514 -0.40464404 -0.68070281 104 80 112
-0.081319354 -0.40754431 -0.68036145 104 79 97
-0.082288019 -0.40775946 -0.68058842 104 79 94
-0.083584026 -0.40663797 -0.68080556 104 79 99
-0.079963364 -0.40803796 -0.68009049 107 81 100
-0.093419999 -0.41095692 -0.68379861 129 111 105
-0.092537552 -0.40888116 -0.6834653 112 78 88
-0.093140677 -0.40962812 -0.68367201 119 91 94
-0.093300715 -0.41089338 -0.6837604 128 109 105
-0.092443265 -0.40982378 -0.6834628 117 91 94
-0.092257142 -0.40936899 -0.68339288 114 84 91
-0.092126831 -0.41105625 -0.68339062 122 105 98
-0.089568175 -0.40997407 -0.6825707 112 97 95
-0.091423266 -0.41191676 -0.68318939 125 114 100
-0.088215962 -0.41168272 -0.68218285 118 92 79
-0.088682055 -0.40999073 -0.68229419 111 91 89
-0.088479467 -0.40972742 -0.68222564 109 89 89
-0.090559624 -0.40867519 -0.68284732 106 77 87
-0.091780722 -0.40887788 -0.68322968 108 75 86
-0.08905454 -0.40927321 -0.68239582 108 91 93
-0.09158913 -0.40918425 -0.68317759 110 80 88
-0.089130484 -0.40834543 -0.68239766 103 79 89
-0.084484637 -0.41110846 -0.68125284 104 69 73
-0.084413297 -0.4093048 -0.68114495 104 77 83
-0.086226702 -0.41162601 -0.68168128 112 80 74
-0.085576393 -0.4103201 -0.68146497 109 81 80
-0.08518669 -0.4096497 -0.68134093 108 81 83
-0.085390784 -0.40981811 -0.68139666 109 82 83
-0.087257937 -0.41028282 -0.68188763 111 86 82
-0.086217247 -0.40897149 -0.68158913 105 82 87
-0.087363049 -0.41033506 -0.68191612 111 86 82
-0.085948654 -0.40956616 -0.68153095 108 83 84
-0.087080002 -0.41012907 -0.68183798 110 85 83
-0.083025686 -0.41151023 -0.6809389 102 64 72
-0.081462346 -0.41048932 -0.68053114 103 71 83
-0.080277197 -0.41095844 -0.68025994 104 74 88
-0.081015475 -0.41077378 -0.68043214 104 72 85
-0.081866853 -0.41045484 -0.68062752 103 70 81
-0.082773767 -0.41128904 -0.68087149 102 65 74
-0.082372889 -0.40957761 -0.68070412 103 72 83
-0.08283034 -0.41080391 -0.6808672 102 67 75
-0.083257012 -0.41081145 -0.68096179 102 66 74
-0.083500333 -0.40951729 -0.68094987 102 72 82
-0.083433285 -0.41033366 -0.68097645 102 69 77
-0.080006778 -0.40867791 -0.68012571 105 79 95
-0.079919487 -0.40860534 -0.68010187 106 80 97
-0.087899953 -0.41224957 -0.68209988 120 92 78
-0.087936409 -0.41492993 -0.68225241 137 129 132
-0.087895565 -0.4138332 -0.68218303 130 114 110
-0.08924409 -0.41213742 -0.68251288 122 100 85
-0.090281233 -0.41275454 -0.68284297 128 109 99
-0.091518253 -0.41277441 -0.68322957 131 118 107
-0.08416561 -0.412965 -0.68124682 111 77 79
-0.085324012 -0.41463095 -0.68158138 129 111 112
-0.085359849 -0.41366836 -0.68158084 118 94 99
-0.085857496 -0.41595975 -0.68174154 144 138 135
-0.085740224 -0.41593814 -0.68170923 144 137 134
-0.087601304 -0.41345894 -0.68209499 126 107 102
-0.0863216 -0.41387984 -0.68182194 123 103 107
-0.087505393 -0.41506171 -0.68215817 136 128 133
-0.087222189 -0.41412073 -0.68204266 129 113 114
-0.087283678 -0.41392097 -0.68204623 128 111 110
-0.086641118 -0.41366956 -0.68188447 123 102 103
-0.080881529 -0.41416073 -0.68045503 110 85 94
-0.080984779 -0.4152723 -0.68048567 109 86 95
-0.082018539 -0.41598627 -0.68074429 120 102 103
-0.080868311 -0.41401866 -0.6804511 110 85 93
-0.081437469 -0.41542572 -0.68059814 114 93 98
-0.083661787 -0.41359419 -0.68112636 118 89 88
-0.083579019 -0.41479912 -0.68111938 132 112 105
-0.082486317 -0.41303656 -0.68083715 113 82 86
-0.082135916 -0.41383275 -0.68076134 122 98 99
-0.082468338 -0.41408351 -0.68084413 125 102 101
-0.081852615 -0.41304639 -0.68068463 114 85 90
-0.080008417 -0.41600665 -0.6802516 95 71 87
-0.079147533 -0.41554442 -0.68008107 95 67 89
-0.084564827 -0.41962308 -0.6814974 150 134 138
-0.084749229 -0.41808277 -0.68148881 143 127 127
-0.085035339 -0.41956705 -0.68161041 145 126 134
-0.084438808 -0.41699556 -0.68137515 144 129 122
-0.085999757 -0.4191111 -0.68182999 133 110 124
-0.0857151 -0.41672465 -0.6817072 139 127 128
-0.08608713 -0.41664594 -0.68180847 140 130 132
-0.080541559 -0.41732776 -0.68041974 107 82 95
-0.080296032 -0.41625607 -0.68032706 99 76 91
-0.080420509 -0.41749096 -0.6803937 106 81 93
-0.082516991 -0.41985252 -0.68099225 141 120 123
-0.080411516 -0.41764089 -0.68039572 107 81 93
-0.081216104 -0.41783011 -0.68060505 117 94 104
-0.081505768 -0.41664827 -0.68063974 116 96 103
-0.083120674 -0.4185766 -0.68110585 142 126 128
-0.080934167 -0.41627806 -0.68048567 107 86 96
-0.083355106 -0.41719726 -0.68111581 141 127 122
-0.081769168 -0.41662714 -0.68070412 119 100 105
-0.083273046 -0.41715989 -0.68109423 140 125 121
-0.079963446 -0.41684794 -0.68026602 99 74 89
-0.079531081 -0.41777849 -0.68020725 104 77 94
-0.079106823 -0.41806349 -0.68013263 105 77 96
-0.08532533 -0.42038187 -0.68166953 141 119 128
-0.085405894 -0.42025098 -0.681696 140 119 129
-0.081875332 -0.42054409 -0.68079805 134 112 112
-0.083190627 -0.42012918 -0.68115377 149 132 132
-0.07761576 -0.40808231 -0.67952853 130 108 136
-0.077626273 -0.40774545 -0.67951339 132 111 141
-0.077452585 -0.40719387 -0.67944288 137 119 152
-0.076862015 -0.40730387 -0.67931014 142 125 157
-0.07511045 -0.40809411 -0.67900932 157 139 166
-0.074362427 -0.40686774 -0.67882186 165 149 175
-0.074552797 -0.40610614 -0.67882061 165 150 177
-0.075479224 -0.40718424 -0.67902648 154 136 166
-0.07498201 -0.40529832 -0.67886913 169 156 178
-0.079551622 -0.40970999 -0.68004799 109 82 100
-0.078193136 -0.40975863 -0.6797232 123 98 121
-0.079545587 -0.41035375 -0.68006706 109 81 99
-0.079334363 -0.41192651 -0.68006653 110 81 98
-0.077580579 -0.4088766 -0.67954791 130 106 133
-0.077091418 -0.40939432 -0.67944723 134 111 139
-0.076417282 -0.40969798 -0.67930025 138 119 149
-0.077199467 -0.41061023 -0.67951703 130 108 135
-0.076181322 -0.41149545 -0.67931074 134 119 148
-0.076165631 -0.41179505 -0.67931849 134 119 147
-0.077073574 -0.4132179 -0.67955929 121 103 129
-0.078642264 -0.415016 -0.67995453 101 76 98
-0.077568911 -0.41292238 -0.67967093 119 98 122
-0.07856115 -0.41266164 -0.67989963 113 87 108
-0.076896332 -0.41430876 -0.67957652 110 84 113
-0.076259159 -0.41562453 -0.67952114 95 57 93
-0.076722413 -0.41461736 -0.67955893 106 77 108
-0.076875567 -0.4150613 -0.67960978 101 70 101
-0.073930934 -0.41479573 -0.67908406 136 113 145
-0.07467217 -0.41519451 -0.67922944 121 92 125
-0.074596345 -0.41551164 -0.67922044 117 88 125
-0.074529208 -0.41272873 -0.67910796 154 140 160
-0.074844643 -0.41324124 -0.67918205 143 125 147
-0.074746035 -0.41300589 -0.67915511 147 131 152
-0.074741356 -0.41346109 -0.67917693 142 123 146
-0.075855017 -0.41477627 -0.6794138 109 78 110
-0.076528504 -0.41615602 -0.67959499 92 52 87
-0.078797631 -0.41808623 -0.68007392 104 75 97
-0.078482561 -0.41727266 -0.67999327 99 69 93
-0.078254081 -0.41697079 -0.67994225 98 66 91
-0.076484174 -0.41775566 -0.67962146 100 66 101
-0.076148763 -0.41767827 -0.67955369 100 66 104
-0.075058408 -0.41649994 -0.67932522 106 74 116
-0.075077318 -0.41815996 -0.67936277 115 89 133
-0.096588306 -0.3993319 -0.68427646 147 128 129
-0.096954301 -0.4002862 -0.68448502 151 134 136
-0.10074948 -0.40315512 -0.68613166 127 87 117
-0.10023106 -0.4031359 -0.68589962 127 83 120
-0.10001711 -0.40376109 -0.68582082 120 69 113
-0.10099653 -0.40306404 -0.68623954 128 91 117
-0.097388692 -0.40230405 -0.68472737 133 98 117
-0.097592086 -0.40276223 -0.68483323 129 91 114
-0.096880265 -0.40312544 -0.68461323 129 95 110
-0.098557211 -0.40429527 -0.68528664 117 66 106
-0.096409179 -0.4025273 -0.68440336 134 106 113
-0.097134963 -0.40219089 -0.68463033 134 102 117
-0.096663184 -0.40071201 -0.68438464 148 129 130
-0.099480666 -0.40361011 -0.68558347 122 69 116
-0.098356858 -0.40239161 -0.6851036 133 94 123
-0.096541479 -0.40074882 -0.6843372 147 128 128
-0.095511921 -0.40159255 -0.68401915 141 123 117
-0.099783219 -0.40645841 -0.68585891 128 85 110
-0.099940851 -0.40585506 -0.68589127 126 78 111
-0.10096853 -0.40573615 -0.68633181 132 82 115
-0.10204355 -0.40754244 -0.68690878 150 113 121
-0.10021397 -0.40559793 -0.68599474 126 76 112
-0.10069719 -0.40591654 -0.68622446 132 83 114
-0.10224593 -0.40643236 -0.68693572 142 101 116
-0.10222141 -0.40570736 -0.68688911 133 92 109
-0.10170612 -0.40637392 -0.68669176 141 96 119
-0.1017549 -0.40532413 -0.6866619 128 84 107
-0.096042521 -0.40530762 -0.68445057 125 93 97
-0.097901411 -0.4078784 -0.68522966 130 95 98
-0.097035423 -0.4069564 -0.68487448 127 93 96
-0.097895563 -0.40704754 -0.68520403 131 99 102
-0.097409651 -0.40758458 -0.68503445 128 93 96
-0.095733754 -0.40663832 -0.68437064 121 84 88
-0.097722761 -0.40607554 -0.68510318 130 98 105
-0.099216238 -0.4059847 -0.68561774 125 82 108
-0.09932182 -0.40458634 -0.68557042 117 61 108
-0.098912999 -0.40525284 -0.6854682 122 75 107
-0.098472677 -0.40592045 -0.68535501 127 88 106
-0.096677728 -0.40482533 -0.68466413 125 92 102
-0.09547244 -0.40611902 -0.68427467 121 86 90
-0.095543556 -0.40559155 -0.68428135 122 89 93
-0.094648577 -0.40720883 -0.68405575 116 79 85
-0.10163379 -0.40868372 -0.68675786 155 127 126
-0.10078481 -0.40882349 -0.6863845 150 124 124
-0.10004774 -0.40863907 -0.68606806 144 116 118
-0.10141115 -0.40927953 -0.68664575 157 134 133
-0.097063504 -0.41017172 -0.6850037 148 118 117
-0.097462729 -0.41030914 -0.68516421 154 125 123
-0.097325988 -0.40944931 -0.68507653 144 110 110
-0.097702704 -0.40981582 -0.68523633 151 120 119
-0.097449958 -0.40955281 -0.68512833 146 113 113
-0.098002769 -0.40982231 -0.68535072 152 123 121
-0.096252665 -0.40854329 -0.68462741 126 86 89
-0.095381103 -0.40889257 -0.68432736 122 85 86
-0.094266787 -0.40937957 -0.68400615 121 90 91
0 0 0 1 0 0 0 1 0 0 0 1 0 0 0 0 0 282 1 0 0
