ply
format ascii 1.0
comment PCL generated
element vertex 231
property float x
property float y
property float z
property uchar red
property uchar green
property uchar blue
element camera 1
property float view_px
property float view_py
property float view_pz
property float x_axisx
property float x_axisy
property float x_axisz
property float y_axisx
property float y_axisy
property float y_axisz
property float z_axisx
property float z_axisy
property float z_axisz
property float focal
property float scalex
property float scaley
property float centerx
property float centery
property int viewportx
property int viewporty
property float k1
property float k2
end_header
-0.20037176 0.35848203 -0.80508727 94 66 74
-0.20449808 0.35396132 -0.80812126 134 127 116
-0.201814 0.35603708 -0.80552965 93 75 79
-0.20365489 0.35391563 -0.80711764 119 111 104
-0.20252629 0.35358256 -0.80570066 96 89 89
-0.20455629 0.35394564 -0.8081854 136 128 116
-0.20269363 0.35582694 -0.80650657 108 92 91
-0.20332466 0.35680386 -0.80702317 120 96 100
-0.2016343 0.35698628 -0.80556768 93 70 77
-0.20352453 0.3569192 -0.80718863 124 99 102
-0.20292585 0.35587835 -0.80672634 112 95 94
-0.20394909 0.35471377 -0.80765814 127 116 108
-0.2055704 0.35052425 -0.80897391 101 78 81
-0.20508748 0.35021284 -0.80846167 90 64 71
-0.20505495 0.3527163 -0.80860269 131 120 111
-0.20300081 0.34975821 -0.80629081 95 46 77
-0.20250127 0.35035196 -0.80581999 108 58 89
-0.20492762 0.35148662 -0.80838656 111 92 92
-0.20201993 0.34979963 -0.80528808 102 44 83
-0.20276363 0.35069573 -0.80611295 112 66 93
-0.20309493 0.35183844 -0.80644387 114 84 97
-0.20189244 0.35047176 -0.80510598 98 48 82
-0.20263916 0.35176712 -0.80591208 106 75 91
-0.20201693 0.35326684 -0.80509764 88 77 82
-0.20285456 0.35329822 -0.80608046 103 94 93
-0.20214325 0.3524445 -0.80529159 94 72 84
-0.20189494 0.35100144 -0.80507964 96 53 82
-0.20527729 0.34898457 -0.80863184 82 53 66
-0.20521541 0.34623787 -0.80863661 80 47 74
-0.2039984 0.34598508 -0.80740947 89 59 80
-0.20365027 0.34790397 -0.80701399 94 68 77
-0.20478308 0.34776118 -0.80815691 82 51 69
-0.20283705 0.34658447 -0.80622715 102 78 87
-0.20429493 0.34796292 -0.80766106 87 59 72
-0.2046628 0.34695673 -0.8080548 83 51 73
-0.20429559 0.34935278 -0.8076182 85 51 67
-0.20190468 0.34667549 -0.8052752 109 81 92
-0.20358782 0.34798503 -0.80694789 94 68 77
-0.20400843 0.34945178 -0.80731982 87 49 69
-0.20270781 0.34758234 -0.80606192 101 71 84
-0.20365548 0.34832683 -0.80700344 93 63 75
-0.20362934 0.34887895 -0.80695432 91 56 73
-0.20525922 0.34474748 -0.80874431 104 72 93
-0.20426324 0.34291759 -0.80757385 139 110 119
-0.20468505 0.34515104 -0.80802077 88 54 81
-0.20245388 0.34493506 -0.80574203 114 90 99
-0.20337734 0.34507233 -0.80669248 103 74 91
-0.20319805 0.34504306 -0.80650753 105 77 93
-0.20469677 0.34524077 -0.80804604 87 53 80
-0.20132458 0.33501318 -0.80548084 157 124 132
-0.20156783 0.3350082 -0.80577534 161 129 136
-0.20125033 0.33577505 -0.80512661 163 136 137
-0.20083389 0.33445498 -0.80527103 150 111 126
-0.20265391 0.33212659 -0.80780685 167 125 143
-0.20239939 0.33365405 -0.80720258 164 127 142
-0.20226949 0.33244228 -0.80728263 161 118 137
-0.20125203 0.33378932 -0.80579466 147 103 123
-0.20206957 0.33151761 -0.80721021 159 117 134
-0.20204237 0.33091664 -0.80728507 159 119 134
-0.20243044 0.33157742 -0.80764353 163 118 138
-0.20006421 0.33044291 -0.80554295 155 129 129
-0.19959782 0.33037603 -0.80523652 157 134 131
-0.2006408 0.33168063 -0.80571353 150 117 126
-0.19970757 0.33098882 -0.80520141 156 130 130
-0.20209071 0.32994696 -0.80754107 161 125 135
-0.20170738 0.32847703 -0.80757827 169 140 144
-0.2017182 0.32942912 -0.80726194 161 129 136
-0.20024848 0.32695186 -0.80660361 173 144 145
-0.20085973 0.32862043 -0.80655193 160 130 134
-0.19923681 0.3265149 -0.80607271 179 154 148
-0.19838113 0.32673287 -0.80546772 180 158 146
-0.20032977 0.32912797 -0.80607843 158 130 130
-0.20042264 0.32877749 -0.80623078 160 132 132
-0.19970593 0.32908526 -0.8056674 161 137 133
-0.1983344 0.32786888 -0.80510265 175 155 142
-0.19911903 0.32960823 -0.80510688 163 142 134
-0.19774333 0.3258062 -0.80531317 177 155 142
-0.19730473 0.32523099 -0.80519998 164 141 130
-0.19589356 0.34601724 -0.80107707 150 129 123
-0.19590428 0.34572342 -0.80102301 148 127 121
-0.19423389 0.34599221 -0.80035162 130 102 110
-0.19590095 0.34494203 -0.80088383 145 122 119
-0.19505398 0.3456322 -0.80063736 137 113 114
-0.19542579 0.34385249 -0.8004986 136 108 112
-0.19614553 0.34376934 -0.80078763 143 118 117
-0.19523388 0.34314737 -0.80037737 134 103 110
-0.19594166 0.34020245 -0.80067617 132 103 104
-0.19652009 0.34030712 -0.8008675 143 115 113
-0.19463091 0.33904892 -0.80034906 111 79 87
-0.19420241 0.33872849 -0.80023551 104 71 81
-0.19447574 0.33922583 -0.80028057 110 77 86
-0.19480185 0.33933869 -0.80037564 113 82 88
-0.19613865 0.33765307 -0.8010546 146 116 116
-0.19433933 0.33529425 -0.80082798 100 67 82
-0.19443691 0.33469233 -0.80096591 99 67 83
-0.19241613 0.33406594 -0.80023658 94 71 82
-0.19326228 0.33487463 -0.80040896 99 72 84
-0.19304819 0.33513418 -0.80030781 97 70 82
-0.19397904 0.33342454 -0.80101448 100 69 84
-0.19300017 0.33369905 -0.80050576 98 73 86
-0.19998068 0.35896236 -0.80503303 95 66 74
-0.20156848 0.35477403 -0.80488235 89 76 80
-0.20159566 0.35478851 -0.80491984 88 76 80
-0.20099305 0.35738447 -0.80506319 89 65 73
-0.20100363 0.35388461 -0.80408281 99 91 95
-0.19940944 0.35528105 -0.80387586 116 98 108
-0.20022047 0.3546744 -0.80401003 107 94 101
-0.19929139 0.35577399 -0.80396914 116 96 106
-0.20000444 0.3535226 -0.80356944 98 74 93
-0.19847696 0.35614416 -0.80376548 124 101 114
-0.19738121 0.3557837 -0.80320668 121 77 108
-0.20058037 0.35405126 -0.80396909 103 93 99
-0.19746286 0.35520366 -0.80305886 115 67 102
-0.20122656 0.35324317 -0.80412608 98 88 94
-0.20180108 0.35143566 -0.80493885 95 59 83
-0.20122533 0.35133508 -0.80422491 103 67 91
-0.19911918 0.3514702 -0.80326009 103 41 86
-0.19961253 0.35058302 -0.8033967 102 44 86
-0.19896322 0.3516832 -0.80320144 103 40 86
-0.19955701 0.35105887 -0.80346745 104 42 86
-0.19853918 0.35052741 -0.80264455 94 42 83
-0.19797468 0.35277429 -0.80277032 100 35 86
-0.20075946 0.35123453 -0.80399466 105 60 90
-0.19988936 0.35215184 -0.80359215 102 57 89
-0.20055732 0.35111737 -0.80391848 105 56 89
-0.20003994 0.35145503 -0.80369002 104 52 88
-0.2003148 0.35343435 -0.80369818 98 78 93
-0.19973521 0.35112476 -0.80358326 105 43 87
-0.20168193 0.34853041 -0.80494702 106 55 87
-0.20126089 0.34734616 -0.80443001 115 79 97
-0.19742727 0.34768161 -0.80168122 115 88 100
-0.19765511 0.34693548 -0.80184603 127 104 109
-0.19815457 0.34867555 -0.80218917 91 58 85
-0.19726905 0.34793282 -0.80156815 112 83 98
-0.19929604 0.34698781 -0.80300397 113 90 100
-0.19737221 0.34645346 -0.80164891 139 118 116
-0.19955114 0.34603965 -0.80318916 128 111 111
-0.19901301 0.34924838 -0.80276865 95 50 84
-0.20090929 0.34698054 -0.80412555 116 86 100
-0.19811073 0.34925079 -0.80214697 88 49 81
-0.20047344 0.34866393 -0.80378777 107 61 91
-0.20008641 0.34748715 -0.80354738 108 78 96
-0.19814116 0.34925917 -0.80216777 88 49 82
-0.19709101 0.34764931 -0.80149716 117 89 101
-0.19667351 0.34651798 -0.80133522 137 115 114
-0.19628426 0.34655887 -0.80120969 139 116 116
-0.20192999 0.34354195 -0.80495822 136 113 117
-0.20166489 0.34242034 -0.80438894 154 130 130
-0.20138118 0.34274185 -0.80407888 154 132 130
-0.20131782 0.3437475 -0.80417585 143 123 123
-0.1995542 0.34236258 -0.80262661 162 140 133
-0.19923304 0.34248474 -0.80242693 161 139 132
-0.19819476 0.34475866 -0.80206591 157 140 129
-0.19945534 0.34218764 -0.80253297 162 139 133
-0.20040497 0.34184182 -0.80312574 166 143 137
-0.19755161 0.34183538 -0.80118638 155 129 124
-0.19827382 0.3455334 -0.80225915 147 131 122
-0.2010463 0.34354308 -0.80386198 149 129 126
-0.20033322 0.34515843 -0.80364603 135 118 116
-0.19946863 0.34396937 -0.8028242 156 138 130
-0.19843581 0.34551874 -0.80237091 146 130 122
-0.19994858 0.34461939 -0.80327863 145 127 122
-0.19992878 0.34308201 -0.80299115 163 143 135
-0.19724128 0.34391013 -0.80127621 154 134 125
-0.19858371 0.34159926 -0.80189794 159 134 129
-0.19885515 0.3411378 -0.80212021 162 137 131
-0.19825315 0.34063658 -0.80175239 161 136 130
-0.19821082 0.33942932 -0.80184811 165 140 133
-0.19842793 0.33969006 -0.80196893 165 140 133
-0.1988803 0.340399 -0.80220073 165 140 134
-0.19835749 0.33856124 -0.80206919 167 143 135
-0.19869612 0.33912164 -0.80223215 167 143 135
-0.19680583 0.33817941 -0.80120087 158 130 126
-0.19913365 0.33459696 -0.80381376 138 104 116
-0.19949438 0.33405393 -0.80435348 139 99 117
-0.19916701 0.33528787 -0.80355746 142 113 119
-0.19843957 0.33442518 -0.80327785 132 97 110
-0.19735765 0.33783671 -0.80145293 166 139 132
-0.19890235 0.336263 -0.80301374 149 125 123
-0.19819674 0.33532175 -0.80275249 137 108 114
-0.19776991 0.33568001 -0.80234206 140 111 116
-0.19817065 0.33699083 -0.80227923 157 131 127
-0.19798556 0.33763197 -0.80196905 164 139 132
-0.19702038 0.33598062 -0.80177104 142 111 115
-0.19717364 0.33635333 -0.80174434 147 117 119
-0.19666904 0.33578703 -0.80165261 137 106 112
-0.19580968 0.33458486 -0.80156094 116 85 97
-0.19686174 0.33738428 -0.80132508 157 129 125
-0.19938481 0.33218431 -0.80469066 148 117 124
-0.19909245 0.3330653 -0.80423725 141 106 118
-0.19858089 0.33200246 -0.80402857 142 114 119
-0.19905575 0.33394659 -0.80400729 135 96 114
-0.19963081 0.33256757 -0.8048197 148 114 124
-0.19856907 0.33145338 -0.80414182 145 119 121
-0.19778818 0.3306511 -0.803693 141 112 121
-0.19888435 0.33076984 -0.8045727 152 128 127
-0.19584531 0.33392319 -0.80176079 109 76 92
-0.19635895 0.33388555 -0.80202287 113 79 95
-0.19482212 0.33222207 -0.80180895 105 67 86
-0.19555192 0.33303916 -0.80189568 109 74 91
-0.19678496 0.33186638 -0.80276269 124 90 106
-0.19546159 0.33162457 -0.80228305 111 72 91
-0.19544859 0.3305864 -0.802535 116 78 97
-0.19698156 0.33211625 -0.80278093 125 91 107
-0.1965659 0.33174434 -0.80270356 122 87 104
-0.19706745 0.33144557 -0.80298209 129 96 112
-0.19793104 0.32994476 -0.804003 146 119 126
-0.1975019 0.32902429 -0.8039887 152 126 130
-0.19790788 0.32825834 -0.80460966 166 143 137
-0.19788709 0.329198 -0.80424368 155 129 131
-0.19433028 0.32869816 -0.80267048 117 82 93
-0.19654101 0.32647592 -0.80439544 167 147 134
-0.19655037 0.32647669 -0.80440009 167 147 134
-0.1947087 0.32730034 -0.80322701 126 99 100
-0.19566666 0.32791081 -0.80355442 146 117 117
-0.19718435 0.32992759 -0.80342454 138 108 122
-0.19641855 0.32738987 -0.80405438 160 135 129
-0.19530751 0.33001524 -0.80262673 117 80 98
-0.19439715 0.32927483 -0.80253047 116 78 92
-0.19594732 0.32983705 -0.80295378 126 92 107
-0.1966666 0.32471439 -0.80494624 156 131 125
-0.19634898 0.32573944 -0.80447221 167 148 134
-0.20642313 0.3500711 -0.81014925 100 69 80
-0.20590037 0.35052252 -0.80941653 101 76 81
-0.20585436 0.35069594 -0.80936944 104 80 83
-0.20571718 0.34657329 -0.80922872 87 55 79
-0.20566835 0.34810364 -0.80909055 87 57 73
-0.20591195 0.34359863 -0.8097353 145 120 122
-0.20563181 0.34438968 -0.80924165 119 91 104
-0.20608714 0.34428281 -0.80995768 131 107 111
-0.20564745 0.34449258 -0.8092584 117 88 103
0 0 0 1 0 0 0 1 0 0 0 1 0 0 0 0 0 231 1 0 0
