ply
format ascii 1.0
comment PCL generated
element vertex 169
property float x
property float y
property float z
property uchar red
property uchar green
property uchar blue
element camera 1
property float view_px
property float view_py
property float view_pz
property float x_axisx
property float x_axisy
property float x_axisz
property float y_axisx
property float y_axisy
property float y_axisz
property float z_axisx
property float z_axisy
property float z_axisz
property float focal
property float scalex
property float scaley
property float centerx
property float centery
property int viewportx
property int viewporty
property float k1
property float k2
end_header
0.23874435 -0.43788967 -0.79803246 47 35 30
0.24375992 -0.43830815 -0.80083925 71 48 33
0.24312665 -0.43804139 -0.80051112 66 45 32
0.24153347 -0.43940669 -0.7992208 71 53 39
0.24217325 -0.43878397 -0.79974937 68 49 35
0.24059843 -0.43901825 -0.79876035 63 48 38
0.23940693 -0.44162619 -0.79745185 74 61 47
0.23983985 -0.44135913 -0.79775804 77 62 47
0.23957637 -0.43977284 -0.79799563 61 47 39
0.23978262 -0.4399066 -0.79807824 65 50 40
0.24362312 -0.44207337 -0.79992288 96 77 44
0.24383804 -0.44312355 -0.79986227 102 85 45
0.24331288 -0.44156379 -0.79981947 93 73 44
0.24266124 -0.44280678 -0.79916334 98 81 49
0.24219215 -0.44202548 -0.79900897 93 75 49
0.24404687 -0.44004115 -0.80058169 86 64 38
0.24292985 -0.44181967 -0.79952383 93 75 46
0.24111117 -0.44063252 -0.79867351 79 62 45
0.24212036 -0.43988875 -0.79945159 78 58 41
0.24149895 -0.43947786 -0.79918313 72 54 39
0.24167706 -0.44171029 -0.79874742 90 72 49
0.24112605 -0.44232023 -0.79827321 92 75 53
0.24330318 -0.44000039 -0.80012506 84 62 40
0.24030508 -0.44015917 -0.79831088 71 56 44
0.24529147 -0.44276288 -0.80091017 87 65 39
0.24454945 -0.44310793 -0.8003388 98 79 43
0.24471186 -0.440633 -0.80090684 85 62 38
0.24440548 -0.44048753 -0.80073047 87 65 38
0.24171387 -0.44682211 -0.79785228 80 55 43
0.24195121 -0.44695795 -0.79799247 79 54 41
0.24329494 -0.44667819 -0.79898947 78 51 35
0.24275887 -0.4471215 -0.79852736 77 50 37
0.24222773 -0.44545531 -0.79848081 84 62 44
0.24214317 -0.44574043 -0.79836404 84 61 43
0.24214956 -0.44451636 -0.79856741 91 72 47
0.24164186 -0.44338629 -0.79839724 99 83 53
0.2440432 -0.44505602 -0.79971367 90 69 38
0.24353133 -0.44516417 -0.79936844 89 67 40
0.24363777 -0.44543743 -0.79939902 87 64 38
0.24226221 -0.44460726 -0.79862738 91 71 46
0.24563904 -0.44441137 -0.80089766 79 54 36
0.24508013 -0.44564688 -0.80034268 76 50 33
0.24584322 -0.44484404 -0.80098647 75 51 34
0.24545005 -0.4452461 -0.80065626 76 50 34
0.24504589 -0.44364181 -0.80059272 91 69 40
0.24511103 -0.44409755 -0.80057389 86 63 38
0.24228327 -0.44800124 -0.79800433 76 47 39
0.24181606 -0.44784337 -0.79771119 77 49 41
0.24132039 -0.44784418 -0.79736817 79 52 44
0.23386928 -0.4509272 -0.79215837 43 29 31
0.2344307 -0.45060509 -0.79252601 48 34 33
0.2341205 -0.44805154 -0.79298222 42 27 30
0.23436576 -0.45098907 -0.79239976 48 34 33
0.23477921 -0.45056292 -0.79271615 52 38 34
0.23538528 -0.45067334 -0.79300243 58 44 37
0.23390771 -0.45192537 -0.7919423 46 33 36
0.23512952 -0.4515371 -0.79266429 57 43 39
0.23480536 -0.45137164 -0.79253572 53 40 36
0.23354411 -0.45124677 -0.79191381 41 27 30
0.23600146 -0.45410681 -0.79251134 74 62 60
0.23577414 -0.45253116 -0.79276377 67 54 49
0.23513211 -0.45399579 -0.79208946 65 53 55
0.23504007 -0.45472878 -0.79187685 62 51 54
0.23357134 -0.45343411 -0.7914238 43 31 37
0.2335709 -0.45413202 -0.79126561 42 30 37
0.23442259 -0.45464012 -0.79158324 54 42 47
0.23683052 -0.45283449 -0.79330599 78 64 53
0.23721997 -0.45442545 -0.79318666 86 72 64
0.2360653 -0.45892501 -0.79156232 90 82 77
0.23584025 -0.45666507 -0.79189873 80 70 68
0.23568067 -0.45724645 -0.79170573 80 70 68
0.23504582 -0.45550454 -0.7917186 64 53 55
0.23535833 -0.45697835 -0.79159355 74 64 64
0.23527549 -0.45521879 -0.79189026 66 55 57
0.23474538 -0.45540312 -0.79158551 59 48 52
0.23685557 -0.45830092 -0.79216576 97 87 78
0.23817021 -0.45850685 -0.79293555 106 94 72
0.23736514 -0.45682386 -0.7927829 95 83 73
0.23741966 -0.45895517 -0.79238015 103 93 77
0.23693509 -0.45531777 -0.79280168 86 74 69
0.23704994 -0.45530698 -0.79287863 87 75 69
0.23519781 -0.45977396 -0.79089218 64 56 56
0.2358782 -0.45953885 -0.79133379 80 73 69
0.23721436 -0.46250173 -0.79162222 63 56 45
0.23744327 -0.46139944 -0.79194415 75 67 53
0.23773779 -0.46086851 -0.79222149 83 74 56
0.2377782 -0.46205309 -0.79206556 73 65 48
0.238068 -0.45984983 -0.7926138 97 87 65
0.23677695 -0.4595823 -0.79186612 91 83 74
0.2366275 -0.45922247 -0.79184073 95 86 78
0.23792493 -0.45967278 -0.79255837 98 88 67
0.23689511 -0.45991248 -0.79187775 88 80 70
0.2449448 -0.43835741 -0.80159754 67 44 34
0.24486628 -0.43924147 -0.80129021 76 52 35
0.24480405 -0.43787909 -0.80164003 63 41 33
0.24415007 -0.43778604 -0.80122787 67 45 34
0.24638011 -0.43953362 -0.80223358 68 44 33
0.24675669 -0.44034234 -0.80235988 67 40 32
0.24514073 -0.43947494 -0.8014102 76 52 35
0.24546358 -0.44076934 -0.80140615 77 52 35
0.24514577 -0.4406696 -0.80119812 80 56 36
0.24570575 -0.44115445 -0.80150503 77 50 35
0.24702875 -0.44325784 -0.80204529 73 42 33
0.2462173 -0.44363093 -0.80140436 79 54 36
0.24631561 -0.44420463 -0.80138803 75 52 35
0.24638546 -0.44457218 -0.80138987 73 49 34
0.23946352 -0.44286641 -0.79716736 83 68 52
0.23792633 -0.44180831 -0.79655719 57 42 40
0.23760818 -0.44098398 -0.79658335 48 33 35
0.23702203 -0.44205084 -0.79598033 47 31 36
0.23660906 -0.44275582 -0.79556721 46 29 37
0.2385831 -0.44301748 -0.79662716 73 57 49
0.23591316 -0.44344971 -0.79501849 44 27 37
0.23551439 -0.44364902 -0.79476368 42 26 35
0.23506252 -0.44532606 -0.79412073 43 29 33
0.23555231 -0.44442776 -0.79459321 44 28 35
0.23464838 -0.44663757 -0.79359323 44 29 32
0.23760454 -0.4438839 -0.79588139 61 43 44
0.23747812 -0.44449857 -0.79569018 57 38 41
0.23808761 -0.4441244 -0.79611033 66 48 46
0.23752718 -0.44351456 -0.79590881 61 44 44
0.23706174 -0.44357172 -0.7956323 55 37 42
0.23743099 -0.44418386 -0.79572427 58 39 42
0.23693852 -0.44625866 -0.79492599 58 40 41
0.2363372 -0.446536 -0.79448491 54 37 40
0.23706101 -0.444911 -0.79533112 55 37 41
0.23647557 -0.4453674 -0.79485619 52 35 40
0.2370359 -0.44679302 -0.79485595 59 42 42
0.23744139 -0.44634253 -0.79521775 61 43 42
0.23588638 -0.44743773 -0.79403454 53 38 38
0.23516475 -0.44787699 -0.79356128 50 35 35
0.23531508 -0.44745952 -0.79373765 50 35 36
0.23981443 -0.44895411 -0.79610914 85 61 47
0.23842199 -0.44981766 -0.79501927 78 58 45
0.23723044 -0.45098987 -0.79399908 73 56 43
0.23899439 -0.44887039 -0.79558694 79 58 46
0.23771098 -0.45003948 -0.79450703 74 56 44
0.24022672 -0.45093751 -0.79597962 94 67 47
0.23725966 -0.44761738 -0.79479557 63 46 42
0.23726363 -0.448897 -0.79449272 67 50 43
0.23864575 -0.44885048 -0.79536188 77 57 46
0.23644775 -0.44930676 -0.79388839 63 47 41
0.2390449 -0.4482398 -0.79575539 78 57 46
0.23778313 -0.44910583 -0.79476541 72 54 44
0.23654309 -0.45062307 -0.79363346 67 53 42
0.24139142 -0.449285 -0.79713207 81 53 42
0.24083352 -0.44968948 -0.79665816 87 59 44
0.24077439 -0.44856572 -0.79684389 84 59 46
0.24073982 -0.4474448 -0.79704601 81 57 46
0.23748198 -0.45336464 -0.79360473 86 72 58
0.23765938 -0.45428276 -0.79350567 90 75 64
0.23724048 -0.45306736 -0.79351759 83 68 56
0.23901276 -0.45172444 -0.7949999 90 69 49
0.23999457 -0.45287484 -0.79536587 106 84 58
0.23945102 -0.45279363 -0.79502827 102 81 57
0.24012688 -0.45134529 -0.79582447 95 69 48
0.23648286 -0.4512524 -0.79345125 69 55 42
0.23822097 -0.45130867 -0.79458028 82 62 45
0.24250622 -0.45376399 -0.79690075 98 67 46
0.24203613 -0.45479456 -0.7963199 109 82 56
0.24182025 -0.45385972 -0.79639673 103 76 53
0.24178016 -0.45218202 -0.79677796 91 61 45
0.24159928 -0.45418817 -0.79616177 108 82 57
0.24154182 -0.45235801 -0.79656798 94 66 48
0.24120887 -0.45230111 -0.7963478 96 68 49
0.24093336 -0.45206121 -0.79621243 96 69 49
0.23843722 -0.45579854 -0.79365337 102 87 69
0.23833148 -0.45685029 -0.79337335 102 88 69
0.24278882 -0.45566779 -0.79667145 102 73 50
0 0 0 1 0 0 0 1 0 0 0 1 0 0 0 0 0 169 1 0 0
