ply
format ascii 1.0
comment PCL generated
element vertex 120
property float x
property float y
property float z
property uchar red
property uchar green
property uchar blue
element camera 1
property float view_px
property float view_py
property float view_pz
property float x_axisx
property float x_axisy
property float x_axisz
property float y_axisx
property float y_axisy
property float y_axisz
property float z_axisx
property float z_axisy
property float z_axisz
property float focal
property float scalex
property float scaley
property float centerx
property float centery
property int viewportx
property int viewporty
property float k1
property float k2
end_header
-0.21433274 0.34676123 -0.83798069 123 106 110
-0.21421923 0.34610984 -0.8375119 131 114 119
-0.21342017 0.34209341 -0.83805609 212 195 195
-0.21410324 0.3427054 -0.83931506 182 162 169
-0.21349546 0.34217408 -0.83817255 210 193 194
-0.21408056 0.34304491 -0.83896488 178 158 165
-0.21383952 0.34197417 -0.83924788 202 182 186
-0.21352197 0.34311393 -0.83743769 196 179 181
-0.2142483 0.34503004 -0.83816594 142 124 130
-0.21442385 0.34357086 -0.84004003 157 137 142
-0.21461724 0.34443641 -0.84021962 137 118 121
-0.2142584 0.3445898 -0.83854532 148 130 135
-0.21448645 0.3444337 -0.83965397 142 123 127
-0.21462032 0.34460175 -0.8401069 134 115 118
-0.21371388 0.33937031 -0.83915526 146 134 131
-0.21402203 0.33940712 -0.83994323 140 126 126
-0.21397349 0.3384729 -0.83984041 119 107 106
-0.21393295 0.33989429 -0.83970404 154 139 139
-0.21323375 0.33819175 -0.83793277 141 118 126
-0.21336141 0.33954704 -0.83824271 162 146 146
-0.21373327 0.33904314 -0.83921176 138 126 124
-0.21348533 0.33835301 -0.83858091 134 116 120
-0.20955673 0.33937761 -0.83870012 161 136 145
-0.20971766 0.33979556 -0.83828056 146 124 131
-0.21066883 0.33845535 -0.83800817 168 140 151
-0.2095356 0.34089103 -0.83784664 118 102 106
-0.20967126 0.3401418 -0.83813113 137 117 123
-0.21080138 0.33916515 -0.83745074 145 121 131
-0.21128368 0.33903223 -0.83699596 141 116 127
-0.20945433 0.33901566 -0.83902276 174 146 155
-0.21178359 0.34106427 -0.83665347 187 172 170
-0.21108548 0.33956397 -0.83696967 134 112 121
-0.20964436 0.3414683 -0.83762872 119 105 107
-0.21202067 0.33841905 -0.83654207 146 119 131
-0.21231952 0.34156162 -0.83640993 216 203 196
-0.21172196 0.34076065 -0.83970922 139 119 124
-0.2106138 0.33835834 -0.83921999 182 151 163
-0.21191758 0.3393462 -0.83871561 150 125 134
-0.21148051 0.33944103 -0.83913493 157 131 140
-0.21049073 0.33920002 -0.83981687 176 148 157
-0.21163879 0.34052622 -0.83964074 143 122 128
-0.21157596 0.33988738 -0.83931774 151 127 134
-0.21265507 0.34088111 -0.83772254 184 167 166
-0.21285859 0.3381972 -0.83714473 151 123 135
-0.21273309 0.34003809 -0.83749831 175 154 158
-0.21263637 0.34008652 -0.83779109 167 146 151
-0.21253169 0.34070781 -0.8380996 170 151 153
-0.21317317 0.33717149 -0.83789104 145 118 129
-0.21369089 0.33514696 -0.83954054 148 122 130
-0.21374923 0.33627805 -0.83951777 133 112 118
-0.21322814 0.33764127 -0.83796108 138 113 123
-0.21331687 0.33767122 -0.83818591 134 111 120
-0.21326949 0.33604518 -0.83829409 153 126 137
-0.21309173 0.3364549 -0.83775669 154 128 140
-0.21345714 0.33460769 -0.83896345 160 136 145
-0.21290681 0.3360931 -0.83727777 162 139 150
-0.21035394 0.33695108 -0.83921123 199 168 180
-0.21275677 0.33606052 -0.83734626 165 142 153
-0.2102271 0.33764559 -0.83924389 195 162 175
-0.21134868 0.33686987 -0.83840996 182 154 166
-0.21222052 0.337749 -0.83761102 160 130 144
-0.2127381 0.33786091 -0.83717847 150 121 135
-0.2107337 0.33701432 -0.8388958 192 162 174
-0.2107207 0.336054 -0.83873451 200 173 184
-0.21150884 0.33647236 -0.83739781 182 156 167
-0.21247374 0.33727103 -0.83633512 158 131 144
-0.21172135 0.33659822 -0.83716297 178 151 163
-0.21094303 0.33586341 -0.83801872 198 173 183
-0.21226749 0.33661774 -0.83655459 168 143 154
-0.21054399 0.33651191 -0.8384738 199 171 182
-0.21314183 0.3389692 -0.83035815 158 108 141
-0.21460663 0.33917218 -0.83091247 166 140 142
-0.21445513 0.33894107 -0.83085042 164 133 141
-0.21361551 0.33832166 -0.83052152 157 105 136
-0.21298489 0.33959961 -0.83031327 160 116 145
-0.21160556 0.33986753 -0.83218938 172 146 159
-0.21270478 0.33806598 -0.83052635 155 93 137
-0.21214867 0.33975896 -0.83134001 160 116 145
-0.21280651 0.3381986 -0.83036673 153 89 135
-0.21458268 0.33624676 -0.83102268 164 141 138
-0.21376888 0.33627108 -0.830715 160 125 138
-0.21449225 0.33749002 -0.83087701 160 121 134
-0.21313208 0.3365564 -0.83045042 156 108 137
-0.21333057 0.33640736 -0.83053827 157 114 137
-0.21490908 0.33660671 -0.8311128 165 142 137
-0.21183614 0.33648044 -0.83201885 174 153 158
-0.21248004 0.33581135 -0.83107245 167 138 150
-0.21207567 0.3370209 -0.83159906 173 142 157
-0.21275055 0.33666822 -0.83057046 158 110 140
-0.21308433 0.34310284 -0.83630997 210 196 193
-0.21283175 0.3435092 -0.83576119 197 180 181
-0.21223952 0.34221897 -0.83540672 208 194 190
-0.21213309 0.34256452 -0.83503664 198 183 180
-0.21200295 0.34233931 -0.83456022 194 178 177
-0.21168482 0.3424384 -0.83341968 175 157 162
-0.21244892 0.34182864 -0.83614546 223 211 204
-0.21176744 0.34195557 -0.83369911 185 168 171
-0.2122407 0.33973944 -0.8353247 196 176 178
-0.21187003 0.33929694 -0.83386278 199 180 183
-0.21223392 0.33894551 -0.83530676 181 158 164
-0.212376 0.33931261 -0.83586502 183 161 166
-0.21244569 0.33861801 -0.83614856 168 142 152
-0.21162041 0.34099498 -0.83309942 181 162 168
-0.21188429 0.34175068 -0.83410972 193 177 179
-0.2120446 0.34126833 -0.83464724 203 188 187
-0.21148385 0.34090111 -0.83260065 174 154 162
-0.21200372 0.34077924 -0.83446062 203 186 186
-0.21201257 0.34160063 -0.83455896 201 185 185
-0.21245298 0.33548325 -0.83631998 175 154 163
-0.21227404 0.33573514 -0.8353433 162 140 148
-0.21190716 0.33684576 -0.83381259 163 139 147
-0.21194386 0.33726537 -0.83404338 165 141 150
-0.21185614 0.33714443 -0.83367151 167 143 152
-0.21208495 0.33763498 -0.83467692 164 137 148
-0.21205397 0.33631894 -0.83428639 154 130 138
-0.21358192 0.34335458 -0.84095544 121 104 106
-0.2132002 0.34319326 -0.84127259 123 106 108
-0.21294668 0.34253892 -0.84138483 126 109 111
-0.21405222 0.34399143 -0.84064752 121 103 105
-0.21374306 0.34207943 -0.84062505 163 144 149
0 0 0 1 0 0 0 1 0 0 0 1 0 0 0 0 0 120 1 0 0
