ply
format ascii 1.0
comment PCL generated
element vertex 115
property float x
property float y
property float z
property uchar red
property uchar green
property uchar blue
element camera 1
property float view_px
property float view_py
property float view_pz
property float x_axisx
property float x_axisy
property float x_axisz
property float y_axisx
property float y_axisy
property float y_axisz
property float z_axisx
property float z_axisy
property float z_axisz
property float focal
property float scalex
property float scaley
property float centerx
property float centery
property int viewportx
property int viewporty
property float k1
property float k2
end_header
-0.21799643 -0.12434456 -0.80897421 154 145 168
-0.21699014 -0.12435816 -0.80878812 145 135 159
-0.21734607 -0.12430056 -0.80827802 154 144 167
-0.21308483 -0.12486438 -0.80580562 124 115 136
-0.21338212 -0.12486245 -0.80701578 120 110 130
-0.21500123 -0.12462302 -0.80764616 132 121 144
-0.21339048 -0.12483934 -0.80644965 123 113 134
-0.21326715 -0.12488176 -0.80703133 119 108 129
-0.21356036 -0.12482501 -0.80679655 123 113 134
-0.21527006 -0.1244864 -0.80652332 144 135 157
-0.21597336 -0.12441702 -0.80742443 145 135 158
-0.2148378 -0.1245177 -0.8058458 145 136 157
-0.21583487 -0.12439627 -0.80687147 149 139 161
-0.2111204 -0.12527892 -0.80784577 92 81 98
-0.21110286 -0.12533665 -0.80822325 82 71 86
-0.20991713 -0.12542187 -0.80682981 92 81 96
-0.2113608 -0.12522507 -0.80787033 97 86 103
-0.21036351 -0.12543868 -0.80769902 78 68 82
-0.2115095 -0.12509863 -0.80622208 117 105 124
-0.21223563 -0.12497748 -0.8056224 122 112 132
-0.21227226 -0.12506209 -0.80795503 108 96 115
-0.21098578 -0.12517339 -0.80632597 115 103 121
-0.21059009 -0.12523001 -0.80640775 113 101 119
-0.20881979 -0.12548319 -0.80567163 98 86 101
-0.20830987 -0.12579016 -0.80777073 29 22 32
-0.2086668 -0.12563914 -0.80675161 65 55 68
-0.22267152 -0.12411132 -0.81927055 126 117 138
-0.22272518 -0.12395103 -0.81997204 118 105 131
-0.2228497 -0.12409221 -0.81951845 126 116 138
-0.22379355 -0.12421434 -0.81992579 137 131 149
-0.22289638 -0.12425462 -0.81878072 135 128 146
-0.2234848 -0.12440579 -0.81781167 148 140 159
-0.20948274 -0.12552172 -0.80052537 127 118 135
-0.21054727 -0.12497406 -0.79962069 130 120 142
-0.20974599 -0.12510395 -0.79875481 127 119 141
-0.21140772 -0.12475993 -0.80014151 132 122 145
-0.21219391 -0.12455193 -0.80054981 134 123 148
-0.21158615 -0.12476574 -0.80052465 132 122 145
-0.2096128 -0.12490103 -0.79754651 131 123 146
-0.20950311 -0.12492052 -0.79743719 131 123 146
-0.21045935 -0.12469649 -0.79818928 136 127 150
-0.20758073 -0.12595376 -0.80020958 111 105 119
-0.20827511 -0.12583099 -0.80050433 118 111 126
-0.20629458 -0.1263039 -0.80006117 102 94 106
-0.20670156 -0.12598681 -0.79944038 102 97 111
-0.20771408 -0.12595589 -0.80034947 113 106 120
-0.20800975 -0.12553625 -0.79865426 114 109 127
-0.20776682 -0.12552686 -0.7983613 111 106 125
-0.20865335 -0.12564394 -0.7998842 122 114 131
-0.20595664 -0.12574589 -0.79776108 91 90 108
-0.20813824 -0.12542455 -0.79817003 116 110 130
-0.22074504 -0.12422127 -0.81393743 152 145 163
-0.22082688 -0.12422664 -0.81379157 154 147 166
-0.22096729 -0.12425162 -0.8146801 147 140 158
-0.2209463 -0.12424824 -0.81457281 148 141 159
-0.21985599 -0.12416469 -0.81413627 138 132 149
-0.21922244 -0.12412204 -0.81405371 131 124 142
-0.22032319 -0.12418122 -0.81311625 154 147 166
-0.21775864 -0.12401138 -0.81298876 122 116 133
-0.21714069 -0.12396961 -0.81289721 115 109 126
-0.20750071 -0.12422357 -0.79160053 161 149 173
-0.20704618 -0.1243935 -0.79142779 156 143 167
-0.21322757 -0.12456279 -0.80307341 136 126 148
-0.21366367 -0.12468736 -0.80496007 137 128 149
-0.21381991 -0.12454829 -0.80405211 141 132 153
-0.21305273 -0.12446683 -0.80192029 136 125 149
-0.21347475 -0.12458774 -0.80374908 137 128 150
-0.21390715 -0.12427808 -0.8019011 148 138 161
-0.21014154 -0.12537399 -0.80383682 123 112 130
-0.21138716 -0.12510636 -0.8047536 124 114 133
-0.20901205 -0.12557006 -0.8034358 121 110 126
-0.20950066 -0.12546103 -0.80383283 121 110 127
-0.20955715 -0.12549271 -0.80346972 122 112 128
-0.21163799 -0.12511235 -0.80330247 127 118 138
-0.21219921 -0.12487976 -0.80303591 129 120 141
-0.21213573 -0.12479667 -0.80212271 131 121 143
-0.21071789 -0.12520072 -0.80121338 130 121 139
-0.21149682 -0.12520021 -0.8036226 126 118 136
-0.21238489 -0.12461136 -0.80129701 134 123 147
-0.20667598 -0.12625201 -0.80194175 98 86 99
-0.20719223 -0.12608454 -0.80193913 102 90 104
-0.20865194 -0.12578471 -0.80154437 118 109 124
-0.20830867 -0.12566662 -0.80269247 109 98 115
-0.20880654 -0.12554371 -0.80374378 117 105 122
-0.20901679 -0.12507132 -0.79718751 127 119 142
-0.20982286 -0.12464805 -0.7969386 141 133 155
-0.20777009 -0.12540151 -0.79664648 114 111 129
-0.20727879 -0.12544569 -0.7970174 107 104 123
-0.20803432 -0.12528434 -0.79721689 115 109 131
-0.20608152 -0.12563701 -0.79723173 92 91 110
-0.20846069 -0.12453713 -0.79389787 151 143 165
-0.20856784 -0.12471233 -0.79481715 144 136 157
-0.20828593 -0.12516716 -0.7959801 126 122 141
-0.20876446 -0.12457944 -0.79472703 148 139 162
-0.20877804 -0.12463716 -0.79498237 146 137 160
-0.20732079 -0.12547894 -0.79509085 118 119 132
-0.21836548 -0.12418667 -0.8116616 141 133 153
-0.21836311 -0.1242841 -0.81078511 148 139 161
-0.22005686 -0.1242195 -0.81236243 157 150 169
-0.21741977 -0.12399024 -0.81286931 119 113 130
-0.21765743 -0.1240427 -0.81253791 125 118 136
-0.21866979 -0.12422018 -0.81153977 146 137 158
-0.21774988 -0.12434886 -0.80925173 150 140 164
-0.21839631 -0.12432446 -0.80955815 155 146 168
-0.21447198 -0.12474868 -0.80909073 118 107 128
-0.21671776 -0.1242304 -0.81046146 129 120 142
-0.21639779 -0.12423588 -0.81088012 123 114 134
-0.21644795 -0.12435868 -0.80970395 132 122 145
-0.21507978 -0.12457737 -0.8097406 119 108 129
-0.21476626 -0.12459795 -0.81001419 114 103 123
-0.20995471 -0.12538685 -0.81017935 20 13 23
-0.20962054 -0.12575558 -0.80925852 21 15 23
-0.20707355 -0.12633064 -0.80962372 30 21 32
-0.20831996 -0.12591442 -0.80950302 19 13 21
-0.20829438 -0.12535505 -0.81024563 27 18 29
0 0 0 1 0 0 0 1 0 0 0 1 0 0 0 0 0 115 1 0 0
