ply
format ascii 1.0
comment PCL generated
element vertex 465
property float x
property float y
property float z
property uchar red
property uchar green
property uchar blue
element camera 1
property float view_px
property float view_py
property float view_pz
property float x_axisx
property float x_axisy
property float x_axisz
property float y_axisx
property float y_axisy
property float y_axisz
property float z_axisx
property float z_axisy
property float z_axisz
property float focal
property float scalex
property float scaley
property float centerx
property float centery
property int viewportx
property int viewporty
property float k1
property float k2
end_header
-0.27164561 -0.48185673 -0.80792904 126 101 132
-0.2723034 -0.48240361 -0.80847853 125 103 130
-0.27237779 -0.48302951 -0.80852592 124 99 129
-0.27190876 -0.48272836 -0.80815405 126 100 133
-0.27278784 -0.48324728 -0.80885202 122 98 125
-0.27207768 -0.48551834 -0.8082549 116 78 123
-0.27188376 -0.4853799 -0.80810702 117 79 124
-0.27169591 -0.4839808 -0.8079713 122 89 130
-0.27072191 -0.48498732 -0.80722344 127 95 132
-0.26920643 -0.48568913 -0.80606687 143 120 142
-0.27142012 -0.48389718 -0.80776072 123 90 131
-0.27082157 -0.48339909 -0.8073085 132 107 139
-0.27106786 -0.48561028 -0.80748278 121 83 126
-0.2713421 -0.48426676 -0.80769926 123 89 130
-0.27131775 -0.48259044 -0.80769086 129 103 138
-0.27058178 -0.48322228 -0.80713093 135 111 141
-0.27273136 -0.48745894 -0.80870104 107 64 110
-0.27299795 -0.48895371 -0.80883908 97 52 98
-0.27158466 -0.48989731 -0.80788553 88 40 93
-0.27212802 -0.49013966 -0.80824244 88 39 90
-0.27203578 -0.48863536 -0.80817175 98 51 101
-0.26983047 -0.4889318 -0.80654454 116 82 120
-0.26976314 -0.48998839 -0.80650026 109 75 113
-0.26910284 -0.48903653 -0.80598712 125 96 128
-0.26842767 -0.49020642 -0.80547726 125 101 127
-0.27101374 -0.4901455 -0.80746067 92 47 97
-0.26909846 -0.48938528 -0.80598611 122 93 125
-0.26877725 -0.48801446 -0.80573809 135 110 135
-0.27003944 -0.48637804 -0.80669659 130 97 131
-0.26894164 -0.48885921 -0.80586374 128 101 130
-0.2679913 -0.48908922 -0.80514127 138 118 137
-0.2686902 -0.4875696 -0.80567151 139 116 138
-0.26906934 -0.48857188 -0.8059606 128 100 131
-0.2722975 -0.49078688 -0.80838168 87 41 89
-0.27254009 -0.49291158 -0.80864704 84 52 90
-0.2728495 -0.49028024 -0.80871719 89 41 88
-0.27235231 -0.49413332 -0.80859578 87 61 93
-0.27161354 -0.49069831 -0.80793083 86 39 91
-0.27124193 -0.49156198 -0.80769771 90 48 95
-0.27052033 -0.49188173 -0.80712134 97 55 102
-0.26981872 -0.493727 -0.80664766 107 73 112
-0.2708548 -0.49240866 -0.80742669 95 56 100
-0.269088 -0.49333668 -0.8060236 113 75 117
-0.2685433 -0.49347651 -0.80558282 118 79 122
-0.27096531 -0.49039024 -0.80742478 92 46 97
-0.27111623 -0.49059832 -0.80754143 90 42 94
-0.26902729 -0.49083567 -0.80594003 116 84 119
-0.26897243 -0.49123803 -0.80589968 116 83 119
-0.26827571 -0.49365079 -0.80537564 121 83 124
-0.26797196 -0.4910624 -0.80513144 129 105 132
-0.27073854 -0.4905214 -0.80725139 95 50 99
-0.27226847 -0.49528891 -0.80856192 94 72 99
-0.27269128 -0.49558246 -0.8088361 93 73 97
-0.2728487 -0.49606264 -0.8089444 95 77 98
-0.27208003 -0.49650583 -0.80846912 100 84 103
-0.27164155 -0.49665368 -0.80820686 99 85 103
-0.27200916 -0.49612418 -0.80841577 99 81 102
-0.27105978 -0.49489856 -0.80771095 101 75 106
-0.27131924 -0.49462458 -0.8079192 96 70 102
-0.26981404 -0.49735194 -0.80674183 129 109 129
-0.26996154 -0.49704993 -0.80685622 125 105 126
-0.27141938 -0.49647355 -0.8080526 99 84 103
-0.26962438 -0.49633282 -0.80655652 129 103 131
-0.26870197 -0.49727142 -0.80581516 147 120 146
-0.27076796 -0.49436855 -0.80745769 100 72 106
-0.26948452 -0.49524155 -0.80641782 121 91 124
-0.26943234 -0.49444342 -0.80635887 114 82 118
-0.26914617 -0.49528509 -0.80613995 125 94 127
-0.27034578 -0.49426454 -0.80710781 103 74 109
-0.26853514 -0.49551442 -0.80564117 133 101 134
-0.27261972 -0.50018537 -0.80881476 103 101 114
-0.27258655 -0.49870935 -0.80881113 105 98 108
-0.27186555 -0.50075912 -0.80840707 101 104 116
-0.27227822 -0.50184345 -0.80864459 101 106 121
-0.27064931 -0.49830145 -0.807486 114 104 115
-0.26968643 -0.49821398 -0.8066749 131 115 131
-0.27018502 -0.49917164 -0.80719757 115 107 117
-0.2677477 -0.50081158 -0.80536115 142 128 144
-0.26828259 -0.50119823 -0.80584532 130 121 134
-0.26915219 -0.49932662 -0.8063606 130 117 132
-0.2681078 -0.50079805 -0.80565733 136 124 139
-0.2687692 -0.50082457 -0.80620152 125 118 130
-0.27059463 -0.49978259 -0.80752963 109 106 117
-0.27070424 -0.4996793 -0.80760843 108 105 116
-0.27041373 -0.49969918 -0.80739379 111 106 117
-0.27042529 -0.50021368 -0.807414 111 108 119
-0.27071944 -0.50028986 -0.80763346 108 107 118
-0.27242118 -0.50209171 -0.80872166 101 106 121
-0.27259141 -0.50475341 -0.80882609 99 104 115
-0.2719835 -0.50358617 -0.80851936 98 105 118
-0.27155399 -0.50287485 -0.80832231 97 105 119
-0.27048093 -0.50493932 -0.80769163 99 103 114
-0.26798204 -0.50414342 -0.80578971 119 102 130
-0.26812413 -0.50444931 -0.80591524 116 99 128
-0.26893806 -0.50477511 -0.80653918 109 98 123
-0.26778108 -0.5022881 -0.80551755 132 123 138
-0.26855767 -0.50500631 -0.8062731 110 94 124
-0.26844317 -0.50540578 -0.80621499 108 89 123
-0.2690514 -0.50243461 -0.80646771 120 118 132
-0.27037293 -0.50426203 -0.80756688 103 106 118
-0.26961368 -0.50200975 -0.80685598 117 116 131
-0.26876366 -0.50286716 -0.80628324 122 118 131
-0.27098107 -0.50327116 -0.80795169 100 106 119
-0.26939163 -0.50365907 -0.80680048 114 113 125
-0.26729718 -0.50528747 -0.80535525 116 89 129
-0.26731291 -0.50291175 -0.80520558 130 116 138
-0.27189109 -0.50843775 -0.80892324 125 127 141
-0.27224889 -0.5068211 -0.80886889 106 110 122
-0.2679722 -0.50970638 -0.80639088 91 90 123
-0.26879844 -0.50755948 -0.80669993 117 100 135
-0.26947537 -0.50962263 -0.80745399 113 112 138
-0.2682862 -0.50790906 -0.80637968 107 93 129
-0.26853576 -0.50847298 -0.80663192 107 97 130
-0.26959431 -0.50945991 -0.80751765 116 114 139
-0.26901501 -0.50826156 -0.80694664 115 104 136
-0.27100334 -0.50723529 -0.80828482 109 111 126
-0.27001584 -0.50715804 -0.80754602 114 105 130
-0.27066883 -0.50743759 -0.80805874 114 112 131
-0.26843131 -0.50670725 -0.80632603 117 93 132
-0.27031669 -0.50819552 -0.80787826 127 119 143
-0.2665149 -0.5096792 -0.80527204 102 97 130
-0.26691717 -0.50969869 -0.80559003 95 92 126
-0.26653194 -0.5094716 -0.80525815 103 97 130
-0.26629001 -0.50953531 -0.80507809 106 100 132
-0.2680541 -0.51059639 -0.80640453 94 89 121
-0.27080804 -0.5107978 -0.80822664 133 128 149
-0.27024737 -0.51047331 -0.80788839 125 121 144
-0.27031648 -0.51041472 -0.80794907 126 122 145
-0.26829448 -0.51036334 -0.80651408 96 93 125
-0.26747906 -0.51076329 -0.80614913 90 85 114
-0.2665236 -0.50995409 -0.8053112 102 97 129
-0.28424194 -0.46580008 -0.81783563 97 84 92
-0.2846716 -0.46501955 -0.81825119 91 78 87
-0.28654307 -0.46672809 -0.8187691 101 93 98
-0.28348839 -0.46589047 -0.8174302 98 85 92
-0.28455645 -0.46634337 -0.81785786 100 89 95
-0.28664637 -0.46586251 -0.81890196 91 82 89
-0.28689599 -0.46579349 -0.81895256 88 79 86
-0.28306803 -0.46511593 -0.817397 92 78 88
-0.28389689 -0.47054514 -0.81756514 107 93 97
-0.28537801 -0.47058809 -0.81839138 103 92 95
-0.28551874 -0.46961424 -0.81843781 101 91 95
-0.28476349 -0.47049055 -0.81804591 104 92 96
-0.28339866 -0.47049558 -0.81728613 109 93 97
-0.28631762 -0.47042766 -0.81890935 100 91 94
-0.28578746 -0.46795988 -0.81846339 101 92 97
-0.28708062 -0.47037113 -0.8193174 98 91 94
-0.28694344 -0.46751189 -0.81901348 101 93 98
-0.28700879 -0.46860695 -0.81913644 100 92 96
-0.28709707 -0.46955872 -0.81925917 99 91 95
-0.28641441 -0.46990478 -0.818941 99 91 94
-0.28293881 -0.46971413 -0.81696403 107 92 97
-0.28730023 -0.471315 -0.81941986 92 85 88
-0.28750572 -0.47366413 -0.81934756 82 74 80
-0.28775698 -0.4737781 -0.81948364 76 69 74
-0.28380048 -0.4737325 -0.81698346 91 75 89
-0.28624138 -0.47381002 -0.81861484 93 82 90
-0.28395626 -0.47363847 -0.81710726 92 76 89
-0.28355178 -0.47177315 -0.81720603 103 87 95
-0.28532821 -0.47455436 -0.81785041 87 74 87
-0.28599879 -0.47201681 -0.81863385 98 88 93
-0.28596601 -0.47161087 -0.81864864 99 89 93
-0.28600058 -0.47220057 -0.81861991 97 87 92
-0.28687629 -0.47319168 -0.81902683 92 84 90
-0.28684968 -0.4741089 -0.81893736 90 81 89
-0.28700829 -0.47295547 -0.81911957 93 84 90
-0.28751454 -0.4771055 -0.81819314 95 88 94
-0.28776401 -0.47793949 -0.81797636 93 88 93
-0.28738868 -0.47833642 -0.81758511 108 102 108
-0.28885779 -0.47726402 -0.81890744 55 51 55
-0.28739202 -0.47719216 -0.818084 99 93 99
-0.28667933 -0.47776335 -0.8174879 112 105 111
-0.286327 -0.47720101 -0.81758201 107 100 106
-0.2858285 -0.47771415 -0.81708211 111 103 110
-0.28505236 -0.47637594 -0.81703037 100 89 100
-0.28462726 -0.47571588 -0.81697631 95 81 95
-0.2861692 -0.47514632 -0.81821746 92 81 91
-0.28550127 -0.47519442 -0.81774986 91 79 91
-0.28503039 -0.47523886 -0.81741649 91 78 91
-0.2862173 -0.48977381 -0.81682962 45 41 42
-0.28671014 -0.48906523 -0.81685036 54 49 51
-0.28667104 -0.49166632 -0.8169111 17 15 16
-0.28629923 -0.49060026 -0.81704354 33 30 30
-0.27731684 -0.4586058 -0.81418604 93 79 85
-0.27761397 -0.46157679 -0.81408715 89 79 76
-0.27782598 -0.46158549 -0.81426018 87 76 75
-0.2780562 -0.461445 -0.81446642 84 74 75
-0.2768963 -0.4595167 -0.81373948 95 84 85
-0.27694398 -0.46094164 -0.81361014 97 85 81
-0.27645069 -0.46122199 -0.81316936 103 89 83
-0.27692693 -0.45977342 -0.81373435 95 84 84
-0.27630243 -0.45971912 -0.81322485 103 89 88
-0.27746186 -0.46102494 -0.81402814 90 82 78
-0.27768952 -0.46476629 -0.81373638 86 70 76
-0.27738783 -0.46346864 -0.81366318 93 76 76
-0.2823059 -0.46885389 -0.81653905 100 85 93
-0.28206557 -0.46820703 -0.81637579 96 82 91
-0.28168738 -0.46779418 -0.81613135 91 77 88
-0.28206939 -0.46877632 -0.81638998 97 82 91
-0.28170198 -0.46908674 -0.81616729 94 77 88
-0.28227705 -0.47027534 -0.8165493 102 85 92
-0.27750817 -0.46698776 -0.81325847 83 69 77
-0.28259099 -0.4713591 -0.81662017 103 85 92
-0.28300837 -0.47288433 -0.81661493 97 79 91
-0.28068084 -0.47459859 -0.81482542 87 57 81
-0.28091377 -0.47435102 -0.81499261 87 58 80
-0.27858347 -0.47432524 -0.81344992 89 51 80
-0.27812648 -0.4744575 -0.81308043 91 53 83
-0.27786425 -0.47417441 -0.81289458 92 54 84
-0.28502578 -0.47703663 -0.81677771 105 95 105
-0.28334495 -0.47561741 -0.81633502 93 78 92
-0.28419092 -0.47723189 -0.81644917 104 93 103
-0.28331551 -0.47701436 -0.81623024 99 88 98
-0.28358659 -0.47752288 -0.81626749 103 93 102
-0.27938944 -0.4777872 -0.81385279 95 75 84
-0.2807464 -0.47699851 -0.81471056 96 75 90
-0.27973902 -0.47586593 -0.81417143 91 62 83
-0.2802844 -0.47630289 -0.81447327 94 67 86
-0.28007802 -0.47582179 -0.81437701 92 63 84
-0.2800298 -0.47619757 -0.8143267 93 65 85
-0.28084514 -0.47621211 -0.81481439 95 69 89
-0.28311121 -0.47653782 -0.81617707 96 83 95
-0.28193045 -0.4753508 -0.81553721 91 68 87
-0.28180668 -0.474756 -0.81550276 88 63 84
-0.28310537 -0.47757608 -0.81610149 101 91 100
-0.28035879 -0.4747569 -0.81461722 88 56 81
-0.28164396 -0.4756029 -0.81534451 92 69 88
-0.27906212 -0.47698295 -0.81362909 93 68 83
-0.27884361 -0.47750977 -0.81339991 95 72 85
-0.27843979 -0.47756782 -0.81304681 96 73 87
-0.27825737 -0.47483367 -0.81314737 92 54 84
-0.28623861 -0.47873032 -0.8167823 113 107 113
-0.2838459 -0.4788605 -0.81605506 98 92 98
-0.28349182 -0.47876498 -0.81601822 99 93 99
-0.28630185 -0.4791083 -0.81657237 103 97 104
-0.28643054 -0.48088455 -0.8154875 49 45 51
-0.28666359 -0.48152444 -0.81514788 31 28 33
-0.28688687 -0.47964153 -0.81639647 90 84 91
-0.28384152 -0.48104277 -0.81515634 81 72 85
-0.28521478 -0.48211402 -0.81478083 47 41 52
-0.28547043 -0.48162803 -0.81496942 44 39 47
-0.28455994 -0.48038772 -0.8154183 69 63 70
-0.28679794 -0.48236287 -0.81471986 12 10 16
-0.28340086 -0.48084837 -0.81522053 92 82 95
-0.28035489 -0.48001429 -0.81396693 95 79 90
-0.28257683 -0.48189938 -0.8144784 91 77 95
-0.27986947 -0.48082593 -0.81378871 98 78 95
-0.28159136 -0.48186898 -0.81420785 94 77 97
-0.27943647 -0.48218042 -0.81359559 101 76 102
-0.27993172 -0.47969031 -0.81386763 96 79 89
-0.28296593 -0.48129722 -0.81490511 94 82 98
-0.28317416 -0.47912833 -0.81584781 103 95 103
-0.28107148 -0.47873703 -0.81473571 100 87 93
-0.28236353 -0.48073396 -0.81475669 94 82 96
-0.28159848 -0.47949493 -0.81476563 98 86 94
-0.28263018 -0.47921062 -0.8154909 101 92 100
-0.27908948 -0.48000729 -0.81350178 99 78 93
-0.27862442 -0.47911528 -0.81311959 98 79 90
-0.2823633 -0.48558709 -0.81472623 84 74 87
-0.2812402 -0.48518038 -0.81414932 92 78 92
-0.27987388 -0.48614633 -0.81316811 103 89 95
-0.28246036 -0.48625347 -0.81465536 85 76 85
-0.28156224 -0.48546362 -0.81428283 90 77 90
-0.28107473 -0.48535591 -0.81401926 93 79 92
-0.28165549 -0.48352066 -0.81432235 91 75 95
-0.28252038 -0.48515439 -0.81474996 85 74 88
-0.28239024 -0.48457366 -0.8146469 86 74 90
-0.28089488 -0.48288965 -0.81403935 95 75 99
-0.28296643 -0.4840633 -0.81474715 86 75 91
-0.27921522 -0.4828186 -0.81339741 103 77 103
-0.28288618 -0.48893976 -0.81380427 84 78 88
-0.28289822 -0.488534 -0.81399375 83 77 87
-0.28267971 -0.48909101 -0.8136915 84 78 88
-0.28143328 -0.48739743 -0.81373745 90 79 88
-0.2828742 -0.48685795 -0.81473124 81 73 83
-0.28224477 -0.48728004 -0.81424397 84 76 85
-0.28025103 -0.48723912 -0.81309342 99 86 93
-0.2817055 -0.48833549 -0.81362861 86 76 86
-0.28064683 -0.48859391 -0.8129378 93 81 90
-0.28377825 -0.49308616 -0.81328207 66 59 73
-0.28471425 -0.49358138 -0.8140831 46 41 52
-0.28357571 -0.49362043 -0.81298685 67 59 76
-0.28522426 -0.49343732 -0.8145982 37 34 42
-0.28496876 -0.49266538 -0.81450063 45 42 49
-0.28408867 -0.49315393 -0.81356609 59 54 66
-0.2841585 -0.49233311 -0.81378883 61 57 67
-0.28539905 -0.4914332 -0.81550598 42 40 43
-0.28432506 -0.4912965 -0.81416678 62 60 67
-0.28569832 -0.49028701 -0.81653112 42 39 39
-0.28585979 -0.49176487 -0.81593013 33 30 32
-0.28628579 -0.49172798 -0.81651151 25 23 23
-0.28478107 -0.4912802 -0.8147763 54 51 57
-0.28177729 -0.49026754 -0.81296825 84 76 87
-0.26766282 -0.49298808 -0.80490738 128 97 131
-0.26754946 -0.49305359 -0.80481815 129 98 131
-0.26707292 -0.4924897 -0.80442327 134 105 134
-0.26686203 -0.49281311 -0.80424809 135 105 134
-0.26737326 -0.49336457 -0.80467176 130 97 131
-0.2677111 -0.49660799 -0.80499011 150 120 150
-0.26750657 -0.49584341 -0.80482042 143 111 143
-0.266453 -0.49471387 -0.80397302 145 115 141
-0.26703054 -0.49441651 -0.8044185 135 103 135
-0.26580599 -0.50404608 -0.80411667 136 117 143
-0.26586363 -0.50291669 -0.80408043 143 130 147
-0.26671705 -0.50228733 -0.80469674 138 128 143
-0.26608703 -0.5048719 -0.80439359 128 105 138
-0.26555824 -0.50349605 -0.80388528 142 126 147
-0.26600057 -0.50538146 -0.80441362 130 107 141
-0.26634696 -0.50566626 -0.80469072 124 99 137
-0.26602805 -0.50747937 -0.80468124 122 107 140
-0.2655012 -0.50797385 -0.80438083 129 120 148
-0.26613015 -0.50625044 -0.80461758 126 105 140
-0.26604706 -0.50637853 -0.80457562 127 107 141
-0.26623601 -0.50929952 -0.80501646 108 101 134
-0.26553693 -0.51002717 -0.80456066 123 115 143
-0.27674514 -0.46585101 -0.81282687 93 80 80
-0.27660221 -0.4646329 -0.81286603 99 84 80
-0.27599755 -0.46661267 -0.81221998 98 87 89
-0.27669394 -0.46817845 -0.81255442 93 77 82
-0.27665982 -0.46903133 -0.8124513 94 75 81
-0.27689523 -0.46694943 -0.81280881 90 77 81
-0.27553257 -0.46770775 -0.81172317 101 88 92
-0.27571818 -0.4686442 -0.81170321 98 83 88
-0.2758545 -0.46797031 -0.81195664 99 85 89
-0.2761974 -0.47039413 -0.81178337 93 71 81
-0.27434263 -0.47056204 -0.81027138 105 83 94
-0.27440321 -0.47011781 -0.81040299 106 85 94
-0.27431437 -0.47007963 -0.81034577 106 86 95
-0.27609116 -0.47127759 -0.81157792 94 70 84
-0.2760042 -0.47082433 -0.81154066 93 71 83
-0.27591091 -0.47448823 -0.81127423 99 61 86
-0.27639911 -0.47237998 -0.81175911 94 66 86
-0.27606359 -0.47200009 -0.81150168 95 68 86
-0.2759752 -0.47317901 -0.81138086 97 65 86
-0.27453253 -0.4740344 -0.81019956 106 77 94
-0.27525163 -0.47191077 -0.81084907 98 73 88
-0.27503544 -0.4744724 -0.81057405 103 68 89
-0.27467161 -0.47160053 -0.81041795 102 81 92
-0.274452 -0.47211573 -0.81022024 105 83 94
-0.27739289 -0.47675443 -0.81227678 98 70 87
-0.2768535 -0.47471994 -0.81202632 96 58 86
-0.27687413 -0.47640496 -0.81188685 99 70 87
-0.27817988 -0.47772345 -0.81282765 97 75 88
-0.27790812 -0.47766656 -0.81261164 98 75 88
-0.27608687 -0.4771432 -0.81128132 99 69 86
-0.27547801 -0.47660229 -0.81085277 99 66 86
-0.27547285 -0.47731999 -0.81082863 99 67 85
-0.27608371 -0.47694662 -0.81128466 99 69 86
-0.27647704 -0.47630256 -0.81158972 99 69 87
-0.27506047 -0.47679445 -0.81053686 102 69 88
-0.27484679 -0.47753778 -0.81035608 103 72 90
-0.2753489 -0.47552642 -0.81078845 100 64 86
-0.27659976 -0.47942731 -0.81158793 100 71 90
-0.27816442 -0.47981009 -0.81271678 100 77 94
-0.27802536 -0.48148176 -0.8125633 103 73 102
-0.27734211 -0.48089039 -0.81208354 102 72 98
-0.27696222 -0.47899723 -0.81186563 99 74 89
-0.27753735 -0.48227015 -0.81226695 100 70 100
-0.275662 -0.48222834 -0.81108183 92 64 88
-0.27548704 -0.48232889 -0.81097615 91 63 87
-0.27748662 -0.48125759 -0.81218702 102 72 99
-0.27568069 -0.48053995 -0.81101358 96 66 87
-0.27502826 -0.48058686 -0.81054777 99 72 91
-0.27506793 -0.48178706 -0.81063586 96 69 91
-0.27496162 -0.47987831 -0.81046188 101 74 92
-0.27475393 -0.48020351 -0.81031394 104 77 95
-0.27493671 -0.47896549 -0.81040567 103 74 91
-0.27463958 -0.47910884 -0.81018692 105 78 94
-0.27831843 -0.48446536 -0.81246233 104 82 98
-0.2779668 -0.48459023 -0.81222183 102 82 95
-0.27715334 -0.48258045 -0.81200826 98 69 97
-0.27681947 -0.4828046 -0.81176418 97 69 94
-0.27752036 -0.48243281 -0.81226182 100 70 100
-0.27826315 -0.485149 -0.81231123 104 85 96
-0.2764318 -0.48358473 -0.81141102 95 71 90
-0.27539626 -0.48598641 -0.81084412 89 73 92
-0.2754547 -0.48580581 -0.81087708 89 72 92
-0.27702972 -0.48563743 -0.81166273 97 80 94
-0.27858475 -0.48572683 -0.81243265 105 88 96
-0.27729821 -0.4846707 -0.81181723 99 79 93
-0.27493116 -0.48408845 -0.8105222 95 68 94
-0.27356866 -0.4861314 -0.80940735 108 75 113
-0.27452385 -0.48619169 -0.81015605 98 74 102
-0.27486384 -0.48598674 -0.81042755 94 73 98
-0.27400434 -0.48631701 -0.80974537 103 75 108
-0.27475521 -0.48280618 -0.81041181 98 71 96
-0.27421898 -0.48314574 -0.8099829 105 78 104
-0.27501526 -0.48243532 -0.81062424 96 69 92
-0.27975082 -0.48894206 -0.81271875 94 79 89
-0.2798008 -0.48743868 -0.81279433 102 88 95
-0.27664843 -0.48936114 -0.81116861 83 63 81
-0.27577692 -0.48772556 -0.81087565 86 68 87
-0.27671775 -0.48782244 -0.81141025 88 72 89
-0.27601856 -0.48839599 -0.81092846 84 65 84
-0.2760568 -0.48891902 -0.81088227 83 62 82
-0.27608505 -0.49013445 -0.8107397 80 56 77
-0.2777977 -0.48823637 -0.81194174 91 75 89
-0.27820772 -0.48894233 -0.81211317 90 73 87
-0.27714658 -0.48804739 -0.81162715 89 73 89
-0.27729964 -0.48734698 -0.81173503 93 78 92
-0.27766526 -0.4874256 -0.81191301 95 79 92
-0.27637598 -0.48687991 -0.81129777 91 75 92
-0.27442515 -0.48878881 -0.80990487 87 55 87
-0.27461824 -0.48957562 -0.80992329 84 52 82
-0.27378231 -0.48931491 -0.80943191 89 49 89
-0.27350521 -0.48698336 -0.80932343 105 70 109
-0.27375898 -0.48859394 -0.80944949 93 55 94
-0.27329344 -0.48839068 -0.80909318 99 58 101
-0.27328765 -0.48755878 -0.80912644 104 65 107
-0.28083217 -0.4903222 -0.81279987 85 74 85
-0.28315073 -0.49392369 -0.81263268 69 60 78
-0.2831316 -0.49397221 -0.81262439 68 59 78
-0.28277171 -0.49299425 -0.81269717 73 65 81
-0.28108075 -0.49227759 -0.8126179 82 69 84
-0.28149512 -0.49263832 -0.81261677 79 67 83
-0.2817311 -0.49358159 -0.81265789 87 76 92
-0.28087035 -0.49216643 -0.81262255 84 71 86
-0.27577144 -0.49350825 -0.81076211 94 78 95
-0.2754035 -0.49172783 -0.81043142 83 62 82
-0.27693263 -0.4921729 -0.81133384 102 83 101
-0.2789441 -0.49121335 -0.8124451 100 83 96
-0.278422 -0.49097601 -0.81212801 95 77 92
-0.27496588 -0.49101642 -0.81009549 79 53 78
-0.27444732 -0.49341011 -0.80991554 86 65 89
-0.27394664 -0.49334529 -0.80958062 84 61 87
-0.27426773 -0.49225375 -0.80971855 81 56 83
-0.27393782 -0.49047586 -0.80942112 85 46 83
-0.2748605 -0.49050948 -0.8100028 80 50 78
-0.27369761 -0.49076223 -0.80928397 86 46 85
-0.27364743 -0.49190864 -0.80930775 84 51 85
-0.28220412 -0.49569327 -0.81213403 87 79 92
-0.28279564 -0.49478886 -0.81241256 76 67 83
-0.28277758 -0.49675474 -0.81174111 78 72 83
-0.2763038 -0.49751922 -0.81123275 102 85 106
-0.27599195 -0.49775642 -0.81106257 99 81 103
-0.27555808 -0.49778524 -0.81081295 93 76 99
-0.27582461 -0.49590731 -0.81089818 97 81 101
-0.27563065 -0.49585474 -0.81078565 95 79 98
-0.27620077 -0.49528608 -0.81109065 101 86 104
-0.27623463 -0.49554065 -0.81111902 102 86 105
-0.27503183 -0.49765193 -0.81046563 94 77 98
-0.27518409 -0.49543747 -0.81049168 93 78 96
-0.27471283 -0.49791014 -0.81025529 96 80 100
-0.27493981 -0.49675068 -0.81037027 95 79 98
-0.27393386 -0.49463251 -0.80963463 90 71 94
-0.27348047 -0.4949784 -0.80934131 90 71 94
-0.27446625 -0.4950552 -0.80999333 95 79 97
-0.27441427 -0.49427924 -0.80994564 90 71 93
-0.2759245 -0.50012094 -0.81095767 97 78 99
-0.27620441 -0.49992508 -0.81109512 101 83 103
-0.273862 -0.50099498 -0.80963695 97 92 111
-0.2737259 -0.50131541 -0.8095392 98 94 112
-0.27465507 -0.50167161 -0.81017411 93 78 99
-0.27517155 -0.50003165 -0.81055057 91 73 96
-0.27293858 -0.49875969 -0.8090297 105 98 109
-0.27361649 -0.4987928 -0.80949599 101 91 107
-0.27449256 -0.49889919 -0.81009769 96 84 104
-0.27309436 -0.49883121 -0.80913603 104 96 109
-0.27425417 -0.50469869 -0.80980003 98 90 103
-0.27418205 -0.50271553 -0.80985129 94 84 103
-0.27399892 -0.50281411 -0.80972606 95 87 105
-0.27352136 -0.50448114 -0.80941123 96 93 107
-0.27312574 -0.5038895 -0.80913407 99 100 114
-0.27279627 -0.50642926 -0.80903077 105 108 119
-0.27245659 -0.5079577 -0.80910373 122 122 135
0 0 0 1 0 0 0 1 0 0 0 1 0 0 0 0 0 465 1 0 0
