ply
format ascii 1.0
comment PCL generated
element vertex 137
property float x
property float y
property float z
property uchar red
property uchar green
property uchar blue
element camera 1
property float view_px
property float view_py
property float view_pz
property float x_axisx
property float x_axisy
property float x_axisz
property float y_axisx
property float y_axisy
property float y_axisz
property float z_axisx
property float z_axisy
property float z_axisz
property float focal
property float scalex
property float scaley
property float centerx
property float centery
property int viewportx
property int viewporty
property float k1
property float k2
end_header
-0.20847307 -0.13386767 -0.82055533 196 170 180
-0.20632841 -0.13462685 -0.81797516 199 164 187
-0.20659412 -0.13450375 -0.81831104 198 164 185
-0.20562907 -0.13493578 -0.81720936 198 161 185
-0.20652241 -0.13532007 -0.81814188 205 177 186
-0.20669824 -0.13542162 -0.81832844 206 180 186
-0.20742053 -0.13608931 -0.81915146 210 192 182
-0.20610917 -0.13709506 -0.81798613 203 186 165
-0.20616274 -0.13697016 -0.81802106 203 186 167
-0.20732664 -0.13593461 -0.81903368 209 190 183
-0.20591949 -0.13693963 -0.81777203 202 183 166
-0.20765069 -0.13613252 -0.81940395 211 195 182
-0.20803189 -0.13657005 -0.8203221 203 183 180
-0.20763665 -0.13705583 -0.8200596 199 179 172
-0.20687404 -0.13828354 -0.81977582 186 164 154
-0.20727666 -0.13857047 -0.82064235 177 151 152
-0.20649303 -0.13821656 -0.81911254 191 172 154
-0.20484231 -0.13833126 -0.8168121 198 187 147
-0.20573048 -0.14134797 -0.81986094 150 116 132
-0.20622259 -0.14136556 -0.82066196 145 107 133
-0.2057391 -0.14065975 -0.81945711 160 131 135
-0.20575836 -0.14093181 -0.81965315 156 125 134
-0.20648141 -0.14044046 -0.82051623 156 123 139
-0.20549177 -0.13894643 -0.81802005 189 173 143
-0.2053269 -0.14170481 -0.81914824 156 126 131
-0.20550127 -0.14212085 -0.81977189 146 110 129
-0.20547868 -0.14141008 -0.81940323 154 122 131
-0.2049778 -0.14035848 -0.81773472 182 163 138
-0.2050263 -0.14100881 -0.81811339 174 152 136
-0.20481476 -0.14129822 -0.81783193 175 154 136
-0.20459364 -0.14017613 -0.81694883 191 177 142
-0.20511431 -0.14287929 -0.81865376 149 121 125
-0.20524675 -0.14399381 -0.81773347 123 103 108
-0.20567954 -0.14441174 -0.81844473 91 65 91
-0.20572229 -0.14296459 -0.82011449 124 85 118
-0.20539199 -0.14402805 -0.81813103 110 86 100
-0.20604345 -0.14499868 -0.82062131 112 83 101
-0.20589969 -0.14587703 -0.81749135 50 31 62
-0.20588136 -0.14459874 -0.81905365 87 58 90
-0.20617472 -0.14622197 -0.82062185 103 82 88
-0.20597462 -0.14580487 -0.81857866 70 49 73
-0.2046032 -0.1433184 -0.81710643 157 139 127
-0.20613927 -0.14680715 -0.81883729 77 61 75
-0.2061467 -0.14721747 -0.81773078 67 53 72
-0.20630324 -0.1472894 -0.81957841 102 85 91
-0.20606939 -0.14687683 -0.81771404 59 44 66
-0.20635729 -0.14757589 -0.81944829 106 90 95
-0.20458029 -0.13368633 -0.8152805 157 121 149
-0.20485787 -0.13460432 -0.81608319 185 146 174
-0.20489761 -0.13470384 -0.81618381 188 148 177
-0.20384674 -0.14239991 -0.81612849 180 161 142
-0.20407818 -0.14092405 -0.81585389 186 172 145
-0.20460093 -0.13917132 -0.81645882 195 185 144
-0.20366663 -0.14223458 -0.81532383 179 162 145
-0.20409779 -0.14065361 -0.81571794 186 174 146
-0.20384333 -0.1409443 -0.81498754 183 171 148
-0.20566665 -0.14618804 -0.81661338 50 36 60
-0.20464523 -0.14533511 -0.8156637 105 89 92
-0.20493244 -0.14604479 -0.81566066 72 53 73
-0.20483409 -0.14458087 -0.81634378 130 117 109
-0.20406027 -0.1441568 -0.81573886 144 125 114
-0.20399474 -0.14382739 -0.81590015 152 133 119
-0.20370805 -0.14360285 -0.81562144 158 137 122
-0.2036071 -0.1428113 -0.81533813 173 154 140
-0.20384866 -0.14272048 -0.8162564 176 157 138
-0.20547816 -0.14698443 -0.81602383 57 40 67
-0.20569217 -0.14768876 -0.81610435 72 57 79
-0.2054003 -0.14757326 -0.81572342 68 52 75
-0.20907435 -0.13833556 -0.82400805 211 202 174
-0.20914522 -0.13739313 -0.82338578 207 196 176
-0.20936169 -0.13716799 -0.8244338 194 187 162
-0.20943467 -0.1367404 -0.82448202 190 183 160
-0.20913638 -0.13717265 -0.82314366 208 196 178
-0.20829934 -0.13799895 -0.82208216 201 183 171
-0.20868993 -0.13609917 -0.82108277 211 193 190
-0.20879577 -0.1364255 -0.82158935 213 197 190
-0.20879081 -0.13647993 -0.82163006 213 197 189
-0.20898381 -0.13774718 -0.82317495 217 206 184
-0.20894444 -0.13521339 -0.82075703 217 199 200
-0.20861891 -0.13989261 -0.82436633 196 190 167
-0.2087047 -0.13893186 -0.82370991 207 197 172
-0.20773605 -0.1387984 -0.82172066 185 164 157
-0.20795383 -0.14098242 -0.82399833 166 160 148
-0.20758939 -0.14215969 -0.82429302 145 141 135
-0.20763592 -0.13963355 -0.82223648 174 156 151
-0.2075389 -0.14210376 -0.8241477 144 140 135
-0.20734215 -0.14129442 -0.82304597 151 138 138
-0.20671308 -0.14129604 -0.82166612 147 120 135
-0.20733857 -0.14082929 -0.82265222 155 140 140
-0.20736277 -0.14254521 -0.82412899 139 133 132
-0.20719558 -0.14031301 -0.8219099 159 139 142
-0.20638263 -0.1413091 -0.82095146 146 111 134
-0.20700936 -0.14527602 -0.82359087 93 80 79
-0.20728126 -0.14399651 -0.8241024 115 108 104
-0.20713189 -0.14418571 -0.82354397 117 109 107
-0.20723335 -0.14453271 -0.82418025 102 93 90
-0.20669806 -0.14562431 -0.82240194 100 85 86
-0.20644841 -0.14631952 -0.82167321 94 76 78
-0.20619692 -0.14292854 -0.82151389 130 98 123
-0.20677385 -0.14446075 -0.8224197 121 108 110
-0.20666011 -0.14388204 -0.82230628 125 107 115
-0.20723855 -0.1432254 -0.82373101 133 126 124
-0.20653933 -0.14363985 -0.8220982 126 104 117
-0.20615013 -0.14258917 -0.82149112 132 98 127
-0.20717135 -0.1490584 -0.82415318 40 33 31
-0.20710538 -0.14783216 -0.82371169 79 65 61
-0.20720547 -0.14999482 -0.82411069 30 26 24
-0.20715341 -0.1484293 -0.82429832 42 32 31
-0.20645069 -0.14665432 -0.82160515 95 76 78
-0.20696543 -0.1464915 -0.82404166 61 44 44
-0.20662944 -0.14762643 -0.82144272 120 101 100
-0.20696218 -0.14693837 -0.82358927 77 60 59
-0.20680009 -0.14655988 -0.82324332 72 55 55
-0.20742492 -0.15197711 -0.82457 51 42 38
-0.20726778 -0.15072615 -0.82450217 10 8 7
-0.20728853 -0.15147261 -0.82398343 32 26 23
-0.20725976 -0.15210554 -0.82318854 49 39 35
-0.20718493 -0.15179658 -0.82226419 85 73 67
-0.20939554 -0.13727398 -0.82471764 194 187 162
-0.20906045 -0.13932781 -0.82500166 198 192 167
-0.20918763 -0.13909534 -0.82502836 199 192 166
-0.20773065 -0.14195202 -0.82517666 134 132 122
-0.20811267 -0.14127249 -0.82473809 165 162 147
-0.20790778 -0.14177686 -0.82466185 156 154 143
-0.20856594 -0.14017002 -0.82487673 186 181 159
-0.20709102 -0.14626703 -0.8257283 38 27 26
-0.20705466 -0.14589614 -0.82555753 40 28 28
-0.2074338 -0.14287643 -0.82511342 115 113 108
-0.20727433 -0.14310163 -0.82578737 86 83 80
-0.20701344 -0.14423376 -0.82641369 38 31 30
-0.20711094 -0.14333367 -0.82647717 56 52 50
-0.20691189 -0.14382136 -0.82718945 20 15 14
-0.20725596 -0.14456409 -0.82496905 83 74 71
-0.2071173 -0.14675316 -0.82550883 37 26 25
-0.20713438 -0.14704755 -0.82585567 28 20 19
-0.20712811 -0.14682698 -0.82598782 30 21 20
-0.20715798 -0.14779897 -0.82554042 22 16 15
0 0 0 1 0 0 0 1 0 0 0 1 0 0 0 0 0 137 1 0 0
