ply
format ascii 1.0
comment PCL generated
element vertex 673
property float x
property float y
property float z
property uchar red
property uchar green
property uchar blue
element camera 1
property float view_px
property float view_py
property float view_pz
property float x_axisx
property float x_axisy
property float x_axisz
property float y_axisx
property float y_axisy
property float y_axisz
property float z_axisx
property float z_axisy
property float z_axisz
property float focal
property float scalex
property float scaley
property float centerx
property float centery
property int viewportx
property int viewporty
property float k1
property float k2
end_header
-0.11215996 -0.29878545 -0.69098306 113 86 98
-0.11193138 -0.2974256 -0.69155502 103 73 81
-0.11344435 -0.29861814 -0.69154328 109 82 91
-0.110167 -0.29726392 -0.69105881 107 80 85
-0.10955235 -0.29821256 -0.69044924 122 95 101
-0.11003336 -0.2975364 -0.69088691 110 83 89
-0.11009644 -0.29810846 -0.69064432 116 90 97
-0.1097115 -0.29844496 -0.69038689 123 97 104
-0.11007428 -0.29862291 -0.69040459 122 96 105
-0.10849456 -0.29669186 -0.69085252 112 85 84
-0.1058527 -0.29739091 -0.68990248 128 100 97
-0.10509396 -0.29769513 -0.68958932 135 110 107
-0.10652696 -0.29848421 -0.68954778 143 117 117
-0.10660301 -0.29821649 -0.68968928 138 112 111
-0.10399975 -0.29861632 -0.68891382 153 132 130
-0.10694236 -0.29688331 -0.69037032 123 95 91
-0.099829853 -0.29647976 -0.68899953 117 92 81
-0.10055225 -0.29654685 -0.68911475 118 94 83
-0.10115957 -0.29815146 -0.6885311 145 125 119
-0.1002081 -0.29730028 -0.68871462 130 108 100
-0.10160223 -0.29790133 -0.68872982 141 120 114
-0.10252316 -0.29835311 -0.68871576 149 129 125
-0.10196016 -0.29706985 -0.68917203 128 104 96
-0.097817883 -0.2976217 -0.68815094 132 108 97
-0.09619873 -0.29685703 -0.68821776 118 89 74
-0.096497983 -0.29729882 -0.68807793 126 99 86
-0.099265248 -0.29780519 -0.68831277 137 116 108
-0.092788994 -0.29617581 -0.68808836 116 97 80
-0.093727313 -0.29661044 -0.68801314 121 98 83
-0.093598634 -0.29615664 -0.68819225 115 95 75
-0.088787436 -0.29531926 -0.68798703 113 85 67
-0.089951284 -0.29548731 -0.6880514 113 89 71
-0.091359392 -0.29578918 -0.68808585 114 94 77
-0.11535205 -0.30167347 -0.69086707 119 94 101
-0.11732623 -0.30226371 -0.69145846 114 89 99
-0.11644036 -0.30082443 -0.69171786 111 85 93
-0.11752215 -0.30189067 -0.69171 112 86 96
-0.11585283 -0.30143189 -0.69119191 116 91 98
-0.11368252 -0.29892284 -0.69148511 110 84 93
-0.11238745 -0.29937217 -0.69079816 115 89 100
-0.11291537 -0.30040425 -0.69053102 118 93 104
-0.11309158 -0.30042148 -0.69058806 118 93 103
-0.11385655 -0.30065331 -0.69076562 117 93 101
-0.11460391 -0.3007161 -0.6910122 116 91 99
-0.11266266 -0.30146939 -0.68999845 121 96 106
-0.1115243 -0.29988196 -0.69027698 117 92 104
-0.11151085 -0.30047283 -0.69002479 119 93 105
-0.11428887 -0.30260342 -0.69007564 123 100 108
-0.11173117 -0.29951727 -0.69050008 116 91 103
-0.11399571 -0.30250382 -0.69001776 123 100 108
-0.10981109 -0.30137834 -0.68916726 133 108 115
-0.10915473 -0.30200455 -0.68869591 136 117 122
-0.10881475 -0.30120698 -0.68894875 138 117 121
-0.11035655 -0.30232549 -0.68890887 130 107 115
-0.10853027 -0.3003563 -0.68924153 139 116 119
-0.10813399 -0.30195987 -0.6884141 141 127 129
-0.11079854 -0.2990661 -0.69040841 119 93 105
-0.11084948 -0.29884908 -0.69051319 118 92 104
-0.10831155 -0.2991395 -0.68970209 139 113 117
-0.11079216 -0.29918346 -0.69035751 120 94 105
-0.11099868 -0.30057162 -0.68983179 122 96 107
-0.1106009 -0.29913256 -0.69032687 121 95 106
-0.10471477 -0.30038667 -0.68829036 153 138 138
-0.1041235 -0.3003892 -0.68816066 155 137 139
-0.10475411 -0.30069563 -0.68816483 153 137 138
-0.10714202 -0.30166283 -0.68827128 145 134 134
-0.10729061 -0.29930586 -0.68934947 146 122 123
-0.1066424 -0.30056188 -0.68864596 147 131 131
-0.10690874 -0.30164847 -0.68822479 146 135 135
-0.1065486 -0.30083784 -0.68850243 147 133 133
-0.10587998 -0.30111781 -0.68822682 149 138 137
-0.10244695 -0.29953641 -0.68818432 157 137 137
-0.10140361 -0.29933372 -0.6880632 156 137 136
-0.10177396 -0.29891604 -0.68831867 156 138 135
-0.11951495 -0.30417499 -0.69178367 130 105 115
-0.11926365 -0.30583912 -0.69110835 159 136 143
-0.11918172 -0.3056868 -0.6911096 158 134 141
-0.1187145 -0.30314511 -0.69171447 118 93 104
-0.11777689 -0.3036139 -0.69115835 129 105 114
-0.11798099 -0.30459723 -0.69093299 145 121 128
-0.11742397 -0.30332816 -0.6910972 126 101 110
-0.11889186 -0.30397704 -0.69152349 132 106 116
-0.11884236 -0.30626693 -0.69077241 168 145 152
-0.11532561 -0.30653468 -0.68903935 162 139 143
-0.11584686 -0.30478573 -0.68990171 146 123 128
-0.11733055 -0.30525419 -0.6904282 155 132 138
-0.11685744 -0.30623585 -0.68985987 163 140 145
-0.11659302 -0.30435395 -0.69040269 143 120 127
-0.11540719 -0.30459985 -0.68976235 143 120 125
-0.11140211 -0.30315328 -0.68888783 127 102 112
-0.11242911 -0.30413553 -0.68888962 137 112 120
-0.11161896 -0.30346814 -0.68884903 129 105 114
-0.11246923 -0.30510077 -0.68855131 141 117 125
-0.11220868 -0.30399525 -0.68886352 135 110 119
-0.11215269 -0.30321243 -0.68912584 129 104 113
-0.11500937 -0.3049576 -0.68947858 146 123 128
-0.11454782 -0.30528325 -0.68920648 149 126 131
-0.1130725 -0.3039459 -0.68917871 136 112 120
-0.11222718 -0.30345458 -0.6890654 131 107 116
-0.11258437 -0.30394399 -0.68901348 136 112 120
-0.11005947 -0.30472916 -0.68790972 140 121 127
-0.10999129 -0.30441269 -0.68800545 139 120 126
-0.11005317 -0.30299968 -0.688541 132 113 120
-0.10889734 -0.30339622 -0.68805432 140 126 130
-0.11089604 -0.30405477 -0.68840379 133 110 118
-0.12028989 -0.30776587 -0.69114566 148 116 139
-0.12164169 -0.30854768 -0.69171768 124 86 122
-0.11957637 -0.30937225 -0.69029456 145 117 152
-0.12010615 -0.3079035 -0.69100195 149 117 142
-0.11966833 -0.31051701 -0.69003755 134 105 152
-0.12017705 -0.31029683 -0.69039381 128 95 143
-0.1198118 -0.30997214 -0.69026899 136 107 149
-0.11997069 -0.30878949 -0.69068259 144 113 145
-0.1162518 -0.30951598 -0.68866175 154 140 144
-0.11667714 -0.30978516 -0.68878651 152 137 146
-0.11555591 -0.30902424 -0.68847144 158 145 141
-0.11792945 -0.30988058 -0.68933994 147 126 154
-0.11587267 -0.30798218 -0.68889606 158 138 145
-0.11756126 -0.30956271 -0.68925464 149 129 152
-0.11634193 -0.30735803 -0.68928134 160 137 148
-0.1167664 -0.30787855 -0.68933821 157 133 150
-0.11818272 -0.30878443 -0.68975317 153 130 156
-0.11754848 -0.30681655 -0.6899913 168 145 151
-0.11911181 -0.30984935 -0.68989772 147 123 160
-0.11869263 -0.30808002 -0.69018227 160 137 156
-0.11496919 -0.30985618 -0.68800604 157 150 136
-0.11275461 -0.30710909 -0.6879639 150 127 132
-0.11243787 -0.30668458 -0.68796629 149 124 131
-0.11467246 -0.30733535 -0.68857622 159 139 140
-0.11394575 -0.30795342 -0.68815595 154 137 135
-0.12124009 -0.311021 -0.6908381 110 70 122
-0.12144829 -0.31284595 -0.69058317 103 73 106
-0.12161756 -0.31216013 -0.69082206 102 66 108
-0.12039502 -0.31087711 -0.69037908 122 89 137
-0.12104101 -0.31136459 -0.69065225 112 76 123
-0.11978524 -0.31173456 -0.68984365 126 97 138
-0.12013855 -0.31244785 -0.68989682 117 84 124
-0.11994317 -0.31202966 -0.68987256 122 92 132
-0.11626749 -0.31133193 -0.68822271 146 132 131
-0.11861579 -0.31077442 -0.6894297 142 119 154
-0.11880116 -0.3116191 -0.68933135 134 104 144
-0.13188568 -0.30203187 -0.70059407 98 95 80
-0.13171512 -0.30144134 -0.70065087 95 89 77
-0.13271031 -0.3024708 -0.70112586 96 88 80
-0.13129298 -0.30091858 -0.7004782 94 88 76
-0.13182716 -0.30115175 -0.70083976 93 83 76
-0.13057019 -0.3011612 -0.6998415 98 96 78
-0.13043581 -0.30101576 -0.69980001 97 93 77
-0.092435494 -0.30636296 -0.68394655 130 110 123
-0.08895047 -0.30659461 -0.6835283 130 112 134
-0.088494971 -0.30560437 -0.68388206 133 116 133
-0.088086627 -0.30643752 -0.68352294 131 113 137
-0.087136053 -0.30558556 -0.68382901 132 117 131
-0.085295446 -0.30628714 -0.68351632 131 119 123
-0.084337302 -0.30554408 -0.68377364 128 105 111
-0.084799223 -0.3054513 -0.68382061 128 106 114
-0.083050653 -0.3065286 -0.6833415 127 113 110
-0.083975427 -0.30555239 -0.68376094 127 104 109
-0.082141206 -0.30560479 -0.68364328 120 94 96
-0.080901399 -0.30612883 -0.68337703 116 94 91
-0.081339955 -0.30554757 -0.683631 115 92 92
-0.079477042 -0.30497614 -0.68378854 104 88 84
-0.077474684 -0.30658147 -0.68308276 117 99 92
-0.07998655 -0.30608124 -0.6833573 112 93 87
-0.078743421 -0.30502754 -0.68374717 106 88 84
-0.076741651 -0.3055729 -0.68347067 112 91 87
-0.076908693 -0.30572924 -0.68341172 112 93 88
-0.10042311 -0.30978879 -0.68398106 141 122 129
-0.099303968 -0.30999041 -0.68372452 141 120 128
-0.099158578 -0.31046617 -0.68353909 142 121 127
-0.098757222 -0.30935559 -0.68386441 139 119 127
-0.095982194 -0.3084974 -0.68376648 133 114 123
-0.096776627 -0.31018761 -0.68327737 144 125 126
-0.097127855 -0.30951801 -0.68356836 140 121 125
-0.09374328 -0.30816427 -0.68351519 135 115 122
-0.095092751 -0.30982614 -0.68314737 143 124 124
-0.093022682 -0.30756468 -0.68360859 132 112 121
-0.094207875 -0.30821404 -0.68357557 134 114 122
-0.092167459 -0.30985692 -0.68275207 124 103 119
-0.094874337 -0.31001768 -0.68305343 142 123 123
-0.095247746 -0.31051296 -0.68294352 144 125 124
-0.093729921 -0.31053385 -0.68273908 133 113 121
-0.095077068 -0.31053305 -0.68291485 142 124 123
-0.094742969 -0.31002647 -0.68303347 141 122 123
-0.089305431 -0.30938801 -0.68261057 121 103 123
-0.088218912 -0.3094306 -0.68247074 119 103 122
-0.088925749 -0.30903232 -0.68269384 122 104 125
-0.088740215 -0.3078711 -0.68308669 127 108 132
-0.088372938 -0.30936852 -0.68251055 119 103 123
-0.09050072 -0.31021294 -0.68245351 120 100 119
-0.091233343 -0.30880669 -0.68299592 124 103 121
-0.090345122 -0.30798253 -0.68319029 126 106 126
-0.090272553 -0.3072421 -0.68342161 128 108 127
-0.090819255 -0.30812907 -0.68318045 126 105 124
-0.091307759 -0.31004336 -0.68260598 122 100 120
-0.091768377 -0.30816811 -0.68324202 125 104 119
-0.085908487 -0.3085784 -0.68269742 122 110 116
-0.085945986 -0.3089793 -0.68253899 122 108 115
-0.085163981 -0.30939543 -0.68232179 125 108 112
-0.085039504 -0.30769765 -0.6829949 126 115 117
-0.084520534 -0.30830035 -0.68271977 128 113 114
-0.087003104 -0.30981228 -0.68227273 117 103 116
-0.087310687 -0.30932003 -0.68246114 119 104 120
-0.086749449 -0.30715621 -0.68322176 128 113 129
-0.086352766 -0.30897322 -0.68256593 120 108 116
-0.0877252 -0.30801019 -0.68293643 125 108 130
-0.086533479 -0.30780458 -0.68298626 125 111 124
-0.080455191 -0.30768666 -0.6827507 116 97 91
-0.081725881 -0.30832434 -0.68255103 121 99 96
-0.081108272 -0.30795568 -0.6826703 119 98 94
-0.080357388 -0.30822149 -0.68254513 115 96 91
-0.08096803 -0.30763322 -0.68278772 119 98 93
-0.08022321 -0.30666125 -0.68313396 116 96 90
-0.083153598 -0.30803993 -0.68274361 127 110 107
-0.083959877 -0.30935478 -0.68226093 130 110 110
-0.08289323 -0.30773976 -0.68284959 126 109 106
-0.083283089 -0.30736867 -0.68302011 128 114 110
-0.082013175 -0.30834505 -0.68255782 122 101 98
-0.078018732 -0.3097643 -0.68189359 106 85 94
-0.076542512 -0.30867147 -0.68226469 106 83 94
-0.077641718 -0.30909818 -0.68213451 109 89 94
-0.078389145 -0.3096619 -0.6819427 109 90 93
-0.078881554 -0.30759275 -0.68273926 115 98 91
-0.080046937 -0.30894053 -0.68226302 113 96 91
-0.077913538 -0.30743098 -0.68277246 116 99 93
-0.078778401 -0.30809405 -0.68254662 115 98 92
-0.0775043 -0.30682024 -0.68299174 117 99 93
-0.078952104 -0.30933058 -0.68208373 114 98 93
-0.074851237 -0.30992436 -0.68172413 111 85 114
-0.074767597 -0.30920196 -0.68195415 111 84 117
-0.074749738 -0.3095471 -0.68184328 112 86 116
-0.075532198 -0.30838361 -0.68231595 111 87 105
-0.075887837 -0.30816114 -0.6824261 109 87 99
-0.07515835 -0.30907142 -0.68202877 109 82 111
-0.075655721 -0.3086988 -0.68220603 107 82 103
-0.10384822 -0.31278992 -0.68362784 162 151 142
-0.10440961 -0.31349948 -0.68354094 167 155 144
-0.10424849 -0.31212154 -0.68392402 156 144 138
-0.10440176 -0.31257102 -0.68382227 160 147 140
-0.10159282 -0.31085405 -0.68382162 145 130 132
-0.10142814 -0.31136861 -0.68363398 149 134 133
-0.10315998 -0.31274009 -0.68350661 161 151 141
-0.10292935 -0.31152549 -0.68383831 151 140 136
-0.099665597 -0.31121123 -0.6833728 144 123 132
-0.099974833 -0.31114644 -0.68345255 145 126 131
-0.10009313 -0.31277016 -0.6829446 152 132 141
-0.10123143 -0.31336671 -0.68296558 160 144 144
-0.09992104 -0.31339291 -0.6827085 153 133 145
-0.099666886 -0.31434879 -0.68234801 154 135 151
-0.097885564 -0.31378496 -0.68221521 153 136 143
-0.095826901 -0.31433553 -0.68160975 155 144 136
-0.0990365 -0.31405163 -0.6823405 154 134 148
-0.096670717 -0.31433281 -0.68177515 155 142 139
-0.096955217 -0.31298351 -0.68233144 152 135 136
-0.096240424 -0.31086722 -0.6829682 147 129 127
-0.098675169 -0.31209537 -0.68293285 148 128 136
-0.09735205 -0.31086451 -0.68313611 145 126 128
-0.09839271 -0.31144214 -0.6831038 146 126 132
-0.099490069 -0.31164467 -0.68320256 145 125 134
-0.09868747 -0.31323043 -0.6825639 152 132 143
-0.092137761 -0.31301227 -0.68155622 120 94 110
-0.092502803 -0.31211951 -0.68196833 125 103 117
-0.092866912 -0.31233257 -0.68194067 129 108 119
-0.093511134 -0.31326288 -0.6816718 134 115 121
-0.092770547 -0.31301698 -0.6816535 127 104 115
-0.093678378 -0.31268087 -0.68192935 137 120 125
-0.092604637 -0.31058729 -0.68257332 126 105 119
-0.095627569 -0.31230843 -0.68232828 150 135 129
-0.094176374 -0.31276694 -0.68196899 141 126 128
-0.095451444 -0.31200671 -0.68241733 148 133 128
-0.095401354 -0.31285021 -0.68209767 150 136 130
-0.093003191 -0.31103659 -0.68245846 130 110 121
-0.090826303 -0.31427124 -0.68091583 122 95 112
-0.088495709 -0.31177142 -0.68163705 120 102 119
-0.090758942 -0.31387645 -0.68105471 119 92 109
-0.088988885 -0.31358668 -0.68101352 135 113 130
-0.088088483 -0.3120105 -0.68151569 127 110 127
-0.091342032 -0.31367272 -0.68118805 114 86 104
-0.088724114 -0.31060475 -0.68210763 115 98 116
-0.090884492 -0.31069633 -0.68231899 119 98 116
-0.088220999 -0.31087193 -0.68194371 114 97 114
-0.090209067 -0.31165612 -0.68185991 116 94 112
-0.088753194 -0.31118968 -0.68187839 114 96 113
-0.086874515 -0.31179869 -0.68151146 131 112 125
-0.086025678 -0.31089997 -0.68178594 125 105 115
-0.08620435 -0.31078929 -0.68183792 123 103 114
-0.086157158 -0.31081566 -0.68182528 124 104 114
-0.086761467 -0.31202719 -0.68142051 134 115 127
-0.080646537 -0.31179276 -0.68122143 115 99 99
-0.080136225 -0.31108096 -0.68146151 111 94 93
-0.081385173 -0.31333405 -0.68068534 120 102 107
-0.080804408 -0.31055111 -0.68167835 115 98 95
-0.083486147 -0.31091607 -0.6816358 129 107 107
-0.081751771 -0.31142631 -0.6813966 123 107 105
-0.082439758 -0.31180727 -0.681283 128 112 110
-0.081915319 -0.31125674 -0.68146253 123 106 104
-0.083123282 -0.31061116 -0.68173283 126 103 104
-0.080076523 -0.31085536 -0.6815421 111 95 93
-0.10120764 -0.31617609 -0.68218309 162 144 162
-0.10055348 -0.31545502 -0.68223625 159 140 158
-0.099644251 -0.31556818 -0.68202126 159 137 153
-0.099637531 -0.31463623 -0.68226141 155 135 152
-0.10151293 -0.31566721 -0.68236721 163 147 159
-0.10096198 -0.31518155 -0.68238145 161 144 156
-0.098615505 -0.31824386 -0.68109351 173 151 158
-0.098475292 -0.31466082 -0.68202823 156 138 147
-0.097682208 -0.31602779 -0.68151957 161 143 145
-0.099082887 -0.3173199 -0.6814577 165 142 152
-0.097729571 -0.31573153 -0.68160558 160 142 145
-0.098250896 -0.31572172 -0.68170965 159 141 147
-0.099301331 -0.31770715 -0.68139994 166 143 154
-0.091911994 -0.31553912 -0.6805737 135 108 122
-0.091865733 -0.31525004 -0.68066519 129 101 116
-0.093498312 -0.31734392 -0.68027669 171 151 155
-0.093656503 -0.31640032 -0.68063766 152 130 136
-0.092858009 -0.31512406 -0.68089658 131 106 116
-0.094740547 -0.31494978 -0.68124342 150 134 131
-0.093546614 -0.31554088 -0.68088049 142 120 126
-0.091702707 -0.31571466 -0.68048 139 113 127
-0.099610776 -0.31968296 -0.68098205 179 155 166
-0.099013142 -0.31899574 -0.68100321 177 154 163
-0.099085532 -0.31922272 -0.68096703 178 156 165
-0.098928414 -0.31988204 -0.68077636 184 163 171
-0.12309062 -0.29813814 -0.6960929 86 59 67
-0.12756361 -0.30267286 -0.69729859 118 102 83
-0.12964211 -0.30167466 -0.69904244 100 98 79
-0.12782371 -0.30258906 -0.69750303 116 102 83
-0.12738833 -0.30254349 -0.69722307 117 99 83
-0.12957674 -0.30225483 -0.69880384 107 106 82
-0.12762295 -0.30182225 -0.69762367 109 90 79
-0.12507007 -0.3010062 -0.69627756 107 82 79
-0.1241167 -0.30041355 -0.69587672 101 75 78
-0.12636134 -0.30272222 -0.69648415 119 98 85
-0.12525775 -0.30029082 -0.69663793 99 73 74
-0.12415639 -0.29921085 -0.69632113 91 62 71
-0.1265824 -0.30027258 -0.69745994 96 68 71
-0.12474536 -0.29996249 -0.69643223 97 70 74
-0.12575653 -0.30114573 -0.69665885 107 83 78
-0.12368439 -0.29902408 -0.6960929 90 62 71
-0.13087898 -0.302995 -0.69946849 106 115 85
-0.12700571 -0.30368033 -0.69663733 116 96 86
-0.12751755 -0.30620947 -0.69629806 103 86 92
-0.12792701 -0.30418074 -0.69715911 109 90 85
-0.12810348 -0.30554515 -0.69690448 103 84 88
-0.12900512 -0.304914 -0.69772834 101 81 83
-0.12705997 -0.30601484 -0.69602382 106 89 92
-0.12970111 -0.30573383 -0.69799906 94 75 84
-0.12879786 -0.3028273 -0.69809282 114 107 84
-0.12779856 -0.30329835 -0.69730222 114 96 83
-0.12817915 -0.30353001 -0.69750488 112 95 84
-0.13047224 -0.30444622 -0.6988405 99 93 84
-0.12929459 -0.30342683 -0.69828606 109 101 84
-0.12767293 -0.3034538 -0.69717979 114 93 83
-0.12690847 -0.30603793 -0.69591045 107 90 93
-0.12654163 -0.30358079 -0.69635963 116 96 87
-0.12610066 -0.30322596 -0.69617271 117 96 87
-0.12671036 -0.30388319 -0.69638443 115 96 87
-0.12819664 -0.30727303 -0.6965403 95 78 87
-0.12030698 -0.29802254 -0.6947338 90 61 70
-0.1194743 -0.29732904 -0.69460285 88 59 66
-0.11627422 -0.29754189 -0.69312739 97 69 72
-0.11558332 -0.29873285 -0.6922937 105 79 85
-0.11547325 -0.29765773 -0.69272172 100 73 75
-0.11771958 -0.29837263 -0.6933983 97 68 76
-0.11811005 -0.29879579 -0.69338334 98 69 80
-0.11771203 -0.29678938 -0.69407558 89 60 63
-0.1189219 -0.29858562 -0.69383478 94 65 76
-0.11374278 -0.29803777 -0.69192755 104 75 82
-0.11479971 -0.29772446 -0.69243848 101 73 76
-0.11518641 -0.29864618 -0.69216144 106 79 85
-0.12414454 -0.30106309 -0.69565469 105 80 81
-0.12410716 -0.30137116 -0.69551516 106 81 82
-0.12496518 -0.30242887 -0.69568533 115 92 86
-0.1205481 -0.29947624 -0.69428241 96 68 79
-0.12259667 -0.30133983 -0.69460523 101 76 85
-0.12231971 -0.30058196 -0.69475037 98 72 82
-0.12260375 -0.29954582 -0.69527799 93 66 75
-0.12293572 -0.29995939 -0.69528872 94 68 77
-0.12195738 -0.30041283 -0.69463342 98 72 81
-0.12023833 -0.302385 -0.69283944 108 82 94
-0.1204678 -0.30202964 -0.69313455 106 80 92
-0.12082548 -0.30196935 -0.69336945 106 80 91
-0.12024906 -0.30253154 -0.69277889 108 83 94
-0.1199281 -0.29963553 -0.69391322 97 69 81
-0.11994672 -0.30122215 -0.69320059 103 77 88
-0.11959188 -0.30267763 -0.69233119 109 83 96
-0.11631635 -0.3000901 -0.69199872 108 82 90
-0.11682132 -0.30053744 -0.69201857 108 82 91
-0.1178392 -0.30047956 -0.69249618 105 78 89
-0.11732322 -0.30052775 -0.69224602 107 80 90
-0.11782644 -0.30028948 -0.69257718 104 77 88
-0.11688052 -0.29952094 -0.69250929 104 77 86
-0.11659247 -0.29886389 -0.69268149 102 75 84
-0.11768308 -0.29928595 -0.69297141 101 73 83
-0.12638463 -0.3060123 -0.69557464 106 88 94
-0.12647533 -0.30594936 -0.69565225 106 89 93
-0.12558514 -0.30425885 -0.69554645 111 91 91
-0.12415088 -0.30273631 -0.69503492 113 89 90
-0.12314773 -0.30566561 -0.69339478 120 101 112
-0.1245885 -0.30609062 -0.69427747 114 96 106
-0.12418405 -0.30495885 -0.69437015 111 91 100
-0.1239476 -0.30428532 -0.69442838 110 89 97
-0.12574306 -0.30603248 -0.69511896 108 90 98
-0.12443491 -0.30495304 -0.69455069 110 90 99
-0.12532586 -0.3061488 -0.69478279 110 93 101
-0.12080926 -0.30456331 -0.69239968 119 97 109
-0.12110515 -0.30501008 -0.6924243 122 101 113
-0.12050797 -0.30519652 -0.69203246 134 111 121
-0.12020164 -0.30444029 -0.69209933 125 101 113
-0.12227202 -0.30388328 -0.69347304 113 91 101
-0.12246865 -0.3043938 -0.69341546 115 94 105
-0.12068033 -0.3037591 -0.69259191 113 90 102
-0.12240495 -0.3027761 -0.69392252 108 84 93
-0.11964032 -0.30276936 -0.69232172 109 84 96
-0.12124106 -0.30328745 -0.69307566 111 87 98
-0.1204751 -0.30354586 -0.69254458 112 88 101
-0.12416603 -0.30770352 -0.6935069 111 92 105
-0.12453836 -0.30768442 -0.69377679 110 90 103
-0.12467081 -0.30753177 -0.69391173 110 91 103
-0.1250511 -0.30801415 -0.69405329 105 85 97
-0.12544785 -0.30787948 -0.69437146 104 84 96
-0.1246524 -0.30773577 -0.69384414 109 89 102
-0.12463781 -0.30952597 -0.69336528 92 58 91
-0.12358747 -0.31024939 -0.69243848 87 37 95
-0.1230977 -0.30825943 -0.69261056 108 75 110
-0.12323228 -0.31011805 -0.69222271 89 37 99
-0.12570466 -0.30969441 -0.69407207 88 61 83
-0.12306257 -0.30932063 -0.69231033 97 53 104
-0.12474509 -0.30885044 -0.69361609 99 73 94
-0.12301616 -0.30997097 -0.69211417 91 40 101
-0.12282519 -0.30792403 -0.69254118 114 85 115
-0.12288236 -0.30727223 -0.69274074 120 97 118
-0.12271652 -0.30809879 -0.69243556 114 83 115
-0.1234596 -0.31060919 -0.69225967 84 30 94
-0.098098263 -0.29860905 -0.68777806 150 130 124
-0.095750235 -0.29835427 -0.68751585 146 121 112
-0.095334664 -0.29854339 -0.68738401 149 125 118
-0.095644936 -0.29774877 -0.68775499 134 108 97
-0.093931735 -0.29784179 -0.68750846 138 110 104
-0.093699627 -0.297077 -0.68780977 127 103 92
-0.094748266 -0.29769036 -0.68767047 134 106 98
-0.093199529 -0.29697326 -0.68779504 127 103 92
-0.091565676 -0.29653439 -0.68778825 122 103 92
-0.091336221 -0.29881895 -0.68677694 155 126 133
-0.091138139 -0.29737967 -0.68737096 133 113 107
-0.091399699 -0.29720315 -0.68747979 132 110 104
-0.088147312 -0.29819649 -0.68664765 139 130 123
-0.088766381 -0.29668534 -0.68738455 125 106 94
-0.089415081 -0.29766381 -0.68703383 133 121 113
-0.089329861 -0.29583529 -0.68782496 117 93 77
-0.088545263 -0.29579481 -0.68774813 118 92 76
-0.087420642 -0.29823631 -0.68655574 140 129 125
-0.087765887 -0.29595241 -0.68758869 120 94 79
-0.10692442 -0.30250061 -0.68785244 145 137 138
-0.10503602 -0.30203769 -0.68763566 152 135 140
-0.10393997 -0.30142322 -0.68766481 156 135 141
-0.10099902 -0.30229869 -0.68676668 160 144 156
-0.10099447 -0.30266321 -0.68660259 160 143 157
-0.10238808 -0.30220217 -0.68703645 159 138 149
-0.1015672 -0.29988962 -0.68785906 156 137 138
-0.099868044 -0.30125356 -0.68699181 159 144 151
-0.10241201 -0.30113617 -0.68751192 158 140 146
-0.10079373 -0.29980195 -0.68775082 156 138 138
-0.099828802 -0.29977334 -0.68758309 156 140 140
-0.098691285 -0.30033416 -0.6871711 157 141 143
-0.096893229 -0.29970944 -0.68714076 156 136 134
-0.099112816 -0.29953536 -0.68756044 156 139 137
-0.096581846 -0.2992366 -0.68728304 155 134 130
-0.098799445 -0.29902092 -0.68771923 155 137 133
-0.099366114 -0.29956791 -0.68758714 156 139 138
-0.096645407 -0.30252165 -0.68603325 140 101 136
-0.099037804 -0.30244482 -0.68637913 159 143 158
-0.095728964 -0.30090895 -0.68652385 142 106 126
-0.095705234 -0.30169317 -0.68622315 138 96 127
-0.096313171 -0.30223277 -0.68609887 139 99 133
-0.0966525 -0.30037525 -0.68684864 153 128 134
-0.092083968 -0.29995146 -0.68641382 157 128 137
-0.093137212 -0.30208015 -0.68570173 154 125 143
-0.092480309 -0.30068195 -0.68617481 156 126 139
-0.092547119 -0.30159873 -0.6858086 158 132 144
-0.093656123 -0.30141398 -0.68605506 147 110 135
-0.092826046 -0.29966322 -0.68664032 151 116 131
-0.093963854 -0.3008458 -0.68633115 144 103 130
-0.095347621 -0.30030811 -0.68670481 146 112 126
-0.095078744 -0.30107525 -0.68638074 142 102 128
-0.094234854 -0.29925439 -0.68696815 153 124 128
-0.089673765 -0.30193418 -0.68537188 152 141 141
-0.089815937 -0.30176035 -0.6854412 154 143 143
-0.08865723 -0.30145922 -0.68547326 145 135 134
-0.08827322 -0.3015888 -0.68540412 141 131 130
-0.088936552 -0.30063814 -0.68577623 149 140 139
-0.088613227 -0.29998124 -0.68598431 148 141 138
-0.090356484 -0.30027393 -0.6860562 157 142 143
-0.090305716 -0.30097732 -0.68576086 159 147 147
-0.090853319 -0.3004846 -0.68603206 159 141 144
-0.090965688 -0.30002171 -0.68623626 158 137 141
-0.091406964 -0.29950908 -0.68650228 157 131 137
-0.091001108 -0.29892188 -0.68669242 154 128 134
-0.084556662 -0.30215195 -0.68503678 122 76 94
-0.085730091 -0.30191684 -0.68516922 128 98 106
-0.085035667 -0.30192709 -0.68513525 125 86 99
-0.087452538 -0.30264026 -0.68499511 134 117 120
-0.087190382 -0.29886812 -0.68629336 142 134 129
-0.087883592 -0.30039856 -0.68579358 141 133 131
-0.08723639 -0.30189165 -0.68524438 135 121 120
-0.087092176 -0.30107 -0.68552333 137 124 121
-0.081826091 -0.30231792 -0.68489468 103 66 80
-0.081613317 -0.30174679 -0.68509114 103 65 78
-0.083187565 -0.30197114 -0.68505824 114 59 83
-0.080953054 -0.302562 -0.68478209 96 71 78
-0.080114655 -0.30175585 -0.68504339 92 71 73
-0.082589626 -0.30185127 -0.68508303 110 61 81
-0.083634578 -0.30161089 -0.68519151 119 69 87
-0.079565696 -0.30226141 -0.68484074 89 73 74
-0.079732284 -0.3020744 -0.68491375 90 73 74
-0.10916976 -0.30429369 -0.68780553 142 127 131
-0.10885465 -0.30424592 -0.68772793 143 130 133
-0.10935876 -0.30622298 -0.68711519 148 129 137
-0.10849243 -0.30430254 -0.68758893 145 132 136
-0.10800897 -0.30444607 -0.68737686 148 136 139
-0.10871355 -0.30518335 -0.68731487 147 132 137
-0.1098406 -0.30621335 -0.68727422 146 126 134
-0.10441693 -0.30563512 -0.68609482 155 141 145
-0.10388121 -0.30349013 -0.68677688 158 134 145
-0.10390304 -0.30592057 -0.6858868 154 142 144
-0.10560978 -0.30527353 -0.68646699 158 139 148
-0.1047236 -0.30555245 -0.68618673 156 140 146
-0.10655113 -0.30585018 -0.68644345 158 140 149
-0.10585003 -0.30342838 -0.68723381 152 136 143
-0.10613528 -0.30409908 -0.68703485 154 137 144
-0.10668886 -0.30491248 -0.68684018 155 139 146
-0.10697396 -0.30384395 -0.68732315 149 138 142
-0.10566144 -0.30359781 -0.68712497 154 136 144
-0.10636244 -0.30387878 -0.68717223 152 137 143
-0.10024283 -0.30455312 -0.6857779 151 136 149
-0.10238191 -0.30634761 -0.68546647 149 137 141
-0.10016028 -0.30575919 -0.68531948 141 122 137
-0.099672206 -0.30584508 -0.6852079 138 117 134
-0.10043592 -0.30640209 -0.68512762 138 118 132
-0.10012456 -0.30457631 -0.68574995 150 135 148
-0.10139806 -0.30313927 -0.68648756 160 143 155
-0.10332903 -0.30350497 -0.68666774 157 135 145
-0.10259324 -0.30415708 -0.68630779 157 140 149
-0.10298803 -0.30423713 -0.68634266 157 139 147
-0.1003537 -0.30303228 -0.68635666 160 147 160
-0.10130432 -0.30416277 -0.68609554 158 146 155
-0.096692242 -0.30401164 -0.68548822 131 90 127
-0.096123844 -0.30528119 -0.68494803 125 95 124
-0.09610112 -0.30423856 -0.68532771 128 90 125
-0.097272731 -0.30530885 -0.68508786 128 97 125
-0.096749842 -0.30645856 -0.68459767 123 102 122
-0.099203818 -0.3065109 -0.68489879 131 106 126
-0.098070957 -0.30344591 -0.68587881 144 115 143
-0.09710145 -0.30388254 -0.68558949 133 94 130
-0.099150725 -0.30572259 -0.68518209 135 110 131
-0.099246986 -0.30412716 -0.68578327 148 128 147
-0.098159075 -0.3040536 -0.68566632 140 110 138
-0.096601687 -0.30315655 -0.68579108 135 93 132
-0.092049465 -0.30381468 -0.68485624 157 142 147
-0.092325225 -0.30445975 -0.68465638 149 133 141
-0.0944997 -0.306247 -0.68434119 126 107 124
-0.093587063 -0.30538288 -0.6845172 137 120 132
-0.093528181 -0.3049455 -0.68467438 142 125 137
-0.092827462 -0.30536935 -0.684394 139 121 133
-0.092495985 -0.30323365 -0.68515116 160 145 151
-0.094767906 -0.30389786 -0.68525696 137 105 133
-0.094480999 -0.30400667 -0.68517286 139 111 135
-0.093923651 -0.3032918 -0.68534946 147 118 140
-0.094133638 -0.3037653 -0.68520796 143 117 138
-0.095080815 -0.3056486 -0.68466252 128 108 127
-0.088712566 -0.30388296 -0.68458551 135 120 126
-0.088303603 -0.30513743 -0.68405259 133 117 132
-0.087989271 -0.30364144 -0.6846267 135 120 127
-0.090894215 -0.30559623 -0.68406749 135 117 128
-0.090283051 -0.30307969 -0.68499959 152 139 141
-0.090523519 -0.30365768 -0.68479317 148 134 138
-0.089887604 -0.30292532 -0.68503392 150 137 139
-0.090573147 -0.30312872 -0.68499899 154 140 143
-0.090885594 -0.30314669 -0.68501168 157 143 146
-0.084708355 -0.30474311 -0.6840837 126 94 108
-0.086330719 -0.30482188 -0.68409574 129 103 120
-0.085491851 -0.30431822 -0.68426132 126 91 110
-0.084377959 -0.30288988 -0.68476588 119 65 92
-0.087564275 -0.30485773 -0.68411851 131 112 129
-0.08628276 -0.30404252 -0.6843884 127 93 114
-0.08043845 -0.30311331 -0.68456084 94 78 80
-0.081630364 -0.30412641 -0.68421227 107 86 89
-0.082346365 -0.30457273 -0.68406701 114 89 94
-0.083424494 -0.30419287 -0.68425286 119 85 97
-0.082421288 -0.30405927 -0.68427265 111 87 93
-0.082248211 -0.30393994 -0.68431181 109 86 92
-0.08330477 -0.30374271 -0.68441641 116 78 93
-0.079244874 -0.30372417 -0.68428469 97 76 77
-0.11334749 -0.30843633 -0.68781626 150 135 132
-0.11152311 -0.30872914 -0.68703306 136 115 126
-0.11175907 -0.31015983 -0.68669361 133 115 127
-0.11187118 -0.30935189 -0.68697989 136 118 127
-0.11213636 -0.30924761 -0.68711346 139 121 128
-0.11260631 -0.30852118 -0.68751311 145 128 129
-0.10797417 -0.30933264 -0.68563557 139 107 136
-0.10912552 -0.31053048 -0.68564504 130 97 129
-0.10921265 -0.30906489 -0.68615735 140 118 136
-0.10838194 -0.31028107 -0.68546665 133 96 131
-0.10930272 -0.30874255 -0.68629485 143 123 138
-0.10887602 -0.30874196 -0.6861456 143 121 138
-0.1092068 -0.30711892 -0.68675852 149 130 139
-0.11010643 -0.3075701 -0.68691278 144 123 134
-0.11126208 -0.30808395 -0.68713069 137 114 126
-0.10900924 -0.30688307 -0.68676579 151 132 140
-0.1100206 -0.30687618 -0.68709385 146 125 134
-0.10996731 -0.30813348 -0.6866985 142 123 135
-0.10645823 -0.31015259 -0.68497699 135 99 132
-0.10440212 -0.30904362 -0.68492526 144 126 136
-0.10354484 -0.31031761 -0.68432534 144 132 132
-0.10361956 -0.30678114 -0.68551856 152 143 143
-0.10618162 -0.31021228 -0.6849004 136 102 132
-0.10387469 -0.3079809 -0.68517119 148 136 139
-0.1041514 -0.30671063 -0.6856485 153 143 144
-0.10655268 -0.30719668 -0.68597007 153 135 146
-0.10637458 -0.30783552 -0.68572438 149 126 143
-0.10482685 -0.30792734 -0.68538392 146 125 139
-0.10702563 -0.30848327 -0.68564194 145 116 140
-0.09983018 -0.30946854 -0.68398809 140 119 129
-0.099648133 -0.30828339 -0.68435675 136 114 128
-0.10110762 -0.30949867 -0.68419558 140 122 129
-0.10141436 -0.30956399 -0.68422538 140 123 130
-0.10078302 -0.30817419 -0.68458539 136 116 128
-0.10066294 -0.30805588 -0.68460512 136 115 128
-0.10344636 -0.31006977 -0.6843906 144 132 133
-0.10162087 -0.30692443 -0.68513918 142 126 134
-0.10318486 -0.30744204 -0.68522298 149 139 140
-0.10312325 -0.30818725 -0.68496466 147 136 137
-0.10007932 -0.30674145 -0.68494755 134 112 128
-0.10282386 -0.30862623 -0.68476939 144 131 134
-0.09694171 -0.30780673 -0.68415534 128 108 123
-0.09769915 -0.30832464 -0.68407989 132 112 125
-0.099584624 -0.30830839 -0.68433851 136 114 128
-0.099554472 -0.30867553 -0.68421078 137 116 128
-0.099259898 -0.30771416 -0.68449646 134 111 127
-0.099372506 -0.3086516 -0.68419504 137 115 128
-0.09540607 -0.30703986 -0.68419975 123 104 121
-0.11575986 -0.31227612 -0.68773115 151 138 130
-0.11648646 -0.31442678 -0.68753827 143 116 122
-0.11607733 -0.31394735 -0.68745548 148 127 126
-0.11455306 -0.31216648 -0.68722981 154 143 134
-0.11467467 -0.3109183 -0.68760318 154 147 134
-0.11258797 -0.31172374 -0.68658864 139 122 129
-0.11398805 -0.31180385 -0.68710703 149 138 132
-0.1148846 -0.31088948 -0.68769169 155 149 135
-0.11271883 -0.31177336 -0.68662602 140 123 129
-0.11220873 -0.31149718 -0.68649888 136 118 129
-0.11222697 -0.31244728 -0.68621892 145 124 133
-0.11224016 -0.31220594 -0.68629766 142 122 132
-0.11325577 -0.31348267 -0.68634415 153 134 135
-0.11204614 -0.31289428 -0.68600637 149 125 135
-0.11154106 -0.31175351 -0.68613648 139 117 131
-0.10817232 -0.3126252 -0.68470705 152 117 137
-0.10892403 -0.31259665 -0.68496096 149 113 137
-0.10833199 -0.31199542 -0.68493545 145 106 135
-0.10971503 -0.31197351 -0.68541402 142 108 134
-0.11035868 -0.31306097 -0.68531013 151 117 138
-0.1089182 -0.31174675 -0.68520361 141 102 134
-0.11093084 -0.31064364 -0.68624264 130 108 127
-0.11107709 -0.3126536 -0.68568516 147 119 136
-0.11024327 -0.31183857 -0.68563992 141 110 133
-0.10561606 -0.3111608 -0.68450105 144 118 133
-0.10585952 -0.31275225 -0.6841048 160 141 138
-0.10438898 -0.31106928 -0.68427545 146 130 133
-0.10632402 -0.31138057 -0.68458444 144 113 133
-0.10469337 -0.31096685 -0.68436641 144 125 133
-0.1025088 -0.3106274 -0.68405211 144 130 131
-0.11611915 -0.3155762 -0.68714482 147 125 127
-0.11582356 -0.31551388 -0.68699592 153 134 133
0 0 0 1 0 0 0 1 0 0 0 1 0 0 0 0 0 673 1 0 0
