ply
format ascii 1.0
comment PCL generated
element vertex 158
property float x
property float y
property float z
property uchar red
property uchar green
property uchar blue
element camera 1
property float view_px
property float view_py
property float view_pz
property float x_axisx
property float x_axisy
property float x_axisz
property float y_axisx
property float y_axisy
property float y_axisz
property float z_axisx
property float z_axisy
property float z_axisz
property float focal
property float scalex
property float scaley
property float centerx
property float centery
property int viewportx
property int viewporty
property float k1
property float k2
end_header
-0.26871482 -0.22803624 -0.89794445 55 26 15
-0.26925021 -0.22789338 -0.89675236 45 21 12
-0.2690455 -0.22780234 -0.89747858 52 25 14
-0.26981974 -0.22760904 -0.89573002 38 17 9
-0.27025333 -0.22666043 -0.89631063 47 21 12
-0.27131584 -0.2258561 -0.89561534 44 20 12
-0.27041233 -0.22677433 -0.89733315 54 27 17
-0.2710689 -0.2261616 -0.89633578 48 23 15
-0.27057976 -0.22693631 -0.89854288 62 33 24
-0.27040908 -0.22672176 -0.89708227 52 25 16
-0.26756823 -0.23988132 -0.89678586 39 18 11
-0.26743189 -0.2388207 -0.89560604 39 18 11
-0.26757497 -0.24101892 -0.89780384 36 17 10
-0.26731312 -0.24243449 -0.89876783 33 16 10
-0.26631314 -0.24114497 -0.89612854 26 16 13
-0.26668292 -0.2415749 -0.89718539 31 18 13
-0.2661407 -0.24331217 -0.89824188 28 18 15
-0.26666451 -0.24124564 -0.8967939 30 17 12
-0.26597884 -0.24296683 -0.89609689 26 17 14
-0.26605058 -0.2420789 -0.89597625 25 16 13
-0.2661384 -0.24092402 -0.89553809 23 15 12
-0.26598075 -0.24286345 -0.89575255 26 17 13
-0.26603526 -0.24208917 -0.89523363 25 16 13
-0.26257199 -0.24782565 -0.89531708 26 16 14
-0.26245618 -0.24802907 -0.89607888 39 26 24
-0.26257426 -0.24797313 -0.89692539 55 39 35
-0.26356542 -0.24686019 -0.89882284 89 69 63
-0.26332504 -0.24711278 -0.89748985 67 50 44
-0.26311883 -0.24737564 -0.89730513 64 46 41
-0.27288806 -0.22456251 -0.90085697 59 38 31
-0.27353966 -0.22406043 -0.90033412 51 31 25
-0.27458617 -0.22327225 -0.89991993 42 24 19
-0.27470937 -0.22315195 -0.89922839 34 17 12
-0.27306831 -0.22440742 -0.90033388 53 33 26
-0.27516153 -0.22282366 -0.89926219 33 17 12
-0.27500206 -0.22303006 -0.90040296 52 34 29
-0.2740255 -0.22376406 -0.90137208 62 42 36
-0.27505073 -0.22308441 -0.9013871 71 52 46
-0.27079502 -0.22839737 -0.90116763 67 37 31
-0.26814169 -0.22848392 -0.89885151 61 30 17
-0.26981071 -0.22802967 -0.89969665 64 34 25
-0.27051532 -0.22839974 -0.90091318 66 36 30
-0.27033618 -0.22739697 -0.89921331 64 35 25
-0.27094758 -0.2305356 -0.90271837 78 53 49
-0.2699579 -0.22887552 -0.90080863 66 37 29
-0.26924869 -0.23044674 -0.90116781 70 44 36
-0.26949602 -0.23139714 -0.90200919 75 50 43
-0.27021253 -0.22966042 -0.90154999 70 42 36
-0.26973331 -0.22946081 -0.90097898 68 40 32
-0.26950809 -0.23047152 -0.90142316 71 45 37
-0.27049187 -0.22877382 -0.90123576 67 38 32
-0.26911885 -0.23131377 -0.90133637 70 45 38
-0.2690396 -0.23143417 -0.89964074 50 29 22
-0.26825953 -0.22908382 -0.89907998 59 30 19
-0.26911795 -0.23180985 -0.89905977 40 22 17
-0.26898092 -0.23125283 -0.89961916 51 29 22
-0.2689144 -0.23304696 -0.90272832 73 49 43
-0.26839775 -0.23439607 -0.90222776 71 45 36
-0.26791704 -0.23627086 -0.90111482 61 34 24
-0.26849285 -0.23522709 -0.90136373 64 39 30
-0.2680698 -0.23630664 -0.90085179 58 32 22
-0.26931623 -0.23629947 -0.89902008 37 18 11
-0.26829657 -0.23546092 -0.90140724 64 38 29
-0.2694037 -0.23431005 -0.89948452 42 24 18
-0.26934227 -0.23306811 -0.89919859 38 22 17
-0.26945084 -0.23547587 -0.89960068 43 24 18
-0.26936734 -0.23341419 -0.89939332 40 23 18
-0.26949242 -0.23367435 -0.90107638 60 39 34
-0.26936859 -0.23360096 -0.89932078 39 23 18
-0.26712018 -0.23537377 -0.90240711 64 36 27
-0.26673213 -0.23533016 -0.90268427 63 36 27
-0.26646766 -0.23956484 -0.90262175 74 46 31
-0.26663062 -0.23909995 -0.9024328 73 44 30
-0.26742187 -0.2367432 -0.9016878 68 38 27
-0.26714781 -0.23874268 -0.90201712 73 43 29
-0.26692078 -0.23833033 -0.90213323 72 42 28
-0.26757187 -0.24155878 -0.89980727 48 26 15
-0.26698473 -0.24081025 -0.90141988 64 39 25
-0.26645061 -0.24101125 -0.9017998 65 41 28
-0.26662797 -0.24139771 -0.90109468 57 35 24
-0.26613647 -0.24373649 -0.89902186 31 20 16
-0.26644737 -0.24216969 -0.90043628 48 30 22
-0.26627469 -0.24157329 -0.90215957 69 44 33
-0.26620048 -0.24214855 -0.90159971 63 40 31
-0.26598427 -0.2437887 -0.89959234 37 24 21
-0.26626152 -0.24166635 -0.90196788 67 43 32
-0.26626956 -0.24166057 -0.90260696 76 48 38
-0.26341775 -0.24722071 -0.89901185 90 70 64
-0.2633613 -0.25125444 -0.90233678 104 79 81
-0.26295477 -0.24963121 -0.9004997 96 72 69
-0.2629016 -0.24845992 -0.89949936 92 70 65
-0.26317507 -0.25095421 -0.90186399 101 76 77
-0.26288515 -0.25174156 -0.89958251 98 73 68
-0.26307416 -0.25113586 -0.90155196 100 75 75
-0.26280963 -0.25025541 -0.89940023 95 70 65
-0.26281276 -0.25033453 -0.89940166 95 70 65
-0.26307109 -0.25098908 -0.90157503 100 75 75
-0.26281396 -0.25118706 -0.89911419 96 71 65
-0.26748636 -0.23856059 -0.89093608 32 18 14
-0.26669014 -0.23974377 -0.89073008 27 15 12
-0.27529061 -0.22377148 -0.90358979 95 74 69
-0.27523488 -0.22418652 -0.90403426 94 72 68
-0.27536547 -0.22402065 -0.90394121 95 73 69
-0.27500913 -0.22709017 -0.90511537 80 59 58
-0.27356234 -0.22822569 -0.90407932 67 44 43
-0.27450711 -0.2277607 -0.90484917 74 53 52
-0.27402195 -0.22757834 -0.90431178 72 50 48
-0.27400765 -0.22663498 -0.90397954 76 54 51
-0.27285787 -0.22808631 -0.90334129 63 40 37
-0.27329773 -0.22650175 -0.903337 73 49 45
-0.27362904 -0.22501826 -0.90334582 81 58 53
-0.27386159 -0.22536023 -0.90358508 81 58 53
-0.27270052 -0.22695607 -0.90294713 67 43 39
-0.27148017 -0.23142427 -0.90335816 85 64 59
-0.27089006 -0.23130824 -0.90299821 81 58 54
-0.26897916 -0.23335655 -0.90294814 73 49 42
-0.26840448 -0.23500633 -0.90366721 69 45 37
-0.26923841 -0.23441836 -0.90376371 75 52 45
-0.27088073 -0.23278955 -0.9036476 86 65 60
-0.26933628 -0.23422374 -0.90369332 75 52 46
-0.27004132 -0.23389935 -0.90387839 81 59 53
-0.27137381 -0.2350653 -0.9047634 90 71 66
-0.26929757 -0.23602384 -0.90448004 75 53 47
-0.26925048 -0.23621699 -0.90454125 75 53 46
-0.27117386 -0.23495831 -0.90465742 88 69 64
-0.2675029 -0.23480396 -0.90300655 63 36 27
-0.26859972 -0.23767555 -0.90421951 69 44 36
-0.26768014 -0.23948857 -0.90353966 77 49 33
-0.26882267 -0.23900419 -0.90407515 75 48 38
-0.26880944 -0.23868063 -0.90412647 73 47 37
-0.27066287 -0.24000967 -0.9046253 78 53 46
-0.26826483 -0.23914352 -0.90383065 75 48 35
-0.27116045 -0.23957618 -0.90487212 78 55 49
-0.27122092 -0.23648548 -0.90519756 88 69 64
-0.27080059 -0.23783529 -0.90492982 81 60 54
-0.2705166 -0.23716103 -0.90490615 81 60 54
-0.27089205 -0.23697138 -0.90504462 84 64 59
-0.27004659 -0.23861447 -0.90461236 74 49 43
-0.26684353 -0.23909596 -0.90315855 72 46 32
-0.26735398 -0.2387732 -0.90349954 73 46 32
-0.26638466 -0.23758426 -0.90302819 67 40 30
-0.26657301 -0.23740889 -0.90318692 67 40 30
-0.26630834 -0.23944102 -0.90273905 73 46 31
-0.26690486 -0.24354799 -0.90323329 81 51 48
-0.26700231 -0.24324955 -0.9032672 81 51 47
-0.26724622 -0.24059607 -0.90320778 80 51 35
-0.26744097 -0.24548247 -0.90349931 84 55 58
-0.26751781 -0.24692701 -0.90392065 88 60 63
-0.26738358 -0.24442808 -0.90351707 81 52 53
-0.26686767 -0.24466661 -0.90317523 82 52 53
-0.26747435 -0.24465522 -0.90353477 82 53 55
-0.26612896 -0.24011277 -0.89214313 26 15 13
-0.2668705 -0.23919627 -0.89131939 30 17 14
-0.26615849 -0.24005736 -0.89182615 27 16 13
-0.26734322 -0.23849396 -0.89295411 34 18 13
-0.26737851 -0.2385093 -0.89239919 33 18 13
-0.26687312 -0.23920727 -0.89369655 29 16 12
-0.2668643 -0.23926957 -0.89335597 28 16 13
0 0 0 1 0 0 0 1 0 0 0 1 0 0 0 0 0 158 1 0 0
