ply
format ascii 1.0
comment PCL generated
element vertex 224
property float x
property float y
property float z
property uchar red
property uchar green
property uchar blue
element camera 1
property float view_px
property float view_py
property float view_pz
property float x_axisx
property float x_axisy
property float x_axisz
property float y_axisx
property float y_axisy
property float y_axisz
property float z_axisx
property float z_axisy
property float z_axisz
property float focal
property float scalex
property float scaley
property float centerx
property float centery
property int viewportx
property int viewporty
property float k1
property float k2
end_header
-0.010817623 -0.39954773 -0.67812854 170 156 173
-0.0066499226 -0.39959925 -0.67859381 131 107 103
-0.0072626336 -0.39988825 -0.67852575 142 120 120
-0.0071835564 -0.39991513 -0.67853749 140 118 118
-0.0072746067 -0.40032157 -0.67854434 139 117 121
-0.0067467154 -0.39983076 -0.67859173 132 108 106
-0.0076445364 -0.40021008 -0.67848992 147 127 131
-0.0091363601 -0.39921895 -0.67826682 175 162 166
-0.0053608008 -0.39893895 -0.67873162 114 87 75
-0.014928073 -0.40348682 -0.67788178 130 100 138
-0.015532539 -0.40345678 -0.67782366 133 103 138
-0.013781208 -0.40284321 -0.67797196 128 102 144
-0.01606488 -0.40375209 -0.6777817 134 103 135
-0.0098483805 -0.40267372 -0.67827958 163 153 165
-0.01025665 -0.40322825 -0.67826396 154 142 157
-0.011925607 -0.40370771 -0.67814541 136 115 147
-0.012334219 -0.40352401 -0.67810708 135 112 148
-0.010079911 -0.40107369 -0.67821187 179 166 181
-0.013357054 -0.40303996 -0.67801249 130 103 145
-0.012631063 -0.40286317 -0.67806387 139 115 152
-0.0088891387 -0.40344581 -0.67842847 138 125 133
-0.0086329645 -0.40367413 -0.6785059 131 117 124
-0.0079366025 -0.40262616 -0.67853999 128 110 115
-0.0090323472 -0.40261289 -0.67838192 150 137 146
-0.0093360879 -0.40354171 -0.67837 146 135 144
-0.0093121817 -0.40078422 -0.67828846 175 162 173
-0.0090411287 -0.40061384 -0.67831933 172 157 167
-0.0083599323 -0.40121666 -0.67842853 152 134 142
-0.018398955 -0.40813449 -0.67764199 164 157 159
-0.018560424 -0.40631276 -0.67761528 150 127 142
-0.017761441 -0.40564337 -0.67765599 148 124 140
-0.018245542 -0.40742111 -0.67764431 160 147 153
-0.019340461 -0.40775934 -0.67758304 157 142 150
-0.018804183 -0.4059093 -0.67759711 146 118 136
-0.019686263 -0.40594187 -0.67752957 143 117 136
-0.019844826 -0.40600172 -0.67751741 144 118 137
-0.020228308 -0.4059459 -0.67747921 143 120 139
-0.021270839 -0.40692082 -0.67742479 146 126 142
-0.020535342 -0.40699369 -0.67749649 147 123 138
-0.014265207 -0.40713802 -0.67809254 128 107 140
-0.015532818 -0.40762439 -0.67794311 144 130 150
-0.015797418 -0.40752283 -0.67790109 146 134 152
-0.014970345 -0.40738177 -0.67800796 137 120 146
-0.015398917 -0.40811673 -0.67798764 143 129 149
-0.01570487 -0.40495062 -0.67783761 133 106 138
-0.014568128 -0.40453231 -0.67794132 123 94 136
-0.015546759 -0.40491819 -0.67785227 132 105 138
-0.016645934 -0.40568078 -0.67775542 144 122 143
-0.016606396 -0.40656546 -0.67776752 150 135 151
-0.012421186 -0.40740019 -0.67829436 129 112 139
-0.01179738 -0.4077847 -0.67837799 130 116 138
-0.010754095 -0.4077335 -0.6784718 134 123 138
-0.010069013 -0.40489286 -0.67834729 144 134 146
-0.012280029 -0.40798119 -0.67834598 128 112 137
-0.012585098 -0.40639475 -0.678222 128 109 139
-0.012474203 -0.40604523 -0.67821229 128 109 140
-0.01274681 -0.40431857 -0.67809904 124 99 138
-0.012459487 -0.40455309 -0.67813444 126 103 139
-0.01284704 -0.40495881 -0.67812496 124 100 138
-0.010944566 -0.40506428 -0.6782825 139 125 144
-0.0067392779 -0.40604389 -0.67901725 93 74 68
-0.0080531174 -0.40758464 -0.67882919 118 101 100
-0.0095117548 -0.40643415 -0.67853063 136 128 135
-0.0090922164 -0.40534592 -0.67854577 131 121 127
-0.0083082523 -0.40627205 -0.6787703 113 101 104
-0.0076133246 -0.40567324 -0.67887521 101 87 87
-0.0083307298 -0.40616861 -0.67875874 113 102 105
-0.021491481 -0.41048661 -0.6774143 150 135 142
-0.019426778 -0.41093424 -0.67757928 150 137 142
-0.01783037 -0.41081259 -0.67776334 141 122 130
-0.01923286 -0.41106305 -0.6776073 147 132 139
-0.019547198 -0.41031212 -0.67754066 157 149 151
-0.018075254 -0.40872276 -0.67765254 166 162 161
-0.018398402 -0.41208902 -0.67774618 131 105 117
-0.019800387 -0.4091534 -0.6775409 158 147 151
-0.020844277 -0.41128713 -0.67743629 153 143 146
-0.021076974 -0.41076246 -0.67743319 152 139 144
-0.020926023 -0.41112721 -0.67743474 152 141 145
-0.020116685 -0.40874639 -0.67753053 157 143 149
-0.01465491 -0.41114143 -0.67824274 138 126 138
-0.014591736 -0.41133708 -0.67826343 140 130 140
-0.015569967 -0.41208869 -0.67815387 139 125 133
-0.015045714 -0.41152811 -0.67820376 138 125 136
-0.01515648 -0.4099566 -0.67809892 126 103 128
-0.017470611 -0.41021711 -0.67778474 145 128 136
-0.016393498 -0.41074282 -0.67795426 127 101 121
-0.016290886 -0.40963873 -0.67792517 138 119 135
-0.017155459 -0.41093123 -0.67785627 133 110 124
-0.015720323 -0.40888831 -0.67797464 139 123 142
-0.011305567 -0.41011804 -0.67855895 142 136 143
-0.01272504 -0.41130683 -0.67849267 148 147 149
-0.010236528 -0.41163087 -0.678747 135 111 134
-0.011147736 -0.41093668 -0.67862087 140 128 141
-0.010039249 -0.41191372 -0.67878193 134 107 132
-0.010566568 -0.41185343 -0.67872852 137 114 136
-0.013276098 -0.41068041 -0.67840612 142 137 147
-0.0127202 -0.41063169 -0.67845523 144 141 147
-0.013641088 -0.40865225 -0.67825896 126 108 138
-0.010880893 -0.40927875 -0.67855114 140 136 142
-0.010565308 -0.40894985 -0.67856222 139 134 141
-0.010614663 -0.40862989 -0.67853975 137 129 139
-0.0088392626 -0.4120329 -0.67892587 129 102 118
-0.0088808136 -0.41204992 -0.67892164 130 102 119
-0.008547104 -0.41133395 -0.67893106 126 96 110
-0.0084140608 -0.40952361 -0.67885172 125 100 107
-0.0083431657 -0.40930793 -0.67884886 125 101 106
-0.0094719557 -0.40876722 -0.67866677 134 121 130
-0.0087211402 -0.40868863 -0.67876267 128 111 115
-0.022365807 -0.41568321 -0.67753404 126 110 125
-0.021599587 -0.41291654 -0.67742431 144 132 139
-0.022340396 -0.41392332 -0.67742026 137 123 133
-0.023234641 -0.41426319 -0.67735761 134 118 131
-0.021664131 -0.41518551 -0.67756802 130 116 127
-0.024014484 -0.41458988 -0.67730606 131 114 130
-0.025101783 -0.41469589 -0.67723191 133 116 136
-0.01800767 -0.41328815 -0.67787564 128 102 118
-0.018835528 -0.41433793 -0.6778484 129 107 122
-0.020128259 -0.41586086 -0.6777975 129 113 128
-0.019774847 -0.4158904 -0.67784363 131 114 130
-0.01778926 -0.41334149 -0.67790663 129 103 119
-0.0183082 -0.41588679 -0.67802584 136 118 136
-0.020167079 -0.41374868 -0.67764604 131 112 124
-0.019067561 -0.41288573 -0.67771912 130 106 119
-0.021393333 -0.41347736 -0.67748308 141 128 135
-0.021427443 -0.41593704 -0.67764151 126 110 123
-0.020796616 -0.41213697 -0.67746514 145 131 137
-0.014729927 -0.41501835 -0.67844963 142 139 152
-0.015031815 -0.41396034 -0.67835993 145 141 149
-0.016448611 -0.41558829 -0.67825276 140 128 145
-0.01438474 -0.41389862 -0.67844135 146 144 152
-0.013714085 -0.41289413 -0.67848086 149 151 154
-0.014160731 -0.4130452 -0.67842984 148 148 152
-0.017281231 -0.41289827 -0.67794693 130 105 120
-0.016468024 -0.41400072 -0.67815244 139 124 137
-0.015833072 -0.41298136 -0.67817724 140 127 136
-0.016825007 -0.41342708 -0.67805576 135 115 129
-0.017321968 -0.41328934 -0.6779688 131 107 122
-0.014881578 -0.41326675 -0.6783452 147 143 149
-0.010158944 -0.41282678 -0.67882395 131 104 130
-0.010701514 -0.4131051 -0.6787793 133 111 136
-0.012464336 -0.41590902 -0.67877132 128 123 138
-0.010444514 -0.41416922 -0.67888677 123 100 121
-0.011443058 -0.41437995 -0.67878282 131 115 136
-0.010985903 -0.41380394 -0.67879575 131 111 134
-0.011793725 -0.41382387 -0.67870855 137 123 144
-0.012545292 -0.41303942 -0.67860001 143 136 148
-0.011528437 -0.41378862 -0.67873198 135 120 143
-0.01346495 -0.41455746 -0.67858517 142 143 155
-0.013046131 -0.41216007 -0.67851073 148 145 150
-0.0093846293 -0.41244414 -0.6788885 129 100 122
-0.0089059556 -0.41257367 -0.67895466 126 100 115
-0.030028166 -0.41960481 -0.67733562 137 116 127
-0.027473195 -0.41905817 -0.67745215 130 110 123
-0.025905859 -0.41768339 -0.6774103 125 105 123
-0.026730429 -0.41854268 -0.67744672 128 109 123
-0.026694315 -0.41898981 -0.67749637 129 110 124
-0.02671868 -0.41770068 -0.67735851 126 106 122
-0.025746832 -0.41768783 -0.67742133 125 105 124
-0.027478468 -0.41624206 -0.67716217 132 112 134
-0.028211853 -0.41857567 -0.6773535 131 110 123
-0.025985334 -0.41624147 -0.67725426 123 103 124
-0.028506892 -0.41754121 -0.67723036 135 115 132
-0.028759724 -0.41915685 -0.67737854 132 112 123
-0.022309048 -0.41743055 -0.67771769 124 109 121
-0.023645924 -0.41940701 -0.67780656 123 107 119
-0.021647332 -0.41756538 -0.67780387 120 105 116
-0.024004819 -0.41778949 -0.67758751 126 110 125
-0.025092594 -0.41815028 -0.67752206 126 108 125
-0.024267964 -0.41744873 -0.67752641 125 108 124
-0.025118753 -0.41765547 -0.67746729 125 106 124
-0.024374828 -0.41843694 -0.67762077 127 111 126
-0.019564945 -0.41858521 -0.67818713 118 101 116
-0.017855126 -0.4176861 -0.67830545 122 106 125
-0.01871971 -0.41838729 -0.67827779 117 101 118
-0.018033065 -0.41686693 -0.67817414 131 114 132
-0.018330496 -0.4171997 -0.67817658 129 111 129
-0.019347355 -0.41612726 -0.67791885 132 115 132
-0.02015706 -0.41719946 -0.67794359 125 109 123
-0.020551866 -0.41810349 -0.67800021 121 104 116
-0.020988766 -0.41716394 -0.67783594 123 107 119
-0.021096312 -0.41800055 -0.6779204 119 103 115
-0.020195242 -0.41624692 -0.67782736 129 113 128
-0.015715554 -0.41832283 -0.67866439 115 108 127
-0.014992379 -0.41838241 -0.67875177 117 108 127
-0.015550105 -0.41885829 -0.67874265 112 101 121
-0.014627418 -0.41860768 -0.67881769 116 106 125
-0.01468549 -0.41629666 -0.67853951 136 133 151
-0.016365301 -0.41817403 -0.67856526 116 107 126
-0.01648738 -0.41707012 -0.67840546 127 117 136
-0.016969012 -0.41651532 -0.6782704 133 119 139
-0.016529309 -0.41658601 -0.67833692 133 121 140
-0.013480945 -0.41798332 -0.67887741 122 112 131
-0.013240067 -0.41622373 -0.67870975 133 132 148
-0.013611795 -0.41853794 -0.67892373 119 107 127
-0.037389219 -0.42234275 -0.67708385 135 105 130
-0.033358615 -0.42123783 -0.67722899 141 109 134
-0.034295019 -0.42108008 -0.67717093 141 112 131
-0.033304311 -0.42165771 -0.67726618 139 104 133
-0.036686838 -0.42245144 -0.67713779 133 100 125
-0.035558462 -0.42180192 -0.67715418 137 106 127
-0.035354085 -0.42161399 -0.67714906 138 108 129
-0.035908692 -0.4219653 -0.67714471 136 105 127
-0.029728979 -0.42036217 -0.67742699 133 110 122
-0.029341443 -0.42033565 -0.6774686 133 113 122
-0.030159472 -0.42116556 -0.67747569 131 105 123
-0.030051723 -0.42379493 -0.67781061 127 103 129
-0.029894177 -0.42065164 -0.67744339 132 108 122
-0.031833611 -0.42068189 -0.67729408 139 111 131
-0.030142704 -0.42073232 -0.67742592 132 106 122
-0.031805903 -0.42052913 -0.67728359 140 113 131
-0.031434234 -0.4200094 -0.6772688 141 118 132
-0.027142935 -0.42272344 -0.67794967 122 103 119
-0.026843837 -0.42309323 -0.6780408 118 98 113
-0.027966823 -0.42282835 -0.67788017 126 108 127
-0.02839515 -0.42337123 -0.67792284 125 107 126
-0.027645368 -0.42311731 -0.67796057 123 103 121
-0.025908565 -0.42185575 -0.67793906 121 101 115
-0.029167712 -0.42209074 -0.67769748 130 111 127
-0.027270876 -0.42047495 -0.67762464 131 113 126
-0.027815321 -0.42087236 -0.67763746 131 113 126
-0.028400473 -0.42280844 -0.67783618 128 111 130
-0.028335286 -0.42192319 -0.67773193 129 111 128
-0.023818832 -0.42015088 -0.67788541 120 104 115
-0.029025685 -0.42557511 -0.67808658 116 95 110
0 0 0 1 0 0 0 1 0 0 0 1 0 0 0 0 0 224 1 0 0
