ply
format ascii 1.0
comment PCL generated
element vertex 460
property float x
property float y
property float z
property uchar red
property uchar green
property uchar blue
element camera 1
property float view_px
property float view_py
property float view_pz
property float x_axisx
property float x_axisy
property float x_axisz
property float y_axisx
property float y_axisy
property float y_axisz
property float z_axisx
property float z_axisy
property float z_axisz
property float focal
property float scalex
property float scaley
property float centerx
property float centery
property int viewportx
property int viewporty
property float k1
property float k2
end_header
-0.14335056 -0.52518052 -0.7250489 227 217 229
-0.14279871 -0.52527696 -0.7247321 225 214 229
-0.14419276 -0.52525651 -0.72554338 232 225 232
-0.14628664 -0.52389002 -0.7267487 237 229 230
-0.14610256 -0.52288866 -0.7266252 230 217 223
-0.14418723 -0.52898395 -0.72583938 199 186 204
-0.14515711 -0.52700722 -0.72626346 222 214 220
-0.14550096 -0.52653384 -0.72642249 229 223 226
-0.14587195 -0.52638251 -0.72660768 234 229 231
-0.14394127 -0.52832931 -0.72568786 201 186 202
-0.14423844 -0.52780151 -0.72582078 207 194 207
-0.14612392 -0.5255993 -0.72669727 242 240 237
-0.14320755 -0.52762729 -0.72521287 203 187 204
-0.1444812 -0.52650589 -0.72583616 223 213 221
-0.14302912 -0.527771 -0.72512412 200 184 202
-0.144234 -0.52600676 -0.72563922 227 218 227
-0.14472263 -0.5258199 -0.72590417 232 225 230
-0.14466456 -0.5298683 -0.72615904 200 189 207
-0.14562806 -0.52998978 -0.72666818 209 203 219
-0.14484154 -0.53025198 -0.72629189 200 189 207
-0.14575282 -0.53164333 -0.72691238 205 196 210
-0.14453776 -0.52980834 -0.72608727 199 187 205
-0.14615791 -0.52937448 -0.72687393 217 215 230
-0.14503554 -0.53369594 -0.72681409 193 178 193
-0.14395267 -0.53592253 -0.72665077 185 169 187
-0.14284056 -0.5385235 -0.72656542 174 156 188
-0.14370213 -0.53765023 -0.72680527 184 167 192
-0.1436407 -0.53873605 -0.7269327 182 165 192
-0.14176378 -0.54097247 -0.72647995 170 152 188
-0.14173536 -0.53882921 -0.72614712 175 159 189
-0.14240192 -0.53863013 -0.72640043 172 154 188
-0.14101557 -0.53927886 -0.72590756 178 163 191
-0.14107676 -0.53873932 -0.72585547 178 164 190
-0.14190258 -0.54189336 -0.72670823 169 150 187
-0.14193316 -0.54169154 -0.72668934 170 151 187
-0.17042166 -0.54802942 -0.73995292 168 152 165
-0.17049572 -0.54754901 -0.74005449 163 145 160
-0.17247032 -0.54718691 -0.74122351 165 146 156
-0.16939655 -0.54814303 -0.73938107 167 150 166
-0.16898754 -0.547759 -0.73921305 161 142 162
-0.16895323 -0.54868305 -0.73907948 171 156 172
-0.17066693 -0.54966462 -0.73995632 185 173 184
-0.17059436 -0.54924107 -0.73993313 181 169 179
-0.17196847 -0.54982412 -0.7406798 189 178 185
-0.1705454 -0.54943377 -0.73989785 182 170 181
-0.17194523 -0.55004174 -0.74065799 191 181 188
-0.16880974 -0.55257845 -0.73883981 219 214 221
-0.16916971 -0.54994881 -0.73913342 187 176 188
-0.1685819 -0.54963696 -0.73883474 182 169 183
-0.1754963 -0.55355799 -0.74238664 222 216 223
-0.17523545 -0.55343848 -0.74226356 222 215 223
-0.17589195 -0.55421925 -0.74253821 220 215 224
-0.17494205 -0.55559665 -0.74197638 213 208 222
-0.17445503 -0.55468267 -0.74179459 216 210 221
-0.17422022 -0.55505788 -0.74166101 215 209 222
-0.17544106 -0.5562883 -0.74217641 211 207 223
-0.17141813 -0.5555408 -0.74015075 219 212 226
-0.173013 -0.55596912 -0.7409693 215 209 224
-0.1701332 -0.55605751 -0.73948449 221 213 230
-0.17119981 -0.55656344 -0.74003017 219 211 229
-0.17125472 -0.55471671 -0.74007308 219 213 224
-0.17005773 -0.55336118 -0.73946702 222 216 224
-0.17334987 -0.55529541 -0.74119025 216 209 222
-0.17341238 -0.55291069 -0.74135971 220 213 220
-0.17371377 -0.55424368 -0.74145454 217 210 221
-0.17366491 -0.55526811 -0.74136943 216 209 222
-0.17166625 -0.55296469 -0.7403723 221 215 221
-0.17285095 -0.55300468 -0.74103791 220 213 221
-0.16911772 -0.55563414 -0.73898447 222 215 229
-0.16934055 -0.55438244 -0.73910373 222 217 226
-0.16962929 -0.55658156 -0.73922789 222 213 231
-0.16907179 -0.55408281 -0.7389667 222 216 226
-0.16860114 -0.55286795 -0.73872626 221 216 223
-0.17622469 -0.55716431 -0.74253899 207 203 221
-0.17495027 -0.55673492 -0.7419228 211 206 223
-0.1756407 -0.55733377 -0.74226153 207 202 221
-0.17470697 -0.55768311 -0.74181908 207 200 219
-0.17388368 -0.55887669 -0.7413702 208 199 219
-0.17451528 -0.55848485 -0.74171442 205 197 217
-0.1701549 -0.5597266 -0.73957413 204 193 218
-0.17052388 -0.55993903 -0.73975229 203 192 217
-0.17264543 -0.55988407 -0.7407375 207 197 218
-0.17173083 -0.5588038 -0.7402789 212 202 223
-0.17258091 -0.55999511 -0.74071091 206 196 218
-0.16993989 -0.55731374 -0.73940003 218 208 229
-0.17181548 -0.55706805 -0.7403385 217 208 227
-0.17365626 -0.55713367 -0.74128592 213 205 223
-0.17067176 -0.55694759 -0.73975146 219 210 229
-0.17312825 -0.55722022 -0.7410121 214 206 224
-0.1735086 -0.55877054 -0.74117798 209 200 220
-0.17374815 -0.55751181 -0.74132591 212 204 222
-0.1698925 -0.55748916 -0.73938364 216 207 228
-0.16968536 -0.55954713 -0.739353 204 193 219
-0.16941652 -0.55989659 -0.73924178 201 190 217
-0.16878782 -0.55862355 -0.73890954 208 197 222
-0.16835138 -0.55817372 -0.73867393 212 202 224
-0.16811238 -0.54979724 -0.73858428 183 169 185
-0.1674467 -0.55046362 -0.73822212 191 175 191
-0.16800211 -0.54967976 -0.73853254 181 166 183
-0.16644305 -0.55254859 -0.73767251 217 209 218
-0.1664436 -0.55065906 -0.73771924 193 176 192
-0.16637635 -0.55057108 -0.73768848 192 174 191
-0.16243879 -0.55111498 -0.73559171 203 184 209
-0.16499175 -0.5519641 -0.73692256 211 201 214
-0.16366416 -0.55216944 -0.73623431 212 199 217
-0.16388749 -0.55085379 -0.73634255 201 186 205
-0.16383368 -0.55184299 -0.73632044 210 196 214
-0.16406952 -0.55271482 -0.73644805 217 205 221
-0.16498794 -0.55093825 -0.73693794 199 185 201
-0.1650997 -0.55137247 -0.73698872 204 192 207
-0.16463062 -0.55017823 -0.7367602 191 173 193
-0.16501145 -0.55021876 -0.73696852 190 172 192
-0.16105516 -0.55254543 -0.73499238 212 194 219
-0.1609402 -0.55243808 -0.73494411 210 193 218
-0.16128217 -0.55084074 -0.73507631 197 178 205
-0.16754082 -0.55352271 -0.7382049 220 214 223
-0.16660601 -0.55320817 -0.73774761 219 212 221
-0.16759141 -0.55325103 -0.73822975 220 214 223
-0.16843618 -0.55642807 -0.73864233 222 215 231
-0.16609201 -0.55295277 -0.73749775 219 212 220
-0.16735679 -0.55591774 -0.73813152 222 215 229
-0.16614284 -0.55444837 -0.73754501 220 214 225
-0.16781078 -0.55576766 -0.73833984 222 215 229
-0.16510499 -0.55660743 -0.73706013 221 217 230
-0.16438894 -0.55582541 -0.7366749 220 213 229
-0.16234247 -0.55416477 -0.73559141 217 206 225
-0.16274646 -0.55388838 -0.73578691 218 205 225
-0.16350868 -0.55626696 -0.73624408 219 215 227
-0.162135 -0.55624491 -0.73555005 217 216 225
-0.1652393 -0.55416101 -0.73707831 220 211 225
-0.16300112 -0.55283487 -0.73589486 217 202 223
-0.163914 -0.55276525 -0.73636788 217 205 222
-0.16421209 -0.55305517 -0.73652732 218 206 222
-0.16309808 -0.55316752 -0.73595053 217 203 224
-0.16397497 -0.55417854 -0.736422 219 207 226
-0.16165532 -0.55466324 -0.73532444 214 203 221
-0.161924 -0.55543572 -0.73544526 216 210 223
-0.16192128 -0.55369657 -0.73539132 215 202 223
-0.1608153 -0.55467761 -0.73500931 208 194 215
-0.1608544 -0.55286258 -0.73491794 212 195 220
-0.1602352 -0.55481744 -0.73477733 206 192 214
-0.16826864 -0.55708945 -0.73858637 219 212 229
-0.16718362 -0.55875796 -0.73815846 207 197 221
-0.16666512 -0.55669188 -0.73782444 222 216 231
-0.16781271 -0.55775225 -0.73840481 215 206 226
-0.16267668 -0.55853117 -0.73607266 203 197 214
-0.16222635 -0.55744553 -0.73572046 211 209 220
-0.16531815 -0.55817753 -0.73726356 207 197 221
-0.16535664 -0.55700344 -0.73721051 218 212 228
-0.16581708 -0.55703694 -0.73744506 219 212 229
-0.16523398 -0.55693054 -0.73714417 219 213 229
-0.16377105 -0.55745381 -0.73643798 212 207 223
-0.16151762 -0.55752474 -0.73547435 211 208 220
-0.16183214 -0.55737668 -0.73556328 212 210 221
-0.16046436 -0.55787784 -0.73515177 206 199 215
-0.1616926 -0.55691725 -0.73544252 214 213 223
-0.16102292 -0.55678695 -0.73517907 209 204 217
-0.14913321 -0.5159874 -0.7290619 181 170 173
-0.14842364 -0.51616621 -0.72845942 188 177 178
-0.14839721 -0.51728934 -0.72838616 195 184 190
-0.14916629 -0.51751184 -0.72902018 189 179 190
-0.14859514 -0.51675332 -0.7285763 190 179 184
-0.14786404 -0.51636803 -0.72798151 194 182 182
-0.1478796 -0.51565111 -0.72797245 186 172 172
-0.14680932 -0.51694882 -0.72703004 203 190 191
-0.14692269 -0.51688915 -0.72713262 202 189 190
-0.15130897 -0.51974767 -0.73054993 188 174 196
-0.15141009 -0.51856869 -0.73076302 181 168 187
-0.15125996 -0.52059948 -0.73042446 194 180 204
-0.15106885 -0.52093536 -0.7302407 199 183 209
-0.15050164 -0.52088314 -0.72979993 205 188 215
-0.15018862 -0.52146608 -0.72950953 211 193 221
-0.14935844 -0.52071202 -0.72898901 208 192 214
-0.14967065 -0.51866388 -0.72941756 191 179 196
-0.14965402 -0.51938134 -0.729334 197 184 202
-0.14952971 -0.51779377 -0.72932494 188 178 191
-0.14895611 -0.51789796 -0.72884613 193 182 193
-0.14916314 -0.51794004 -0.72902018 191 181 193
-0.1473158 -0.51778913 -0.72747046 206 194 198
-0.14832708 -0.51944047 -0.72834337 204 190 203
-0.1518732 -0.52172637 -0.7307862 196 180 207
-0.15162762 -0.52179617 -0.73058391 199 182 210
-0.15199462 -0.52372926 -0.73061687 203 184 217
-0.15089153 -0.52273011 -0.72988749 211 194 223
-0.15066534 -0.52505994 -0.72944611 226 220 240
-0.1520202 -0.52528942 -0.73044538 210 194 226
-0.15097979 -0.52309978 -0.72991145 212 195 225
-0.15008551 -0.52477974 -0.72909003 229 224 241
-0.14822209 -0.52523375 -0.72793472 239 236 241
-0.14912905 -0.523081 -0.72872102 224 213 230
-0.15033835 -0.52359378 -0.72937721 222 212 234
-0.1477184 -0.52486533 -0.72767937 239 235 239
-0.14867441 -0.52341676 -0.72841305 227 218 231
-0.1468472 -0.5227496 -0.72711778 231 219 226
-0.1477257 -0.52404237 -0.72775656 234 227 234
-0.14767165 -0.52405369 -0.72771788 234 228 234
-0.15128279 -0.52605838 -0.72982854 223 214 237
-0.15108518 -0.52590609 -0.7296896 225 217 238
-0.15242243 -0.52734149 -0.73060167 213 199 228
-0.15166512 -0.52722669 -0.73003626 223 214 236
-0.15091886 -0.52647501 -0.729541 229 223 241
-0.1523622 -0.52901548 -0.73047674 220 208 231
-0.15159294 -0.52903932 -0.72996747 228 219 236
-0.15059763 -0.52626044 -0.72933006 232 227 243
-0.14810139 -0.52581769 -0.72786063 237 236 241
-0.14807519 -0.52550697 -0.72783381 239 238 242
-0.14760852 -0.52611411 -0.72757977 237 236 240
-0.14696229 -0.52816266 -0.72727299 226 226 237
-0.1487122 -0.52693069 -0.72826332 228 226 240
-0.14909057 -0.52623731 -0.7284615 231 229 242
-0.14738622 -0.52877253 -0.72752976 224 224 237
-0.15014285 -0.52779084 -0.72904581 236 232 243
-0.15001774 -0.52902722 -0.72896785 239 234 243
-0.14829066 -0.52795416 -0.72803092 227 226 239
-0.14937453 -0.52714097 -0.7286303 231 228 242
-0.14873067 -0.52829647 -0.7282691 230 228 240
-0.15268125 -0.53153795 -0.73059118 212 200 221
-0.15305881 -0.53174126 -0.73083252 208 194 218
-0.15298508 -0.53196353 -0.73077434 208 195 217
-0.15249027 -0.53172249 -0.73045701 214 202 221
-0.15120476 -0.53312445 -0.72980338 208 194 216
-0.15102032 -0.53123808 -0.72960579 224 214 229
-0.15082379 -0.53291249 -0.72959059 210 197 218
-0.15243986 -0.5330736 -0.73045415 206 192 214
-0.1467125 -0.53315526 -0.72749066 208 194 209
-0.14825274 -0.53275692 -0.72824347 209 197 215
-0.14737879 -0.53142709 -0.72767854 214 206 222
-0.14656506 -0.53152502 -0.72727084 213 206 220
-0.14950289 -0.53289139 -0.72889501 209 197 217
-0.14696358 -0.53068894 -0.72740072 216 212 226
-0.14870268 -0.52998769 -0.72828269 227 222 235
-0.14927609 -0.53187603 -0.72869653 214 204 223
-0.14963232 -0.53136307 -0.72886431 220 211 227
-0.14971171 -0.52981609 -0.72882581 233 228 238
-0.15025553 -0.53042054 -0.72915542 231 223 235
-0.1487328 -0.53098512 -0.72835207 218 212 228
-0.14639273 -0.53279924 -0.72730273 208 195 210
-0.1460173 -0.53099859 -0.72697788 210 204 218
-0.15158243 -0.53412014 -0.73005992 204 187 212
-0.15221687 -0.53351378 -0.73036087 204 189 212
-0.15148962 -0.53379655 -0.72999227 205 189 213
-0.15172972 -0.5335865 -0.73010725 205 190 213
-0.15174013 -0.53383768 -0.73012716 204 188 212
-0.15052792 -0.53574497 -0.7295987 218 206 217
-0.15097702 -0.53466159 -0.72977138 207 190 213
-0.15064958 -0.53484452 -0.72960979 212 198 216
-0.14746259 -0.53661883 -0.72823703 213 196 206
-0.1481944 -0.53556639 -0.72843444 216 203 212
-0.14769763 -0.53479856 -0.72811753 213 200 211
-0.14684825 -0.53395122 -0.72763324 209 195 209
-0.14805262 -0.535487 -0.72836125 215 202 211
-0.14854991 -0.53551435 -0.72858697 217 205 214
-0.14976054 -0.535155 -0.72916937 217 205 217
-0.14677563 -0.53341979 -0.72753996 209 195 209
-0.14811386 -0.53453076 -0.72829008 214 201 213
-0.14806783 -0.53360492 -0.72821206 210 196 212
-0.15036786 -0.53605205 -0.7295329 221 211 219
-0.14826097 -0.5346486 -0.72837228 214 202 213
-0.14635915 -0.53446174 -0.72748297 207 191 206
-0.14630112 -0.53453094 -0.72746813 206 191 205
-0.14620017 -0.53590113 -0.72759652 206 188 202
-0.14578071 -0.53426766 -0.72722322 202 187 203
-0.15103394 -0.53809428 -0.72997534 219 206 215
-0.15216935 -0.54015249 -0.73063552 209 188 208
-0.15189333 -0.53854126 -0.73044139 209 189 209
-0.15056297 -0.53726906 -0.72970235 224 213 218
-0.15065116 -0.53895968 -0.72987968 228 220 223
-0.15113781 -0.54010683 -0.73018593 225 214 221
-0.15116343 -0.54028285 -0.73021221 225 214 221
-0.14752507 -0.53839225 -0.72844291 216 200 209
-0.14721045 -0.53806978 -0.72827363 214 196 206
-0.14835867 -0.53967458 -0.72893667 221 207 215
-0.14690517 -0.54056865 -0.72840816 203 174 197
-0.1481649 -0.5404498 -0.72893596 217 199 211
-0.15011024 -0.53950727 -0.72969264 233 227 227
-0.14770731 -0.53746688 -0.7284385 215 199 208
-0.14848095 -0.5378108 -0.72881472 220 207 213
-0.14987683 -0.54036009 -0.72966337 235 230 229
-0.14888947 -0.53713834 -0.72893816 219 206 212
-0.15026823 -0.54005677 -0.72981167 236 231 229
-0.14576238 -0.53919214 -0.72781324 197 173 196
-0.1458683 -0.53802168 -0.72772825 202 181 198
-0.14407329 -0.54083741 -0.72736055 181 157 192
-0.14616041 -0.538849 -0.72792464 201 176 196
-0.14602272 -0.538629 -0.72785008 201 177 197
-0.14476794 -0.53815961 -0.72731012 193 174 196
-0.1442347 -0.53841597 -0.72712982 188 170 194
-0.14325501 -0.54003572 -0.72695369 177 158 192
-0.15067105 -0.54153401 -0.73007989 237 235 233
-0.15181884 -0.54193693 -0.73057234 221 210 220
-0.15150258 -0.54122347 -0.73042411 223 211 220
-0.15104936 -0.54464054 -0.73034245 228 227 230
-0.15111084 -0.5446049 -0.73036498 228 227 230
-0.15170886 -0.54379398 -0.73056722 229 228 230
-0.14817625 -0.54326445 -0.72911602 211 195 210
-0.1466148 -0.54424894 -0.72862512 200 187 202
-0.14694707 -0.5416497 -0.72850686 200 172 197
-0.14686936 -0.54217917 -0.72852725 200 175 198
-0.14654373 -0.54445565 -0.72861785 200 188 202
-0.14661099 -0.54176813 -0.72839248 198 169 195
-0.14983669 -0.54265094 -0.72977436 229 223 226
-0.15033728 -0.54102856 -0.72992849 239 236 233
-0.14918667 -0.54192257 -0.72946829 224 212 220
-0.1494642 -0.54386544 -0.72965991 221 213 221
-0.15007608 -0.5411405 -0.72982055 236 231 230
-0.14995664 -0.54201919 -0.72980219 232 227 228
-0.14416708 -0.54140311 -0.72747082 180 154 190
-0.1441109 -0.54149997 -0.72746408 179 153 190
-0.14429981 -0.54228646 -0.72765291 179 151 188
-0.14469966 -0.54276454 -0.72787398 181 151 186
-0.1437871 -0.54360718 -0.72766107 173 146 184
-0.14548686 -0.54128009 -0.7279433 189 158 191
-0.1442281 -0.54276061 -0.72769773 177 150 186
-0.14498712 -0.54415995 -0.72809666 184 165 192
-0.14639671 -0.54261386 -0.72839648 197 173 195
-0.14518243 -0.54322064 -0.72807056 186 161 190
-0.14507996 -0.54322839 -0.72803909 185 159 189
-0.14593758 -0.54291791 -0.72828013 193 169 194
-0.15157768 -0.54532927 -0.73059458 224 223 228
-0.15196174 -0.54552299 -0.73076111 222 220 227
-0.15094058 -0.54695791 -0.73049217 216 213 222
-0.15067342 -0.54604834 -0.73030835 222 220 226
-0.14878334 -0.54795074 -0.72983414 197 190 204
-0.14662088 -0.54553086 -0.72876811 197 189 201
-0.14849125 -0.54824328 -0.72977382 194 187 201
-0.14724566 -0.54837042 -0.72936535 187 180 192
-0.14729998 -0.54644626 -0.72912389 196 188 201
-0.14648467 -0.54666269 -0.7288745 191 183 194
-0.14976884 -0.54533672 -0.72990787 221 219 224
-0.15029888 -0.54555583 -0.73012835 223 222 227
-0.14973062 -0.54626018 -0.72998929 214 210 219
-0.15019907 -0.54533005 -0.73006773 224 223 227
-0.14990376 -0.54704326 -0.73013514 210 205 216
-0.14611559 -0.54586422 -0.72865033 191 181 196
-0.14623466 -0.54706937 -0.72885072 187 178 191
-0.14539784 -0.54660827 -0.72852486 181 168 188
-0.14585178 -0.54722989 -0.7287519 182 172 188
-0.14565264 -0.54783136 -0.72877043 177 167 184
-0.15094215 -0.54911214 -0.73071116 200 192 209
-0.15095948 -0.5491454 -0.73071986 200 191 209
-0.14867319 -0.54962301 -0.72998387 184 170 190
-0.14878063 -0.54996848 -0.73005044 181 164 186
-0.1503831 -0.54948044 -0.73055577 194 182 203
-0.14690982 -0.54907447 -0.72933382 180 171 184
-0.14878631 -0.55055439 -0.73010308 175 153 179
-0.18255711 -0.55209726 -0.74630797 212 202 217
-0.18174726 -0.55182546 -0.74592465 217 208 220
-0.17998312 -0.55255866 -0.74485481 224 216 226
-0.17974131 -0.55163056 -0.74477547 214 206 217
-0.17912118 -0.55161697 -0.74442774 216 208 217
-0.17912029 -0.55184048 -0.74441361 219 211 220
-0.18126169 -0.55149239 -0.7456758 214 206 218
-0.17597245 -0.55232853 -0.74271238 224 216 221
-0.17676885 -0.55268425 -0.74309409 230 223 227
-0.17589864 -0.55163336 -0.74270952 217 209 213
-0.18226251 -0.55362618 -0.74608225 211 201 221
-0.17834471 -0.55481207 -0.74378622 217 211 224
-0.17936543 -0.55583137 -0.74433625 206 199 219
-0.17910406 -0.55587345 -0.74417007 207 200 220
-0.17811228 -0.553922 -0.743716 223 217 226
-0.17965668 -0.5557121 -0.74452752 206 197 219
-0.18011209 -0.5548147 -0.74486816 210 200 220
-0.18071985 -0.55475676 -0.74521112 208 199 220
-0.18052854 -0.55315608 -0.74514085 221 213 226
-0.18137941 -0.55430704 -0.7455923 210 200 221
-0.17913814 -0.55389351 -0.74434221 220 212 224
-0.17766421 -0.55515623 -0.74334395 217 213 225
-0.17736545 -0.55377674 -0.74331671 226 221 228
-0.17666322 -0.55427819 -0.74292445 222 217 226
-0.17653175 -0.55471575 -0.74282581 220 215 225
-0.1769058 -0.55302727 -0.74313897 229 223 227
-0.1770847 -0.55748945 -0.74295425 204 200 219
-0.17687425 -0.55837536 -0.74286562 200 194 216
-0.15259564 -0.52105665 -0.73142797 186 171 196
-0.15201083 -0.52012974 -0.73108059 186 171 194
-0.15445141 -0.52414548 -0.73244262 180 159 198
-0.15530887 -0.52529532 -0.73294973 176 151 194
-0.15434134 -0.52508533 -0.73225003 185 159 206
-0.15495734 -0.52517647 -0.73270053 179 154 198
-0.15406244 -0.52321076 -0.73225576 180 164 196
-0.15376487 -0.52308607 -0.732041 182 168 197
-0.15374981 -0.5245294 -0.73186016 188 168 207
-0.15280196 -0.52436274 -0.73115379 197 179 213
-0.15272668 -0.52168512 -0.73143518 187 173 198
-0.15266289 -0.52204394 -0.73134208 189 175 201
-0.15259711 -0.52435935 -0.73100048 199 181 215
-0.15446255 -0.52559847 -0.73227066 186 159 207
-0.15569949 -0.52706569 -0.73294926 178 154 198
-0.15509869 -0.5292722 -0.73230278 194 176 212
-0.15452687 -0.52662426 -0.73220283 189 165 210
-0.15529719 -0.52699071 -0.73268497 182 158 202
-0.15325697 -0.52917641 -0.73108029 211 196 226
-0.15422587 -0.52620232 -0.73204577 190 166 211
-0.15267453 -0.52584404 -0.73089802 204 185 221
-0.15322275 -0.52844769 -0.73113513 209 192 223
-0.15293185 -0.52597868 -0.73108679 202 182 219
-0.15458357 -0.53038871 -0.73186696 200 183 215
-0.1545967 -0.53157592 -0.73178434 200 184 212
-0.15510665 -0.53155726 -0.73213106 196 179 208
-0.1537437 -0.53197718 -0.73125148 203 188 214
-0.15417378 -0.53256375 -0.7314387 203 188 212
-0.15318699 -0.53110576 -0.73094434 208 194 219
-0.15313403 -0.53029156 -0.73094362 211 196 223
-0.15327063 -0.53439689 -0.73097134 200 182 208
-0.15244149 -0.54418224 -0.73088229 220 214 224
-0.15288097 -0.54104477 -0.73100513 202 174 202
-0.15260829 -0.54187304 -0.73090506 209 189 209
-0.15877594 -0.54857296 -0.73381007 203 191 208
-0.15915003 -0.54852206 -0.73398191 200 187 205
-0.15882279 -0.54706454 -0.73382241 194 181 201
-0.15485153 -0.54764551 -0.73202074 216 208 223
-0.15526953 -0.54649329 -0.73214436 216 209 223
-0.1563513 -0.548527 -0.73272234 212 203 218
-0.15452448 -0.54698116 -0.73184353 217 210 224
-0.15652184 -0.54848665 -0.73279482 212 203 217
-0.15727547 -0.54879892 -0.73314065 210 200 215
-0.15606056 -0.54654598 -0.73249954 214 206 220
-0.15674661 -0.54611301 -0.73282808 205 196 213
-0.15621382 -0.54544419 -0.73256671 206 198 214
-0.15748794 -0.54647291 -0.73318827 201 191 209
-0.15536554 -0.54550284 -0.73215753 214 207 221
-0.15540175 -0.54509282 -0.73217249 211 204 219
-0.15314801 -0.54755843 -0.73137718 213 206 221
-0.15394339 -0.54789937 -0.73166919 215 208 223
-0.15221143 -0.54860598 -0.73110789 208 202 217
-0.15284799 -0.54704583 -0.73124731 212 207 221
-0.15408771 -0.5462895 -0.73163617 217 211 225
-0.15203986 -0.54654378 -0.730883 216 213 223
-0.15406781 -0.54518139 -0.73157001 219 214 227
-0.15271935 -0.54636681 -0.73113883 216 211 223
-0.16071291 -0.5494557 -0.73472834 194 175 199
-0.15964572 -0.54947865 -0.73423821 201 187 206
-0.16038246 -0.54930109 -0.73457003 195 178 200
-0.15969394 -0.55022746 -0.73429078 205 190 210
-0.15947342 -0.55247641 -0.73432964 208 192 218
-0.15849641 -0.55163938 -0.73387319 206 191 215
-0.15848613 -0.55158359 -0.7338649 206 192 215
-0.15824416 -0.55111384 -0.73373258 206 192 214
-0.15434924 -0.55117559 -0.73211366 203 193 208
-0.1546887 -0.55087268 -0.73221773 205 195 212
-0.15695657 -0.55206746 -0.73326069 204 190 214
-0.15434176 -0.54913568 -0.73189032 214 205 221
-0.15599753 -0.55135304 -0.73279709 206 194 214
-0.15727451 -0.5511778 -0.73331439 207 194 217
-0.15759832 -0.54974979 -0.73335117 208 197 215
-0.15515189 -0.54899108 -0.732225 214 204 220
-0.15804237 -0.55129337 -0.73365885 206 192 215
-0.15782234 -0.54969794 -0.73344541 208 197 214
-0.15586287 -0.55000675 -0.73261076 211 200 219
-0.15334643 -0.55062973 -0.73168755 197 181 203
-0.15379316 -0.54969478 -0.73174918 206 193 213
-0.15161893 -0.54968131 -0.73099101 197 183 205
-0.15354428 -0.54947543 -0.731637 206 192 213
-0.15153772 -0.54901075 -0.73090315 204 196 213
-0.15926112 -0.5541504 -0.73434466 204 190 214
-0.15925375 -0.55331171 -0.73429316 206 190 216
-0.15993875 -0.55316687 -0.73456174 209 192 217
-0.15836887 -0.55329686 -0.73393768 203 187 214
-0.15798253 -0.553123 -0.7337749 201 185 212
-0.15741244 -0.55289131 -0.73352808 201 186 211
0 0 0 1 0 0 0 1 0 0 0 1 0 0 0 0 0 460 1 0 0
