ply
format ascii 1.0
comment PCL generated
element vertex 338
property float x
property float y
property float z
property uchar red
property uchar green
property uchar blue
element camera 1
property float view_px
property float view_py
property float view_pz
property float x_axisx
property float x_axisy
property float x_axisz
property float y_axisx
property float y_axisy
property float y_axisz
property float z_axisx
property float z_axisy
property float z_axisz
property float focal
property float scalex
property float scaley
property float centerx
property float centery
property int viewportx
property int viewporty
property float k1
property float k2
end_header
-0.21599907 0.37005058 -0.83767766 191 171 173
-0.2164956 0.37199029 -0.83638519 202 182 189
-0.21617435 0.37058827 -0.83693355 184 163 166
-0.21601868 0.37036079 -0.83808404 209 191 194
-0.21531619 0.36754927 -0.83906984 212 194 198
-0.21521872 0.36665338 -0.83866006 201 181 185
-0.21532564 0.36719054 -0.83914971 211 193 196
-0.21548422 0.36654884 -0.84000576 218 202 201
-0.21533564 0.36774611 -0.83914995 214 197 200
-0.21524285 0.3670992 -0.83707553 168 143 149
-0.21558909 0.36880925 -0.83903164 207 191 191
-0.21521771 0.36735892 -0.83816952 195 175 180
-0.21557508 0.36830682 -0.83755761 172 150 152
-0.21539876 0.36769223 -0.83738643 172 149 153
-0.21548198 0.3614088 -0.83840996 189 165 168
-0.2154666 0.36203244 -0.83845693 192 168 172
-0.21552569 0.36181793 -0.83913893 192 170 173
-0.21539336 0.36171952 -0.83738291 188 162 166
-0.21550973 0.36162305 -0.83885473 191 168 171
-0.21517146 0.36260259 -0.83653581 179 151 158
-0.21533412 0.3623592 -0.83716822 189 162 167
-0.21499215 0.36399207 -0.83669686 174 146 155
-0.21533224 0.36510953 -0.83926409 201 181 182
-0.21544999 0.36432776 -0.83925831 205 185 185
-0.21531239 0.36036545 -0.83959365 198 177 177
-0.21474761 0.35875854 -0.83841366 208 186 182
-0.21463963 0.35908318 -0.83807755 208 188 181
-0.21484558 0.35850886 -0.83871067 208 183 182
-0.21492517 0.35876244 -0.83887225 207 182 181
-0.21535893 0.35763973 -0.84019053 206 173 182
-0.21468998 0.35927531 -0.83814585 207 187 181
-0.21465154 0.35954425 -0.83633083 200 176 172
-0.21522215 0.36046949 -0.83920765 198 178 177
-0.21529493 0.36119398 -0.83660662 185 157 162
-0.21545164 0.36131978 -0.83802468 187 162 167
-0.21469031 0.35934252 -0.83782113 206 185 179
-0.21355915 0.35361403 -0.83800793 153 127 127
-0.2135796 0.35358804 -0.83804661 151 126 126
-0.21293938 0.35425717 -0.83689082 190 165 159
-0.21461402 0.35417363 -0.83923978 112 91 92
-0.21372756 0.35608143 -0.83700866 191 171 161
-0.2147608 0.35421953 -0.83938587 108 87 88
-0.21311989 0.35537654 -0.83672136 195 174 163
-0.21521515 0.35659912 -0.83999401 180 150 157
-0.21448287 0.35735863 -0.83797306 213 187 183
-0.21454783 0.35737747 -0.83813792 213 186 183
-0.21529873 0.35701314 -0.84014112 193 161 170
-0.21499974 0.3555907 -0.83960509 148 123 127
-0.21436347 0.35724771 -0.83768272 210 186 180
-0.21282339 0.35352615 -0.83703578 183 155 153
-0.21335344 0.35149619 -0.83647656 170 129 146
-0.21473157 0.35319918 -0.83949459 98 73 80
-0.2139111 0.35135657 -0.83713639 149 105 126
-0.2141228 0.35198608 -0.83784521 134 97 113
-0.21417473 0.35004562 -0.83665562 144 90 124
-0.21373807 0.35276052 -0.83780575 148 116 124
-0.21370253 0.35226333 -0.83743197 153 117 129
-0.21490312 0.35257027 -0.83943635 92 65 76
-0.21452491 0.35110494 -0.83788449 120 78 102
-0.21465686 0.34964228 -0.83905405 104 76 86
-0.21478689 0.35000414 -0.83963275 94 72 76
-0.21465459 0.35087395 -0.83864999 108 74 91
-0.21474484 0.34665504 -0.839773 108 91 91
-0.2145468 0.34781983 -0.83887082 108 92 94
-0.21475634 0.34847069 -0.83975643 97 81 80
-0.2142536 0.34821129 -0.83729672 131 98 116
-0.21423462 0.34876478 -0.8370434 136 95 119
-0.21439286 0.34926394 -0.83775061 125 86 107
-0.21412857 0.34790188 -0.83671445 140 104 125
-0.21406475 0.34755263 -0.83646977 144 109 129
-0.21781172 0.37548968 -0.84697294 75 59 71
-0.21771628 0.37515438 -0.84597999 77 66 73
-0.2185224 0.37580186 -0.84670013 101 85 94
-0.21849574 0.37599525 -0.84488642 152 141 146
-0.21837136 0.37588578 -0.84471816 149 139 144
-0.2180637 0.37528875 -0.84565639 93 82 87
-0.22113295 0.36075681 -0.83214688 179 161 157
-0.21894142 0.35906294 -0.82922101 178 153 157
-0.21799313 0.35771671 -0.82980645 193 168 173
-0.21930635 0.35874167 -0.82863802 182 156 161
-0.21869451 0.35914254 -0.82955682 178 152 155
-0.21895969 0.35921189 -0.8292622 177 151 155
-0.21969284 0.35994557 -0.83071131 178 157 155
-0.2195231 0.35973594 -0.83089006 181 159 158
-0.22041163 0.360259 -0.83138198 182 162 159
-0.21880965 0.3592608 -0.83063197 182 159 159
-0.21789604 0.35897321 -0.83197385 188 168 164
-0.21901691 0.35918719 -0.83201998 191 172 169
-0.21860522 0.35892197 -0.8318938 191 172 169
-0.22058207 0.36051241 -0.83110672 178 158 155
-0.21552908 0.3576341 -0.83215338 199 179 176
-0.21643981 0.35742694 -0.83139557 198 175 176
-0.21770336 0.35708386 -0.82992059 189 161 169
-0.21685466 0.3559815 -0.83058494 164 126 143
-0.21699087 0.35621065 -0.83049601 169 133 148
-0.21723348 0.35447839 -0.82961315 130 77 110
-0.21687505 0.35701102 -0.83090854 187 159 166
-0.21725914 0.35423583 -0.8295362 126 71 106
-0.21877965 0.35696998 -0.82861179 188 158 170
-0.21864729 0.356186 -0.82867324 177 141 158
-0.21289371 0.35366619 -0.83171177 211 186 188
-0.21384655 0.35635018 -0.83238631 209 188 186
-0.21609691 0.35685399 -0.83131021 199 175 178
-0.21597746 0.35724798 -0.83161712 199 177 177
-0.2144472 0.35579008 -0.83185995 205 182 182
-0.21499868 0.35624605 -0.83173305 203 180 180
-0.21669267 0.356094 -0.83074266 169 133 148
-0.21659984 0.35489571 -0.83038068 145 98 124
-0.2146834 0.35472968 -0.83122581 191 161 169
-0.21493113 0.35414693 -0.83091205 171 133 149
-0.21678996 0.35440478 -0.83012515 129 75 108
-0.21546176 0.35583451 -0.83123374 196 169 174
-0.21299823 0.3515757 -0.83075684 150 120 132
-0.21444356 0.35182849 -0.83094484 170 148 143
-0.21323283 0.34971386 -0.82989854 93 60 78
-0.21337023 0.35268283 -0.83129197 188 163 165
-0.21331742 0.35258979 -0.83124596 185 159 162
-0.21504574 0.35327184 -0.83065718 155 112 132
-0.21392988 0.35305601 -0.83119309 185 155 161
-0.21378173 0.35331985 -0.83124918 188 157 165
-0.21677297 0.35336357 -0.82984012 110 50 88
-0.21545219 0.3514424 -0.83056015 149 125 120
-0.21505989 0.35256881 -0.83068669 156 122 131
-0.21205384 0.35184491 -0.83227032 173 146 152
-0.21246643 0.35245708 -0.83193302 181 153 160
-0.21161205 0.34985694 -0.8319599 123 98 106
-0.21242659 0.35056466 -0.83104157 126 95 109
-0.21195126 0.3506462 -0.83182675 139 112 121
-0.2128755 0.35111731 -0.83056748 134 103 118
-0.21277721 0.35335028 -0.8318001 206 180 183
-0.21696065 0.34592038 -0.83089256 107 73 92
-0.21399879 0.3479951 -0.83018655 91 57 78
-0.21413296 0.34683979 -0.83022225 93 59 77
-0.21330416 0.34797341 -0.82995719 89 55 75
-0.21400855 0.34758604 -0.83018672 92 57 78
-0.21472588 0.3471075 -0.83041996 95 60 80
-0.21401045 0.34646249 -0.83017904 93 59 76
-0.21481477 0.3493962 -0.82998443 101 75 80
-0.21360885 0.34917954 -0.82998544 91 57 77
-0.21636046 0.34743249 -0.83059764 106 77 86
-0.21671389 0.34658113 -0.83084816 105 74 87
-0.21138543 0.34631059 -0.83236551 122 101 107
-0.21222685 0.34666079 -0.83089221 104 76 86
-0.21216801 0.34722888 -0.83095938 105 77 86
-0.21185471 0.3468909 -0.8315205 112 86 94
-0.21173261 0.34863728 -0.83163899 114 88 96
-0.21208987 0.34928921 -0.83108461 105 76 90
-0.21216393 0.34822509 -0.83096081 104 76 87
-0.21270566 0.3490836 -0.83011919 91 58 78
-0.21521316 0.34322596 -0.83055478 143 121 113
-0.21350922 0.34198678 -0.83041316 166 150 153
-0.21369933 0.3446393 -0.83009231 112 85 90
-0.21321213 0.34332958 -0.83017969 139 117 124
-0.21430096 0.34427273 -0.83025002 121 94 94
-0.21305221 0.34300733 -0.830194 145 125 132
-0.21499135 0.34404433 -0.83047122 127 101 100
-0.21549147 0.34523332 -0.83065486 107 74 88
-0.21546459 0.34340534 -0.83061737 140 117 110
-0.21639387 0.34407672 -0.83093458 131 103 106
-0.21641895 0.34472391 -0.83095294 119 88 99
-0.21636549 0.34438702 -0.83093005 125 96 102
-0.21201964 0.34271777 -0.83154958 158 140 147
-0.211739 0.34422594 -0.83192575 140 121 127
-0.21198395 0.34206325 -0.83160967 165 147 156
-0.2121637 0.34219101 -0.83135289 164 146 154
-0.21275772 0.34284523 -0.83041662 151 132 140
-0.21238089 0.34481806 -0.83080286 119 94 104
-0.21214834 0.34482864 -0.83120275 124 101 109
-0.21271396 0.34566599 -0.83011448 94 64 76
-0.21329829 0.34087387 -0.8304593 167 146 155
-0.21209425 0.3411257 -0.83144218 165 139 154
-0.21262456 0.34086591 -0.83068413 165 136 154
-0.21691099 0.37153801 -0.83586591 185 164 170
-0.21675397 0.37193829 -0.83599067 194 173 180
-0.22081351 0.36148331 -0.83358341 187 171 162
-0.22072497 0.36224374 -0.83416271 188 172 160
-0.22063935 0.36293939 -0.83465916 186 170 156
-0.22018243 0.36308655 -0.8345114 180 161 151
-0.21503519 0.36332646 -0.83629143 173 144 153
-0.21552418 0.36192393 -0.83562362 177 149 153
-0.21521164 0.36270741 -0.83609205 175 146 153
-0.21588664 0.36190325 -0.83475322 172 146 146
-0.21550101 0.36192495 -0.83567935 177 149 153
-0.22088115 0.36045781 -0.83254564 187 170 164
-0.21817364 0.36025104 -0.83251601 178 160 152
-0.21689007 0.35997403 -0.83249205 175 156 147
-0.22019467 0.36060318 -0.83276725 187 170 162
-0.22011471 0.36077994 -0.83289945 186 169 161
-0.21908775 0.36107859 -0.83296317 179 161 152
-0.21604757 0.36121356 -0.83455282 175 150 148
-0.21638615 0.36069155 -0.83363026 175 152 147
-0.21601307 0.36029434 -0.83424473 182 158 157
-0.21595076 0.36017874 -0.83419847 183 159 158
-0.21563967 0.35849833 -0.83272904 192 172 168
-0.21598735 0.35946617 -0.83334965 185 164 160
-0.21511512 0.35874438 -0.83370793 196 174 173
-0.21483271 0.35842922 -0.83422148 201 179 176
-0.21526405 0.36085394 -0.83591217 186 158 163
-0.21504764 0.35874039 -0.83387995 197 174 173
-0.21495581 0.35777482 -0.83292681 201 182 178
-0.2141677 0.3577188 -0.8356114 214 194 183
-0.21511474 0.35991302 -0.8351928 192 166 168
-0.21302532 0.35585082 -0.8346684 213 191 183
-0.2134494 0.35665789 -0.83551478 217 196 185
-0.21327066 0.3563149 -0.83540255 215 193 183
-0.21367057 0.35687771 -0.83476734 217 196 187
-0.21365625 0.35632667 -0.83259803 211 190 187
-0.21388485 0.35656354 -0.83275193 210 189 186
-0.21262757 0.3542425 -0.83245879 213 187 189
-0.21237147 0.35430411 -0.83475697 191 167 165
-0.21209025 0.35353681 -0.83593029 178 153 151
-0.21252432 0.35470873 -0.83441359 197 173 171
-0.21224506 0.35401735 -0.83583295 184 159 155
-0.21265279 0.35501525 -0.83476394 202 179 173
-0.21354489 0.35054281 -0.83613378 159 113 138
-0.21309888 0.35096174 -0.83581293 162 124 141
-0.21281847 0.35093647 -0.83542395 159 125 138
-0.21231347 0.3500236 -0.83415341 139 107 121
-0.2123207 0.35003707 -0.83417189 139 108 121
-0.2124981 0.35248286 -0.8360821 176 147 151
-0.21238649 0.35294551 -0.83630204 177 150 151
-0.21218009 0.35278612 -0.83310789 189 163 166
-0.21202797 0.35242128 -0.83340549 178 152 155
-0.21161428 0.35102561 -0.83309889 150 126 129
-0.21150158 0.35074675 -0.83329558 142 118 121
-0.21182352 0.35234094 -0.83493847 162 137 137
-0.21183181 0.35154817 -0.83267587 166 140 144
-0.21353488 0.34952459 -0.83553064 142 95 124
-0.21336685 0.34879985 -0.83535832 140 102 124
-0.21373056 0.34900975 -0.8358236 144 98 127
-0.21301264 0.34691396 -0.83489233 141 113 129
-0.21328264 0.34751827 -0.83529818 140 112 127
-0.21211794 0.34736139 -0.83353031 129 101 114
-0.21284987 0.34705022 -0.83464253 140 111 127
-0.21287322 0.3492983 -0.8346526 136 99 120
-0.21139058 0.34705508 -0.83250928 124 101 108
-0.21163346 0.34882984 -0.83292508 127 101 110
-0.21184279 0.34908789 -0.83322269 128 100 111
-0.21135683 0.34883502 -0.83254832 125 101 107
-0.21306516 0.34536281 -0.83515561 152 130 141
-0.21230055 0.34453988 -0.83448076 162 142 147
-0.21265504 0.34499216 -0.83476305 156 135 143
-0.2120312 0.34432766 -0.83419228 163 144 147
-0.21213704 0.34496504 -0.83399361 150 129 135
-0.2181734 0.35782537 -0.82716537 193 171 171
-0.21814084 0.35875273 -0.82694608 193 170 170
-0.2184824 0.35891604 -0.82735318 190 166 168
-0.21887907 0.36064783 -0.82710844 173 150 147
-0.21894532 0.35974813 -0.82755727 179 155 156
-0.21874619 0.35860741 -0.82779181 190 165 169
-0.21869642 0.35709104 -0.82805824 193 167 173
-0.21777289 0.3565577 -0.82646811 184 161 159
-0.2180642 0.3564485 -0.82692808 184 160 161
-0.21820547 0.35657975 -0.82717872 186 161 164
-0.21867573 0.35484317 -0.82822484 168 125 145
-0.21860838 0.35579166 -0.82797551 178 145 157
-0.21882002 0.35629001 -0.82837254 184 151 164
-0.21832824 0.35473245 -0.82749438 166 129 142
-0.21828529 0.35552031 -0.82731509 175 145 152
-0.21632755 0.373353 -0.84364378 56 49 50
-0.21620184 0.37285453 -0.84305912 78 69 71
-0.21634556 0.37193334 -0.84154457 162 151 154
-0.21627916 0.3720524 -0.84187829 144 133 136
-0.21615732 0.3716464 -0.84171563 153 143 144
-0.21603401 0.3714298 -0.84179211 149 139 140
-0.21507503 0.369187 -0.84276766 112 97 103
-0.21558188 0.36957645 -0.84082514 205 193 194
-0.21530168 0.3702651 -0.84318626 85 72 77
-0.2152123 0.36920097 -0.84211123 144 130 134
-0.21579416 0.37190229 -0.84309149 79 69 71
-0.21518506 0.36582214 -0.84403414 141 119 125
-0.21483308 0.36877698 -0.84403867 57 40 48
-0.21519643 0.36686838 -0.84197628 141 124 127
-0.21546458 0.36535233 -0.840648 203 186 185
-0.2151503 0.36626449 -0.84376335 132 111 117
-0.21485774 0.36852315 -0.84412283 63 45 54
-0.21517807 0.36867705 -0.84215361 140 125 129
-0.21550103 0.36785123 -0.84048951 216 202 202
-0.21547827 0.36884835 -0.8406896 212 199 200
-0.21537906 0.36781797 -0.84108758 187 172 173
-0.21525165 0.36728695 -0.84166831 155 139 141
-0.21539818 0.36752611 -0.8409676 191 176 177
-0.21548639 0.36214936 -0.84223813 185 163 167
-0.2154898 0.36152104 -0.84275073 192 169 172
-0.21541533 0.3619366 -0.84385115 188 164 168
-0.2154007 0.36316454 -0.8430087 176 153 157
-0.21538693 0.36376053 -0.84273273 169 148 152
-0.21543607 0.36494601 -0.84142566 194 175 175
-0.21537276 0.36488768 -0.84241164 179 158 161
-0.21529762 0.36480355 -0.84358811 161 139 144
-0.21556103 0.36220479 -0.84079832 189 169 171
-0.21551228 0.36451954 -0.84046865 205 188 187
-0.21528749 0.36490119 -0.84369671 160 138 143
-0.21539162 0.35828009 -0.84134954 205 174 182
-0.21540999 0.35937539 -0.84243399 202 173 179
-0.21543984 0.3603895 -0.84364867 200 173 177
-0.21543537 0.35761881 -0.84159559 212 181 187
-0.2155275 0.35871053 -0.8438881 216 188 189
-0.21547976 0.36006269 -0.84142447 198 172 177
-0.21540686 0.35883024 -0.8412171 202 172 179
-0.21556586 0.36101747 -0.84099448 194 172 175
-0.21550083 0.36082235 -0.8420276 195 171 175
-0.21540911 0.3592222 -0.84170002 201 171 178
-0.21527354 0.35429966 -0.84228027 109 89 90
-0.21532318 0.35442007 -0.84305876 114 95 94
-0.21533571 0.35438025 -0.84335285 113 94 93
-0.21532091 0.35394061 -0.84368223 96 79 78
-0.21531917 0.3549065 -0.84230572 132 110 111
-0.21527603 0.35420281 -0.84246212 105 86 87
-0.21541691 0.3563706 -0.84226531 183 156 159
-0.21538252 0.35614768 -0.84193689 174 147 150
-0.2153933 0.35717148 -0.84102964 203 171 178
-0.21526662 0.35547334 -0.84074831 145 119 125
-0.21540013 0.35737211 -0.84092915 209 176 184
-0.21510006 0.35127181 -0.84207952 82 67 65
-0.21516062 0.35119125 -0.84233671 80 66 63
-0.21536599 0.35121629 -0.84334493 73 61 57
-0.21545935 0.35134947 -0.84385872 71 59 55
-0.2152001 0.3519153 -0.84285843 80 66 63
-0.21511605 0.3530179 -0.84093434 79 61 63
-0.21508299 0.35226518 -0.84115988 81 64 64
-0.21519293 0.35260576 -0.84286827 81 66 64
-0.21525052 0.35316157 -0.84333414 81 65 64
-0.2152013 0.35264242 -0.84298605 81 66 64
-0.2133836 0.34728837 -0.84332937 104 89 84
-0.21373469 0.34706682 -0.84284359 100 85 83
-0.21328963 0.3477737 -0.8439104 103 89 80
-0.21458431 0.34869704 -0.84396088 80 69 62
-0.21449831 0.34711799 -0.84223717 95 80 78
-0.21481007 0.34656489 -0.84129363 100 84 83
-0.2137178 0.34676027 -0.84251755 103 86 86
-0.21391816 0.34581447 -0.84120578 113 94 96
-0.21432309 0.34620765 -0.84130836 106 89 89
-0.21494775 0.34639037 -0.8407141 102 85 85
-0.21528123 0.34823805 -0.8422569 80 68 65
-0.21510878 0.34818679 -0.84142208 86 72 70
-0.21517017 0.34959611 -0.84166229 76 64 60
-0.21527059 0.34941781 -0.84215695 74 62 58
0 0 0 1 0 0 0 1 0 0 0 1 0 0 0 0 0 338 1 0 0
