ply
format ascii 1.0
comment PCL generated
element vertex 240
property float x
property float y
property float z
property uchar red
property uchar green
property uchar blue
element camera 1
property float view_px
property float view_py
property float view_pz
property float x_axisx
property float x_axisy
property float x_axisz
property float y_axisx
property float y_axisy
property float y_axisz
property float z_axisx
property float z_axisy
property float z_axisz
property float focal
property float scalex
property float scaley
property float centerx
property float centery
property int viewportx
property int viewporty
property float k1
property float k2
end_header
-0.076600537 -0.31038502 -0.68161923 93 64 94
-0.076414347 -0.31044349 -0.68159193 92 62 94
-0.072546966 -0.30955446 -0.68180537 150 135 145
-0.073129781 -0.30989459 -0.68170589 141 123 137
-0.073513322 -0.3105419 -0.68150473 135 118 130
-0.076077625 -0.30972403 -0.68184984 96 68 96
-0.070528552 -0.30936277 -0.68182111 168 158 167
-0.071173824 -0.31007355 -0.68160492 164 153 157
-0.0705349 -0.31008151 -0.68158102 168 157 160
-0.070760079 -0.31005421 -0.68159759 167 156 159
-0.070919305 -0.30860895 -0.68207788 164 152 168
-0.071630232 -0.30979788 -0.68171072 161 149 156
-0.066400729 -0.3091163 -0.68185067 186 179 188
-0.065080121 -0.31034279 -0.68148625 164 148 168
-0.065772466 -0.30913052 -0.6818592 182 173 187
-0.068184771 -0.31026873 -0.68144709 184 174 171
-0.061537139 -0.31004554 -0.6815908 156 136 173
-0.086378902 -0.31333849 -0.68091935 148 127 138
-0.084330089 -0.31260282 -0.68106848 140 121 123
-0.087076865 -0.3142595 -0.6806289 154 135 148
-0.085686907 -0.3128837 -0.68104345 144 124 132
-0.085163303 -0.31401622 -0.68060958 148 133 137
-0.085421905 -0.31383893 -0.68068731 148 131 137
-0.087887824 -0.31418675 -0.68070227 154 134 151
-0.080919527 -0.31418055 -0.68035209 113 89 102
-0.0801493 -0.31402004 -0.68037701 104 78 93
-0.078989238 -0.31410968 -0.68031251 100 74 90
-0.077060468 -0.31257084 -0.68082762 94 68 90
-0.076681398 -0.31297234 -0.68067133 94 71 87
-0.077486373 -0.31284633 -0.68073738 95 69 90
-0.07770171 -0.31406865 -0.68029559 98 75 87
-0.076992765 -0.31255645 -0.68083119 94 68 90
-0.079660252 -0.31343666 -0.68057746 102 76 93
-0.079438619 -0.31274584 -0.68082625 103 78 93
-0.079928018 -0.31389773 -0.68041474 103 76 93
-0.079837687 -0.31331253 -0.68062824 104 79 93
-0.079777978 -0.31412771 -0.68032557 102 73 93
-0.072959334 -0.31239408 -0.68085533 142 128 130
-0.074589297 -0.31383145 -0.68034959 117 102 103
-0.072707929 -0.31194854 -0.68100804 146 133 135
-0.074562326 -0.31335732 -0.68050838 119 104 105
-0.072320715 -0.31136551 -0.68120885 153 141 142
-0.073376037 -0.31327987 -0.68055302 133 119 121
-0.07287091 -0.31099549 -0.68132865 147 134 137
-0.075953305 -0.31242564 -0.68085515 96 73 91
-0.075783886 -0.3120929 -0.68097419 99 75 94
-0.073007956 -0.31089145 -0.68136895 144 131 135
-0.074618034 -0.31172183 -0.68109107 118 99 111
-0.07307034 -0.31087276 -0.68137676 143 129 135
-0.071996972 -0.31429639 -0.68022591 144 128 130
-0.0715627 -0.31403491 -0.68030429 146 130 132
-0.070052736 -0.31292406 -0.68063766 155 140 140
-0.069662824 -0.31277192 -0.68068308 156 141 139
-0.070006043 -0.31338385 -0.68049878 148 132 132
-0.071177371 -0.31324378 -0.68054646 154 140 141
-0.070379183 -0.31173572 -0.68102336 165 153 151
-0.07127028 -0.3106378 -0.68141955 163 152 151
-0.071428694 -0.31214574 -0.68092138 157 144 144
-0.072094299 -0.31160712 -0.68112338 154 142 143
-0.071748443 -0.3119373 -0.6810016 155 142 143
-0.064888485 -0.31398082 -0.68031478 155 144 145
-0.064846061 -0.31318507 -0.68057436 155 142 148
-0.065359764 -0.31339443 -0.68050802 151 137 142
-0.064602599 -0.31346679 -0.68048149 158 146 150
-0.065083392 -0.31333643 -0.6805259 153 140 145
-0.0661081 -0.3126294 -0.68076062 143 125 136
-0.06808532 -0.31166029 -0.68102258 165 151 149
-0.065874659 -0.31157678 -0.68109363 151 133 148
-0.06690871 -0.31108195 -0.6812216 166 151 157
-0.065404162 -0.31065896 -0.68138045 162 146 163
-0.065114431 -0.31116191 -0.68123466 152 134 155
-0.060699198 -0.31225455 -0.68096077 151 127 160
-0.062430371 -0.31439275 -0.68026406 157 141 151
-0.062676728 -0.31291339 -0.68068361 154 138 155
-0.061718341 -0.31325287 -0.68062639 154 135 155
-0.062638268 -0.31397891 -0.6803754 157 141 152
-0.062001321 -0.31239435 -0.6808638 152 133 157
-0.063472129 -0.31244287 -0.68082267 156 140 156
-0.063116096 -0.3125793 -0.68078089 155 139 156
-0.063601516 -0.31105405 -0.68127501 155 137 162
-0.062314041 -0.31103903 -0.68128979 152 131 162
-0.06403818 -0.31366482 -0.68041945 158 146 151
-0.060029011 -0.31342402 -0.68063086 164 142 165
-0.085914642 -0.3152374 -0.68020922 160 148 153
-0.087671876 -0.31464496 -0.68052202 158 140 155
-0.08535751 -0.31473961 -0.68035859 154 141 145
-0.080306143 -0.31487852 -0.68008953 108 81 97
-0.083199218 -0.31459618 -0.68030626 139 124 126
-0.08372236 -0.31507057 -0.68017435 147 132 132
-0.078301057 -0.31471044 -0.68008804 101 79 88
-0.07774666 -0.31451482 -0.68013668 99 78 86
-0.074512109 -0.31463379 -0.68007863 117 101 103
-0.071582876 -0.31458798 -0.68012923 140 123 126
-0.061193109 -0.31485584 -0.68017739 157 134 154
-0.060746197 -0.31479806 -0.680215 157 132 155
-0.061176542 -0.31445521 -0.68030006 156 135 153
-0.085247874 -0.31736439 -0.67946988 164 145 149
-0.084241539 -0.31692058 -0.67957753 158 139 139
-0.08405336 -0.31650323 -0.67971015 156 138 137
-0.081662923 -0.3174727 -0.67932588 139 111 117
-0.081255913 -0.3177914 -0.67920899 137 107 113
-0.082580075 -0.31677768 -0.67958146 144 121 124
-0.083042867 -0.31636739 -0.67973053 147 126 128
-0.080847234 -0.31696385 -0.6794588 128 98 108
-0.083045416 -0.31579152 -0.67991692 144 125 127
-0.08071059 -0.31642953 -0.67962044 123 94 105
-0.081132688 -0.31706658 -0.67943841 131 103 111
-0.08209537 -0.31556961 -0.67994708 132 110 117
-0.078151844 -0.317931 -0.67899978 128 101 114
-0.077282347 -0.3180896 -0.67889398 130 107 119
-0.077135056 -0.31793106 -0.67893416 129 107 120
-0.079406202 -0.31827205 -0.67897391 129 97 107
-0.078595273 -0.31631154 -0.67953557 116 92 107
-0.076391459 -0.31626239 -0.67948467 113 95 102
-0.076258525 -0.31649867 -0.6793974 115 97 105
-0.078361891 -0.31547478 -0.67982 108 85 97
-0.076186821 -0.31808603 -0.6788348 130 111 123
-0.077578776 -0.31567258 -0.67972738 109 88 98
-0.076161087 -0.31716394 -0.67916 121 103 112
-0.07470838 -0.31666353 -0.67933965 127 112 114
-0.073590092 -0.31727558 -0.67912585 140 127 126
-0.074847952 -0.31776756 -0.67894953 136 120 126
-0.075358182 -0.31595835 -0.67958736 115 100 102
-0.076077513 -0.31604433 -0.67955554 111 94 100
-0.074406065 -0.31473875 -0.68004173 119 103 104
-0.072627321 -0.31516108 -0.67991477 142 127 129
-0.072708234 -0.31649831 -0.67942238 146 133 133
-0.075261705 -0.31544226 -0.67976987 111 96 96
-0.074744895 -0.31480354 -0.68001258 115 99 100
-0.074251182 -0.31517759 -0.679883 122 107 108
-0.070658572 -0.31660399 -0.6794107 157 141 141
-0.071686082 -0.31615925 -0.67956114 152 137 138
-0.070811294 -0.31711543 -0.67922097 159 144 143
-0.07008221 -0.31698915 -0.67927647 161 144 144
-0.069549792 -0.31730261 -0.67916805 163 147 146
-0.07080996 -0.3147659 -0.68006593 138 121 122
-0.068772398 -0.31517363 -0.67992151 134 115 114
-0.070793971 -0.31500489 -0.67998141 141 124 125
-0.0709619 -0.31539029 -0.67984509 147 130 131
-0.068932422 -0.31495151 -0.68000013 132 113 112
-0.066507377 -0.31775469 -0.67903286 160 138 144
-0.068218201 -0.31713343 -0.67923021 156 138 136
-0.065834478 -0.31791988 -0.67898327 160 137 146
-0.067329846 -0.31594348 -0.67966264 139 118 121
-0.067834705 -0.31534302 -0.67986846 133 113 113
-0.066926911 -0.31821734 -0.67886376 166 146 150
-0.066589192 -0.3153407 -0.6798678 142 124 125
-0.065539405 -0.31642267 -0.6795007 152 131 138
-0.066788554 -0.3159745 -0.67965508 141 120 124
-0.06723538 -0.31478813 -0.68005562 136 119 118
-0.065769121 -0.31508094 -0.67995292 149 133 134
-0.063660704 -0.31567454 -0.67980337 162 143 150
-0.062804557 -0.31827912 -0.67898518 166 132 155
-0.06435734 -0.31750491 -0.67913991 162 138 151
-0.064177655 -0.31744051 -0.67917383 162 138 151
-0.064425051 -0.31778243 -0.67904192 162 137 151
-0.060623009 -0.31769776 -0.67931604 169 128 159
-0.062277343 -0.31663951 -0.67957062 166 136 155
-0.061387982 -0.3151643 -0.68007553 158 134 154
-0.060977235 -0.31604984 -0.67981678 162 131 156
-0.061862204 -0.31554821 -0.67993271 160 135 154
-0.060395148 -0.31769955 -0.67933053 168 128 159
-0.060100071 -0.31661749 -0.67969263 161 130 157
-0.058362294 -0.31777486 -0.67946094 155 135 154
-0.057159957 -0.31801388 -0.67947704 149 139 151
-0.059142996 -0.31630498 -0.6798594 155 135 155
-0.057654805 -0.31753308 -0.67958921 150 138 152
-0.081124708 -0.32116604 -0.67808074 145 118 126
-0.080293335 -0.32170504 -0.67781657 138 110 117
-0.080138423 -0.31883121 -0.67882699 130 96 106
-0.08089257 -0.32213905 -0.67771393 145 119 126
-0.082398601 -0.32194638 -0.67791331 159 137 146
-0.081135236 -0.32127339 -0.67804337 145 119 127
-0.083016969 -0.32125539 -0.67821038 164 142 152
-0.083784275 -0.31937766 -0.67877942 163 141 145
-0.083062343 -0.32074481 -0.67836124 162 140 149
-0.082097404 -0.31973734 -0.67863375 151 124 132
-0.080530502 -0.31842646 -0.67898095 133 99 108
-0.081689365 -0.31896707 -0.67885 144 115 123
-0.07734438 -0.32139245 -0.67776048 153 127 140
-0.077021793 -0.31923693 -0.67848045 134 113 124
-0.076677404 -0.32087892 -0.6779027 153 129 143
-0.07778538 -0.32034126 -0.6781413 138 115 125
-0.079145744 -0.31925908 -0.67860919 132 102 112
-0.078734189 -0.31915376 -0.67862016 132 104 114
-0.078935005 -0.32075408 -0.67806292 135 109 118
-0.08002612 -0.32218635 -0.67762303 137 109 116
-0.079137899 -0.32085502 -0.67804003 135 109 117
-0.073347047 -0.32006186 -0.67816633 169 155 158
-0.073474713 -0.32025596 -0.67810023 170 155 159
-0.072668336 -0.3216334 -0.67764556 190 182 184
-0.073498577 -0.32127059 -0.67776006 180 167 172
-0.072451711 -0.32137328 -0.67773455 189 182 182
-0.07524024 -0.31980696 -0.67824548 153 133 144
-0.073907271 -0.31859496 -0.678662 151 136 140
-0.075669318 -0.32022551 -0.67810172 155 133 146
-0.073105335 -0.3190524 -0.67850751 161 146 148
-0.07553789 -0.31857848 -0.67866433 139 121 132
-0.068988547 -0.31931421 -0.67846978 179 163 162
-0.068439312 -0.31964284 -0.67837405 183 163 165
-0.072244741 -0.31842822 -0.67872304 160 149 146
-0.071966767 -0.32160798 -0.67766124 194 187 188
-0.071550243 -0.31846949 -0.67871797 163 151 148
-0.071877405 -0.32149947 -0.67769867 193 186 186
-0.071996897 -0.3191658 -0.67847902 169 158 156
-0.065469764 -0.31903884 -0.67861074 171 145 159
-0.066714704 -0.31970945 -0.67837542 180 155 166
-0.067734674 -0.31959906 -0.67839813 181 159 165
-0.065995693 -0.31879538 -0.67868334 170 146 156
-0.065937534 -0.3192417 -0.67853838 174 148 161
-0.063683286 -0.31848013 -0.67885792 166 137 156
-0.062219445 -0.318894 -0.67881924 177 143 167
-0.062697552 -0.31943086 -0.67860729 185 157 176
-0.061375577 -0.31868789 -0.67894566 175 136 165
-0.056881372 -0.32011876 -0.67889696 149 127 142
-0.056795478 -0.31993344 -0.67895788 148 126 142
-0.057072937 -0.31979686 -0.67896283 153 137 149
-0.056927491 -0.31901783 -0.67919362 152 142 152
-0.056693375 -0.31931216 -0.67914033 147 131 145
-0.05845312 -0.31848949 -0.67922944 160 137 157
-0.057819642 -0.31942609 -0.67898166 166 161 165
-0.056112327 -0.31941292 -0.67918783 143 117 141
-0.082369283 -0.32513121 -0.67711967 164 141 156
-0.082013108 -0.3244803 -0.67724973 158 134 147
-0.081502356 -0.3245813 -0.67715561 159 135 146
-0.080616191 -0.32388699 -0.67722839 153 128 135
-0.080817007 -0.32309055 -0.67747074 145 119 127
-0.081703797 -0.32329717 -0.67750436 153 128 139
-0.082067013 -0.32385838 -0.67740816 156 132 145
-0.082728155 -0.32386959 -0.67746305 162 140 154
-0.082932554 -0.32357067 -0.67754883 164 143 156
-0.082957245 -0.32391664 -0.67747217 164 143 157
-0.078258127 -0.323394 -0.67720145 165 139 149
-0.078473628 -0.32237104 -0.67748982 153 125 135
-0.078671753 -0.32244021 -0.67748088 152 124 134
-0.079041503 -0.32234654 -0.67752463 147 120 129
-0.071466252 -0.32275552 -0.67730129 203 194 198
-0.071880169 -0.32386315 -0.67694747 207 202 205
-0.072192021 -0.32448232 -0.67674804 209 207 210
-0.070870981 -0.32347453 -0.67708975 207 196 202
0 0 0 1 0 0 0 1 0 0 0 1 0 0 0 0 0 240 1 0 0
