ply
format ascii 1.0
comment PCL generated
element vertex 264
property float x
property float y
property float z
property uchar red
property uchar green
property uchar blue
element camera 1
property float view_px
property float view_py
property float view_pz
property float x_axisx
property float x_axisy
property float x_axisz
property float y_axisx
property float y_axisy
property float y_axisz
property float z_axisx
property float z_axisy
property float z_axisz
property float focal
property float scalex
property float scaley
property float centerx
property float centery
property int viewportx
property int viewporty
property float k1
property float k2
end_header
0.22095719 0.014672836 -0.91267955 136 137 147
0.22235011 0.013765632 -0.91306889 142 144 153
0.22264987 0.013812533 -0.91344464 142 144 151
0.22071396 0.015846688 -0.91383606 127 128 135
0.2224094 0.014839926 -0.91442746 135 136 141
0.22107795 0.012145245 -0.91115618 95 96 104
0.22169697 0.012560775 -0.91193652 108 110 117
0.22139318 0.013007283 -0.91174316 122 124 133
0.22112432 0.013192644 -0.91151094 128 129 141
0.2229546 0.012555036 -0.91329968 128 130 137
0.22242503 0.011513362 -0.91246378 119 121 131
0.22294658 0.011301986 -0.91298646 135 137 149
0.22322263 0.010909759 -0.91319501 145 148 161
0.22387949 0.011929209 -0.91416562 157 160 171
0.22319435 0.011365512 -0.91327459 141 144 156
0.22325867 0.011985142 -0.9134959 140 142 151
0.22257616 0.0097904131 -0.91184324 93 95 105
0.22395141 0.0099390941 -0.91370112 164 167 185
0.22143717 0.010956672 -0.91117084 88 89 98
0.21909115 0.0085951965 -0.91234547 11 11 13
0.21880804 0.0084919995 -0.91305476 7 7 8
0.21891035 0.00851609 -0.9124108 11 10 13
0.21873304 0.0085027199 -0.91436052 0 0 0
0.22009984 0.0090336492 -0.911897 14 13 16
0.22069436 0.0093754446 -0.91408104 2 1 2
0.21979898 0.0090222806 -0.9110117 16 16 19
0.2173177 0.0086172102 -0.91151446 2 2 3
0.21904717 0.0085762804 -0.91218477 12 12 14
0.2176127 0.0082167042 -0.91287142 4 4 5
0.21703725 0.0083113108 -0.91239262 1 1 1
0.21797414 0.0089365924 -0.91071135 6 6 7
0.22237903 0.0078275194 -0.91312009 7 7 8
0.22252965 0.0077287955 -0.91422969 1 1 1
0.22351262 0.0068158703 -0.91358393 4 4 5
0.22272815 0.0075485548 -0.91422009 1 1 1
0.22183375 0.0082900925 -0.91219032 12 12 14
0.22298868 0.0072744279 -0.91310424 7 7 8
0.22205293 0.0081401914 -0.91362226 4 4 5
0.22106156 0.0089667318 -0.91090614 20 20 23
0.22415671 0.0084329732 -0.91399097 109 111 122
0.22222257 0.0080479188 -0.91206878 19 18 21
0.22445321 0.0074108243 -0.91429394 70 71 79
0.22424498 0.0076186834 -0.91408515 72 74 81
0.22159325 0.009153394 -0.91143399 49 49 56
0.22413145 0.0067804167 -0.91397858 27 28 31
0.22409785 0.0096938554 -0.91392273 168 171 189
0.22230566 0.009504173 -0.91205883 90 91 101
0.22187567 0.0096507147 -0.91118574 64 65 72
0.22849905 0.017606363 -0.92270303 157 118 162
0.22740287 0.015770186 -0.92335534 79 61 79
0.22736888 0.015393279 -0.92262346 68 51 69
0.22754936 0.016486976 -0.92436635 103 81 101
0.22782998 0.016284011 -0.92258179 105 79 107
0.2272343 0.015353415 -0.92315543 63 49 63
0.22794956 0.016552648 -0.92265981 115 87 118
0.22684434 0.013970289 -0.92329514 10 8 10
0.22695303 0.014714869 -0.92360848 36 29 35
0.22757182 0.016238296 -0.92581517 90 72 86
0.22761607 0.016448095 -0.9259572 98 78 93
0.22709759 0.015284645 -0.92409068 56 45 54
0.23225431 0.017898528 -0.94179362 193 191 190
0.22542538 0.0095397811 -0.9380579 188 189 216
0.22364689 0.023575906 -0.92091864 92 81 89
0.22439808 0.022794636 -0.92087436 93 82 90
0.22453801 0.021755271 -0.91953349 118 109 119
0.22373082 0.022322239 -0.91973948 98 90 98
0.22385243 0.021846969 -0.91933823 102 94 102
0.22256202 0.024557993 -0.9214443 63 51 57
0.22295278 0.023754511 -0.92082262 75 64 71
0.22219332 0.022385754 -0.9193275 54 49 53
0.22256783 0.024830183 -0.91999912 75 68 73
0.22184882 0.021903027 -0.91850132 46 44 47
0.22238252 0.024020052 -0.92047495 61 53 58
0.2225267 0.024690941 -0.91947663 76 71 76
0.22252628 0.024585029 -0.92108989 65 54 59
0.22208565 0.022874808 -0.91887689 56 53 57
0.2257871 0.024662659 -0.92221838 68 54 60
0.22648926 0.025376223 -0.92223513 68 54 60
0.22665237 0.024966903 -0.92139435 81 70 73
0.22703215 0.025234386 -0.92122936 83 73 76
0.2270028 0.024204878 -0.91975021 108 102 103
0.22635055 0.023940615 -0.92032117 99 91 94
0.22825916 0.025134174 -0.91927701 113 110 108
0.22597364 0.023223896 -0.91981018 109 102 107
0.22476834 0.022660557 -0.92075342 95 84 92
0.22541226 0.022786159 -0.91998804 107 99 105
0.22706166 0.023802921 -0.91936237 118 113 115
0.22799581 0.023715369 -0.92013043 125 125 125
0.22842236 0.021970822 -0.92174464 145 153 154
0.22734003 0.023481058 -0.91981047 123 121 123
0.22669357 0.022497395 -0.92005301 128 126 130
0.22696428 0.021733096 -0.92082328 137 139 144
0.22732046 0.022372132 -0.92061776 134 135 138
0.22749825 0.023714755 -0.91975635 122 120 121
0.21975783 0.019792793 -0.92190027 10 10 11
0.21909927 0.018421086 -0.922122 4 4 4
0.2196689 0.019638119 -0.92170286 16 15 17
0.21996582 0.020257926 -0.92159283 19 18 20
0.21858281 0.017810304 -0.91884053 98 96 106
0.21858852 0.0175872 -0.9205851 48 47 52
0.21968473 0.020059172 -0.91925585 49 48 53
0.21911034 0.018975254 -0.91851705 78 77 85
0.22051588 0.021393659 -0.92163312 5 5 5
0.21984281 0.020316189 -0.91969007 41 40 44
0.22050789 0.021465093 -0.92113924 6 6 7
0.22331081 0.020140415 -0.91886485 86 85 91
0.22347261 0.020139748 -0.91891438 91 90 96
0.22293966 0.021328226 -0.91872716 76 72 77
0.22415943 0.018429941 -0.91915917 111 114 120
0.22395997 0.018160077 -0.91890168 113 117 124
0.22202267 0.021005502 -0.91838503 52 51 55
0.22783676 0.020358738 -0.9216783 147 150 157
0.22647391 0.018227603 -0.92067981 139 131 148
0.22777373 0.019728176 -0.92163199 147 144 157
0.22673705 0.019312955 -0.92087281 139 142 150
0.22765037 0.02040334 -0.92154181 145 151 156
0.2283507 0.020482326 -0.92205471 151 150 161
0.22669926 0.018679239 -0.92084497 140 135 150
0.22743437 0.020435667 -0.92138302 143 152 154
0.22486806 0.021174459 -0.91943628 125 120 129
0.22470453 0.018334821 -0.91937059 124 127 134
0.22707777 0.021012649 -0.92110288 141 146 149
0.2266041 0.019759348 -0.92077172 137 144 148
0.22507209 0.02009562 -0.91961163 127 125 133
0.22796257 0.021175219 -0.92176569 147 155 157
0.22584197 0.013741515 -0.92115492 61 65 64
0.22654334 0.015171994 -0.92112803 121 110 125
0.22608936 0.015125575 -0.9205026 152 144 158
0.22542711 0.014138449 -0.92026228 125 127 130
0.226843 0.014505534 -0.92205042 45 37 46
0.22844158 0.017491408 -0.92214823 158 119 162
0.22730045 0.01665091 -0.92130888 154 130 159
0.22572117 0.016011788 -0.92016894 144 139 152
0.22501551 0.015496506 -0.91966552 142 145 150
0.22573106 0.01615704 -0.92017239 143 138 151
0.22622518 0.016089594 -0.92053598 148 137 155
0.22559217 0.016860569 -0.92005253 137 132 146
0.22805628 0.0097792195 -0.937033 189 194 218
0.2285158 0.0098881321 -0.93688923 189 194 218
0.22580862 0.0095393527 -0.93789029 188 190 216
0.22651292 0.0088097323 -0.93719929 188 190 216
0.22557373 0.0085247653 -0.9374606 187 188 215
0.22740035 0.0088240691 -0.93681872 188 191 217
0.2274497 0.0094250031 -0.93711239 188 192 217
0.2276246 0.0091440659 -0.93688858 188 192 217
0.22750337 0.0070387637 -0.93671733 185 186 212
0.22817895 0.0089882687 -0.93679059 188 192 217
0.22507587 0.0059863525 -0.93652087 185 181 212
0.22720066 0.0066099996 -0.9366895 185 185 211
0.22794428 0.006555391 -0.93674541 185 186 210
0.22113182 0.0097742341 -0.91020024 38 39 44
0.216956 0.0091196643 -0.91017836 19 18 20
0.21846734 0.009215747 -0.91026366 23 22 25
0.22026166 0.0095054107 -0.91012943 30 30 34
0.2318714 0.020781482 -0.94624209 173 166 179
0.23166822 0.021060262 -0.94669247 172 166 179
0.23078106 0.02072514 -0.94624907 184 185 189
0.23040368 0.020900657 -0.94652557 186 190 191
0.23076944 0.021265237 -0.94693208 181 183 185
0.22071972 0.027189489 -0.91806096 80 77 83
0.2208842 0.026560003 -0.91756356 86 83 91
0.22170581 0.026298659 -0.91822839 86 84 90
0.22112031 0.021678196 -0.91801995 31 30 33
0.2217484 0.022331281 -0.91825819 49 47 51
0.2217689 0.024024012 -0.91792423 68 67 72
0.22119932 0.024222486 -0.91717625 74 73 80
0.2222643 0.025300672 -0.91792339 92 90 97
0.22104125 0.025167197 -0.91656888 94 92 101
0.21983598 0.020141672 -0.91812402 52 52 57
0.22055596 0.020769695 -0.91761106 39 39 42
0.21975441 0.017861327 -0.91694903 111 110 118
0.21913406 0.01820829 -0.91787982 99 97 106
0.21914609 0.018668517 -0.91812116 87 85 94
0.22051357 0.01959388 -0.91700828 70 70 74
0.22175762 0.020219296 -0.91778743 69 68 72
0.22152661 0.018298691 -0.91670585 110 111 116
0.22215274 0.019344071 -0.91772705 89 90 94
0.22136402 0.019230977 -0.91699338 89 89 94
0.22190547 0.020107467 -0.91786391 72 71 75
0.22125278 0.019173969 -0.91687107 90 90 94
0.22129761 0.021018252 -0.9178738 45 44 47
0.23153545 0.017923245 -0.91740263 93 90 95
0.22989464 0.017756326 -0.91831666 112 112 111
0.231685 0.018007752 -0.91739011 90 86 91
0.23308377 0.018753186 -0.91831195 75 62 70
0.23381083 0.017785223 -0.91803437 93 88 96
0.22148593 0.017301872 -0.91606367 125 127 133
0.22079913 0.017547088 -0.91571522 124 124 130
0.22200309 0.016683443 -0.91589499 127 129 135
0.22287619 0.015173694 -0.91516715 135 137 142
0.22348383 0.014893585 -0.91541982 138 141 146
0.22343791 0.014732601 -0.91522127 139 141 146
0.22143057 0.016025765 -0.91474885 127 128 134
0.22312593 0.015310292 -0.915519 136 138 143
0.22328727 0.016270434 -0.91660541 133 137 142
0.22378279 0.015068024 -0.91710299 145 151 153
0.22375759 0.013681743 -0.91501975 146 149 152
0.2238092 0.016762687 -0.91792047 135 141 146
0.22376981 0.014260203 -0.91655642 149 155 156
0.22375894 0.013700908 -0.91543835 148 152 154
0.23189563 0.016324906 -0.91809684 92 94 102
0.23227629 0.017206104 -0.91694164 89 90 98
0.23239772 0.017415931 -0.91664624 88 89 97
0.23289566 0.01720559 -0.91730922 90 90 99
0.23247224 0.015875658 -0.91825879 86 88 99
0.22396408 0.012732417 -0.91472954 156 159 166
0.22389647 0.013050631 -0.91575515 157 163 166
0.2240492 0.012368661 -0.91662103 170 177 182
0.22394803 0.01283189 -0.9170388 166 174 177
0.22383478 0.013350392 -0.91750139 162 171 170
0.22402933 0.012443454 -0.91530538 162 167 174
0.22442178 0.010678412 -0.9153381 183 189 203
0.22437684 0.011177583 -0.91594249 178 185 196
0.21935366 0.0091756545 -0.91700733 0 0 0
0.21897896 0.0090764686 -0.91778296 0 0 0
0.2198562 0.0095562832 -0.9180131 0 0 0
0.22034065 0.009588358 -0.9162752 0 0 0
0.22044992 0.0096414173 -0.91623241 0 0 0
0.22035863 0.0096074948 -0.91631514 0 0 0
0.21756966 0.008078997 -0.91542631 0 0 0
0.21781512 0.0083296336 -0.91684163 0 0 0
0.21737428 0.008171374 -0.91724575 0 0 0
0.21750712 0.008156335 -0.91649079 0 0 0
0.21840452 0.0084930705 -0.91581529 0 0 0
0.21772911 0.0080709569 -0.91462129 0 0 0
0.22246723 0.0081699705 -0.91622162 0 0 0
0.22223717 0.0081010619 -0.91492009 0 0 0
0.2223781 0.0082093813 -0.91602755 0 0 0
0.22221008 0.0080636879 -0.91462964 0 0 0
0.22302404 0.0074081048 -0.91501498 0 0 0
0.22108737 0.0092417467 -0.9153825 0 0 0
0.22121109 0.0095506962 -0.91735786 0 0 0
0.22194551 0.0082797669 -0.91814566 0 0 0
0.223113 0.0068222079 -0.91691351 0 0 0
0.22277379 0.0069175661 -0.91759795 0 0 0
0.22354124 0.0069174096 -0.91583478 0 0 0
0.22262457 0.0068910187 -0.91796726 0 0 0
0.22209474 0.0077325362 -0.91834718 0 0 0
0.2229194 0.006801785 -0.9173786 0 0 0
0.22810431 0.01758928 -0.92663854 133 107 128
0.22813737 0.016821146 -0.92681313 108 87 103
0.22787185 0.013912847 -0.92667347 8 6 8
0.22814858 0.014529561 -0.92709345 30 24 28
0.22790299 0.012745922 -0.92678374 0 0 0
0.22838071 0.012871418 -0.92757285 0 0 0
0.22800069 0.013651334 -0.92690456 0 0 0
0.22787172 0.011071417 -0.92692971 0 0 0
0.2274254 0.012022527 -0.92622274 0 0 0
0.22757055 0.011784974 -0.9264428 0 0 0
0.22879963 0.017689016 -0.94292319 204 212 222
0.23035288 0.018039271 -0.94260722 202 207 207
0.22954746 0.01758077 -0.9424836 203 208 216
0.22877371 0.018539285 -0.94381726 205 217 218
0.23185797 0.017970571 -0.94200563 195 195 193
0.23029462 0.018635223 -0.94327551 202 210 204
0.23131964 0.01856848 -0.9428668 197 200 195
0.23082055 0.019605109 -0.9445073 193 197 194
0.23169139 0.018999098 -0.94349146 190 190 190
0.2312243 0.019805308 -0.94478303 188 188 190
0.2307101 0.019818941 -0.94484872 192 197 194
0.22978608 0.019554591 -0.94451851 203 215 203
0.23215303 0.018214922 -0.94223458 193 191 189
0.22884466 0.017178874 -0.94237375 202 209 221
0.23095626 0.017552467 -0.94183779 200 202 204
0 0 0 1 0 0 0 1 0 0 0 1 0 0 0 0 0 264 1 0 0
