ply
format ascii 1.0
comment PCL generated
element vertex 133
property float x
property float y
property float z
property uchar red
property uchar green
property uchar blue
element camera 1
property float view_px
property float view_py
property float view_pz
property float x_axisx
property float x_axisy
property float x_axisz
property float y_axisx
property float y_axisy
property float y_axisz
property float z_axisx
property float z_axisy
property float z_axisz
property float focal
property float scalex
property float scaley
property float centerx
property float centery
property int viewportx
property int viewporty
property float k1
property float k2
end_header
-0.14387798 -0.38392934 -0.71414995 134 105 128
-0.14397947 -0.38457009 -0.71437639 130 98 121
-0.14298342 -0.38335356 -0.71316981 146 120 139
-0.14141148 -0.38467443 -0.71189404 146 114 132
-0.14166585 -0.38378552 -0.71196634 150 121 139
-0.14241366 -0.38324529 -0.71259445 151 126 142
-0.14102517 -0.38385507 -0.71135414 151 121 140
-0.14134873 -0.38275725 -0.71145672 155 131 149
-0.14369808 -0.38579109 -0.71427232 138 108 129
-0.14411297 -0.38501421 -0.71457589 129 97 121
-0.1435613 -0.38581839 -0.71414351 139 110 130
-0.144061 -0.38527295 -0.71455812 131 100 123
-0.14463814 -0.38485956 -0.71506411 123 89 116
-0.14277549 -0.38791898 -0.71356559 122 94 122
-0.14372325 -0.38769689 -0.71452487 142 117 140
-0.14327012 -0.38808545 -0.71409315 130 104 131
-0.1432977 -0.38802266 -0.71411562 131 105 132
-0.14209637 -0.3869631 -0.71281171 131 103 127
-0.14155927 -0.38826093 -0.71242398 126 99 130
-0.14247011 -0.38826513 -0.71329153 116 89 119
-0.14235871 -0.38816962 -0.71317637 118 91 121
-0.14232753 -0.38696986 -0.71303242 129 100 124
-0.14081906 -0.3852801 -0.71138752 145 113 134
-0.14144963 -0.38499051 -0.71197546 145 113 131
-0.14202055 -0.38545683 -0.71259063 143 113 131
-0.14262907 -0.38880923 -0.71350747 113 85 117
-0.14404286 -0.38986313 -0.71513605 141 114 143
-0.14379433 -0.38929242 -0.71478897 136 110 139
-0.14297967 -0.39016742 -0.71408796 121 91 124
-0.14281555 -0.39051598 -0.7140004 123 92 124
-0.14170897 -0.39173922 -0.71311337 147 117 139
-0.14144562 -0.3915585 -0.71280819 150 123 142
-0.14203769 -0.39220431 -0.7135393 144 112 137
-0.14165334 -0.39001682 -0.71273291 137 111 134
-0.14214246 -0.39238134 -0.71368045 143 110 136
-0.14243524 -0.38914734 -0.71337515 117 90 120
-0.14085631 -0.3897073 -0.71193117 142 117 142
-0.14126334 -0.39051688 -0.71242601 147 122 141
-0.140228 -0.39012426 -0.71138823 153 129 152
-0.14302145 -0.3932569 -0.71464032 144 111 139
-0.14290012 -0.39306679 -0.71451014 142 108 137
-0.15279925 -0.39250335 -0.72480798 103 69 102
-0.15452114 -0.39617527 -0.72693759 74 47 91
-0.1543607 -0.39468959 -0.72668529 85 62 95
-0.15358594 -0.3942017 -0.72580773 107 87 114
-0.15350172 -0.39374205 -0.72569811 112 94 116
-0.15388021 -0.39569288 -0.7261861 90 65 105
-0.15413918 -0.3963424 -0.72649455 80 51 98
-0.1542708 -0.39405194 -0.72655398 90 69 97
-0.15326913 -0.39583048 -0.72552037 106 81 119
-0.15199308 -0.39358544 -0.72396702 121 86 122
-0.15278862 -0.39292112 -0.72482681 109 78 109
-0.15121573 -0.39386502 -0.72309822 128 86 129
-0.1527255 -0.39389706 -0.72483009 122 98 125
-0.15338433 -0.39349344 -0.72555345 114 95 116
-0.1518179 -0.39400026 -0.72379845 127 94 130
-0.15409765 -0.39681956 -0.72650385 80 52 97
-0.15410653 -0.39734006 -0.72654963 88 63 101
-0.1541727 -0.39817643 -0.72667342 101 82 107
-0.14057441 -0.3828617 -0.71072644 161 138 156
-0.14080887 -0.38390973 -0.71115494 152 123 142
-0.13992615 -0.38598338 -0.71055609 150 122 150
-0.14053892 -0.38580564 -0.71116459 145 115 138
-0.13964738 -0.38627008 -0.71030366 152 125 155
-0.13993439 -0.38552299 -0.71050996 152 123 149
-0.13987297 -0.38762784 -0.71070111 145 119 152
-0.13874558 -0.38847119 -0.70980978 154 129 156
-0.13930605 -0.38731429 -0.71012962 152 127 157
-0.13970849 -0.38935915 -0.71081269 151 126 152
-0.1399778 -0.3902604 -0.71117419 158 134 155
-0.14879131 -0.39159903 -0.72015578 119 115 117
-0.14981626 -0.39223534 -0.72126156 110 76 109
-0.14908637 -0.39073807 -0.72042865 107 103 105
-0.14930566 -0.3911213 -0.720676 107 95 106
-0.15000904 -0.39107794 -0.72141397 97 67 96
-0.14833331 -0.38869795 -0.7195369 89 57 84
-0.14797743 -0.39169779 -0.71930194 130 133 126
-0.14829868 -0.38924792 -0.71952617 96 71 92
-0.14823769 -0.39066783 -0.71952856 115 107 111
-0.14881906 -0.38952342 -0.72008926 95 76 91
-0.15075794 -0.39329168 -0.72243935 117 71 118
-0.15092704 -0.39304951 -0.72264475 115 67 114
-0.1505423 -0.39399052 -0.72222769 125 85 129
-0.14906156 -0.39446682 -0.72069269 123 86 125
-0.14925948 -0.39437193 -0.72089291 123 85 125
-0.1488793 -0.39462885 -0.72051764 124 88 126
-0.14853135 -0.39318115 -0.71999121 131 118 129
-0.14818607 -0.39449158 -0.71977204 133 114 134
-0.1475822 -0.39502746 -0.71919578 141 130 142
-0.14805402 -0.39396161 -0.71957493 136 126 136
-0.14782277 -0.3933728 -0.71926701 141 143 139
-0.15483162 -0.39866209 -0.72749263 107 93 106
-0.14700653 -0.38357577 -0.71736324 112 95 121
-0.14662163 -0.38384792 -0.71693021 110 88 116
-0.14620717 -0.3840028 -0.71651226 111 86 115
-0.14525039 -0.38444638 -0.71562058 118 87 116
-0.14750263 -0.38841248 -0.7185477 106 72 102
-0.14658539 -0.38732219 -0.71728516 128 96 127
-0.14619763 -0.38805494 -0.7169767 139 107 138
-0.14506271 -0.38748029 -0.71580309 132 108 135
-0.14631212 -0.38747695 -0.71701396 133 102 133
-0.1454245 -0.38732031 -0.71613348 131 105 133
-0.14574982 -0.38585639 -0.71626276 116 90 119
-0.1446348 -0.38699567 -0.71532881 134 106 133
-0.14556043 -0.38505271 -0.7159791 114 84 113
-0.14787437 -0.38978755 -0.71909696 108 87 103
-0.14735886 -0.38891199 -0.71841776 117 85 113
-0.14690624 -0.38947758 -0.7178942 140 115 137
-0.14661647 -0.3913185 -0.7178095 162 160 158
-0.14685321 -0.3902764 -0.71791035 149 134 146
-0.14463645 -0.39133573 -0.71593428 139 106 138
-0.14568821 -0.39091593 -0.71687317 151 131 149
-0.14544679 -0.39063618 -0.71660876 146 118 144
-0.14595982 -0.39020199 -0.7170369 150 125 147
-0.14519174 -0.3906315 -0.71636724 142 110 141
-0.14422381 -0.39183503 -0.71560884 138 104 137
-0.14560845 -0.38938504 -0.71658945 144 112 143
-0.14473863 -0.38899761 -0.71568894 145 118 146
-0.14492568 -0.3896603 -0.71596813 143 114 143
-0.14701484 -0.39473411 -0.71859592 155 148 155
-0.14750582 -0.39337924 -0.71894485 147 153 145
-0.14740844 -0.39458722 -0.71897358 146 141 146
-0.14650856 -0.39593264 -0.71819514 161 137 158
-0.1453498 -0.39413965 -0.7169131 177 174 170
-0.14639196 -0.39357564 -0.71785116 171 173 167
-0.14587131 -0.39418894 -0.71741498 173 169 167
-0.14509848 -0.39532715 -0.71678996 175 158 167
-0.14576381 -0.39509714 -0.71740156 170 156 165
-0.1443074 -0.39271265 -0.71579736 146 123 144
-0.14369276 -0.39315867 -0.71525741 143 111 141
-0.1452594 -0.39369348 -0.71678597 172 169 166
-0.14470707 -0.39323691 -0.71622264 158 144 154
-0.14414243 -0.39274552 -0.71564448 144 118 142
0 0 0 1 0 0 0 1 0 0 0 1 0 0 0 0 0 133 1 0 0
