ply
format ascii 1.0
comment PCL generated
element vertex 1003
property float x
property float y
property float z
property uchar red
property uchar green
property uchar blue
element camera 0
property float view_px
property float view_py
property float view_pz
property float x_axisx
property float x_axisy
property float x_axisz
property float y_axisx
property float y_axisy
property float y_axisz
property float z_axisx
property float z_axisy
property float z_axisz
property float focal
property float scalex
property float scaley
property float centerx
property float centery
property int viewportx
property int viewporty
property float k1
property float k2
end_header
0.21707615 -0.085834116 -0.91837066 212 207 219
0.21843915 -0.0874345 -0.91910255 194 178 187
0.21796085 -0.084884241 -0.91873085 201 188 197
0.21799281 -0.086400054 -0.91883343 200 187 197
0.16961689 -0.056422587 -0.90352613 91 80 122
0.16968374 -0.056041852 -0.90347743 91 82 122
0.17254809 -0.053623099 -0.90309232 95 101 127
0.170647 -0.053749274 -0.90288502 90 92 125
0.17029069 -0.055654179 -0.9039014 93 90 125
0.17015125 -0.053954769 -0.90292782 89 90 125
0.1734947 -0.055448569 -0.90399706 93 95 118
0.17063177 -0.056197803 -0.90422779 94 91 124
0.17350487 -0.05477595 -0.90369433 94 98 121
0.17206399 -0.05580125 -0.9041025 93 93 121
0.17106912 -0.056469813 -0.90436673 93 90 121
0.17286533 -0.055771489 -0.90411907 93 94 118
0.17648032 -0.055454519 -0.9049719 90 91 120
0.17657048 -0.054063965 -0.90487647 91 93 124
0.17460628 -0.056164309 -0.90466118 90 91 114
0.17672662 -0.055305209 -0.9050082 90 91 121
0.17722005 -0.055377055 -0.90511107 89 90 122
0.17561987 -0.056401119 -0.90487975 89 90 116
0.17389473 -0.054094218 -0.90343684 94 101 123
0.17516854 -0.054225042 -0.90421683 92 96 122
0.17396866 -0.056241173 -0.90444636 91 92 113
0.17679025 -0.053099524 -0.90462756 92 96 128
0.17534177 -0.054513879 -0.90444511 92 95 121
0.17754006 -0.052923691 -0.90497273 91 94 129
0.17435907 -0.05606686 -0.90458876 91 91 114
0.18062004 -0.055106916 -0.9054203 87 89 119
0.18114974 -0.056503657 -0.90538424 99 101 136
0.17852272 -0.056490485 -0.90533489 89 90 122
0.18134592 -0.054138012 -0.90546602 83 85 113
0.17870916 -0.056263816 -0.90534592 88 89 121
0.18042079 -0.053344522 -0.90540493 78 81 108
0.17801934 -0.053552546 -0.90510166 89 92 125
0.1781933 -0.05283834 -0.90506673 89 92 126
0.17960404 -0.053298179 -0.90529227 82 85 114
0.17841245 -0.055226438 -0.90529031 86 87 118
0.1696437 -0.058054209 -0.90481806 93 90 124
0.16970682 -0.056840692 -0.90402633 92 84 123
0.16957936 -0.05878257 -0.90498483 93 91 124
0.16931738 -0.057333257 -0.90324092 90 76 120
0.16945435 -0.059091944 -0.90422803 92 90 123
0.16928191 -0.059636306 -0.90307635 91 91 120
0.16962951 -0.06029278 -0.90545595 95 101 126
0.16964009 -0.060004018 -0.90551805 95 99 126
0.16938671 -0.059547324 -0.90378445 92 92 122
0.17055443 -0.058825333 -0.90593094 94 98 125
0.17216596 -0.060179457 -0.90654087 88 94 119
0.1706 -0.058500905 -0.90566498 93 95 124
0.17063639 -0.05802853 -0.90528601 92 92 123
0.17075768 -0.057540223 -0.90487438 91 88 122
0.17068492 -0.057467997 -0.90483779 91 88 122
0.17222238 -0.058239948 -0.90523976 88 88 117
0.17173898 -0.057633411 -0.90493619 90 88 118
0.17206883 -0.056743968 -0.90452969 92 89 117
0.17359275 -0.058706772 -0.90551078 86 88 112
0.17362581 -0.058483534 -0.90540695 86 88 112
0.172057 -0.05783746 -0.90504408 89 88 117
0.17601585 -0.05900871 -0.90577328 85 87 117
0.17691462 -0.058083877 -0.90552735 87 88 119
0.175927 -0.058823653 -0.90580308 85 87 117
0.17498229 -0.060058564 -0.9060564 84 87 115
0.17576222 -0.059048165 -0.90584707 85 87 116
0.17551033 -0.05888997 -0.9059242 84 86 115
0.17413035 -0.057234447 -0.90488583 89 90 112
0.17435062 -0.059200067 -0.90585464 84 87 113
0.17410649 -0.058438048 -0.90544784 86 88 112
0.17417739 -0.056806844 -0.90469378 90 90 112
0.17426057 -0.057440959 -0.90500867 88 89 112
0.17561918 -0.057857346 -0.90547186 86 88 115
0.18128939 -0.058833148 -0.90524018 104 108 143
0.17850287 -0.060538396 -0.90521187 93 97 132
0.17973055 -0.058676142 -0.90530592 96 99 134
0.18146628 -0.059638567 -0.90517485 106 110 145
0.17837641 -0.059955794 -0.90525907 92 95 130
0.18037766 -0.056894772 -0.9053601 97 99 134
0.17790449 -0.056675546 -0.90531754 88 88 120
0.17870824 -0.057634357 -0.90531385 91 93 127
0.17802864 -0.058794785 -0.90527809 90 92 125
0.17779897 -0.059855446 -0.90525281 89 92 126
0.18541227 -0.05694212 -0.90661508 116 119 153
0.18475506 -0.059351623 -0.9060486 118 122 157
0.18378562 -0.058781046 -0.90580422 114 117 152
0.18516262 -0.057904277 -0.9063924 117 120 155
0.18212077 -0.056742765 -0.90553576 103 107 141
0.18436958 -0.057299484 -0.90621221 113 116 151
0.1847066 -0.06045441 -0.90592664 120 124 159
0.18339844 -0.058674071 -0.90570843 112 115 150
0.18184823 -0.058048125 -0.90534091 105 108 143
0.18369085 -0.060232569 -0.90567195 116 120 155
0.18224339 -0.059405237 -0.90534663 109 113 148
0.18566804 -0.060223754 -0.90631479 123 127 162
0.16683142 -0.063392892 -0.90544051 71 84 140
0.16634864 -0.063998103 -0.90464646 65 76 131
0.1683365 -0.062144883 -0.90523756 81 89 120
0.16644929 -0.064175926 -0.90353727 61 68 110
0.16791534 -0.062594466 -0.90487349 77 84 118
0.1665457 -0.064017355 -0.90385395 63 71 114
0.16693871 -0.06349019 -0.90464503 69 79 124
0.16803472 -0.062231727 -0.90306365 77 82 110
0.16814679 -0.062045205 -0.90289205 79 83 111
0.16968167 -0.060661595 -0.90639049 95 104 127
0.16646788 -0.064305618 -0.90279716 59 63 98
0.16917299 -0.060989581 -0.90457875 90 96 121
0.16841635 -0.061832242 -0.90365654 81 87 114
0.1684045 -0.061677974 -0.90280545 82 86 113
0.17339808 -0.060728315 -0.9065451 83 87 113
0.17665799 -0.063410245 -0.90627927 91 93 127
0.17583469 -0.063193321 -0.90648019 86 89 122
0.17676693 -0.063333534 -0.90622705 91 93 128
0.17609364 -0.062438853 -0.90619868 89 91 124
0.17761238 -0.06397149 -0.90613997 94 95 132
0.17737357 -0.060834564 -0.90541667 89 92 126
0.17704351 -0.062830709 -0.90601861 91 93 128
0.17728031 -0.061271131 -0.90555447 89 92 127
0.18114205 -0.062810011 -0.90537828 112 118 152
0.17991486 -0.064114228 -0.90573716 108 113 148
0.1813561 -0.061496504 -0.90523398 110 115 150
0.18145564 -0.060974035 -0.90517354 109 114 149
0.17864281 -0.064150125 -0.90601015 100 102 139
0.18055952 -0.063060515 -0.90552098 109 114 149
0.1802755 -0.060758237 -0.90520298 102 106 141
0.17962934 -0.061813474 -0.90549237 100 104 140
0.17845884 -0.063619047 -0.90598983 97 99 136
0.17833146 -0.063166015 -0.90587962 96 98 135
0.17825364 -0.062566608 -0.90573072 95 97 133
0.18286653 -0.063786328 -0.90568691 123 130 163
0.18281382 -0.063495874 -0.90564227 122 129 162
0.1836396 -0.062899619 -0.90582353 123 129 163
0.18422468 -0.062830523 -0.90598744 125 130 164
0.18511504 -0.062178764 -0.90618199 126 130 164
0.18196693 -0.060843844 -0.90521127 111 116 151
0.18179238 -0.060989644 -0.90517569 110 116 151
0.1821246 -0.060735937 -0.90524524 111 116 151
0.18187429 -0.063673913 -0.90539962 119 127 160
0.18170989 -0.06309253 -0.90531194 117 124 157
0.18231648 -0.062849879 -0.90545553 118 125 159
0.18576141 -0.063078322 -0.90661651 130 133 167
0.18581843 -0.061075956 -0.90647542 125 129 163
0.16599584 -0.064520642 -0.90290135 59 62 100
0.17769244 -0.065214746 -0.90639567 97 98 135
0.17848867 -0.067462072 -0.90657884 111 112 145
0.1784784 -0.066511773 -0.9063952 108 109 143
0.1798631 -0.067631125 -0.90619063 122 124 155
0.18033071 -0.067456342 -0.90601557 125 127 158
0.18033327 -0.067161344 -0.90595829 124 126 157
0.1806183 -0.06564635 -0.90573424 119 124 156
0.1813423 -0.065982386 -0.9056145 126 131 162
0.17799425 -0.0647057 -0.9061963 97 98 136
0.18042704 -0.066165775 -0.90582752 120 124 156
0.17961565 -0.065621778 -0.90594471 112 115 149
0.18489203 -0.066372052 -0.90658581 142 143 173
0.18417928 -0.066918463 -0.90642744 142 143 173
0.18269058 -0.068302304 -0.90613085 143 144 172
0.18532994 -0.065173857 -0.90656298 136 138 170
0.18446742 -0.066032782 -0.90639806 137 139 170
0.184843 -0.065149449 -0.90640193 134 136 168
0.18474317 -0.065130249 -0.90637088 133 136 168
0.18193167 -0.066363916 -0.90567464 130 135 165
0.18166581 -0.066585734 -0.90561944 130 136 165
0.18376759 -0.065128803 -0.90608567 130 135 167
0.18070355 -0.071314894 -0.90663791 146 141 172
0.18087436 -0.06935358 -0.90621322 138 137 167
0.18112041 -0.071289837 -0.90650702 149 144 175
0.17962496 -0.068644598 -0.90645653 125 125 156
0.18177418 -0.072167546 -0.90658009 159 153 182
0.18211368 -0.068359941 -0.9059484 141 142 170
0.182548 -0.070502929 -0.90650713 154 150 180
0.1821458 -0.069180809 -0.90611804 145 145 173
0.18166514 -0.070364274 -0.90618849 149 147 176
0.18528841 -0.055668529 -0.90679389 98 100 129
0.18448724 -0.052998289 -0.90702319 47 49 63
0.18400848 -0.053192407 -0.90680617 59 61 79
0.18416627 -0.054259881 -0.90665531 81 84 108
0.17133881 -0.060172759 -0.90676188 91 99 123
0.18719086 -0.058777127 -0.90800184 123 126 159
0.18654563 -0.059521977 -0.90727699 123 127 160
0.18642782 -0.059186909 -0.9072088 122 126 160
0.1860121 -0.058119342 -0.90695274 119 123 157
0.1881814 -0.060173903 -0.90876842 127 130 162
0.18723972 -0.059285764 -0.90797973 124 127 160
0.18632954 -0.05773259 -0.9073112 119 123 156
0.1891702 -0.060170542 -0.90968871 129 131 163
0.18820591 -0.058217872 -0.90865332 125 127 160
0.18662678 -0.056846637 -0.90738934 120 122 156
0.18825068 -0.058847953 -0.90882885 126 128 160
0.18587895 -0.056785777 -0.90692979 118 120 154
0.18849671 -0.058194663 -0.90882087 126 128 160
0.18815364 -0.058572505 -0.90870601 125 127 160
0.19049263 -0.058678377 -0.91046166 129 130 164
0.19026016 -0.059673846 -0.91048735 131 131 164
0.1903615 -0.057323378 -0.91001678 128 129 163
0.18962596 -0.058629822 -0.90965146 129 130 163
0.19006695 -0.058775768 -0.91009015 129 130 164
0.17110938 -0.060650952 -0.90713722 91 99 124
0.1715463 -0.061335657 -0.90721136 88 95 121
0.17279278 -0.062904142 -0.90731633 81 85 113
0.17224307 -0.062377151 -0.90731657 84 89 116
0.17331657 -0.06343589 -0.90732449 78 81 110
0.17204839 -0.062720142 -0.90747333 84 89 117
0.17188254 -0.063180499 -0.90774465 82 88 116
0.170313 -0.061118942 -0.90751231 93 102 127
0.17206885 -0.06293276 -0.90755737 83 88 116
0.1723697 -0.063055784 -0.90748328 82 86 115
0.17083406 -0.064153448 -0.9086147 80 87 117
0.17225535 -0.063521497 -0.90773499 80 85 114
0.17511587 -0.063826539 -0.90688342 82 83 116
0.17553008 -0.064236 -0.90686625 83 85 119
0.17469096 -0.062844202 -0.90674227 81 84 115
0.18678015 -0.061235387 -0.90735322 128 131 164
0.18875331 -0.061268594 -0.90925896 132 133 165
0.18908878 -0.063508935 -0.90954864 140 140 170
0.18611071 -0.060599811 -0.90671623 125 129 163
0.18816839 -0.062642708 -0.90867281 136 137 168
0.18608275 -0.060587414 -0.90668947 125 129 163
0.18748648 -0.061012771 -0.90803903 129 131 164
0.18797967 -0.063768417 -0.90857112 138 139 170
0.18814963 -0.063510038 -0.90869486 138 139 170
0.18729988 -0.064033732 -0.90801263 137 139 170
0.1881209 -0.063525647 -0.90867162 138 139 170
0.18606329 -0.062326051 -0.90681511 129 133 166
0.18643168 -0.061937518 -0.90709752 129 132 165
0.18676244 -0.063445173 -0.90750492 134 136 168
0.189943 -0.06293349 -0.91033626 139 139 169
0.18946478 -0.063602895 -0.90991002 141 141 171
0.16954406 -0.065626971 -0.91031653 77 88 119
0.1689073 -0.064619817 -0.90973842 76 90 133
0.17012297 -0.066029802 -0.91029721 78 86 112
0.17130068 -0.067265406 -0.91022235 78 82 108
0.17140023 -0.066207774 -0.90925735 78 83 111
0.1710887 -0.066011131 -0.9093737 79 84 112
0.17280845 -0.06795381 -0.909437 76 77 104
0.17308168 -0.067963332 -0.90920085 76 76 104
0.17300096 -0.065419592 -0.90816778 76 78 108
0.17146526 -0.064627722 -0.90853918 78 84 114
0.17046551 -0.064896971 -0.9090597 80 87 116
0.17261681 -0.064608641 -0.90804303 76 80 110
0.17252545 -0.066402711 -0.90871888 77 79 108
0.17325945 -0.064576551 -0.90775853 75 77 108
0.17658491 -0.06539809 -0.90678585 91 93 127
0.17471528 -0.06457831 -0.9072147 79 80 113
0.17493196 -0.065448828 -0.9073199 83 84 116
0.1776783 -0.067152604 -0.9067896 103 104 139
0.17433283 -0.066173367 -0.90784419 79 79 109
0.1741579 -0.066512242 -0.90804756 77 77 107
0.176155 -0.067083515 -0.90730196 94 95 127
0.1750942 -0.065957204 -0.90740579 85 86 118
0.17513874 -0.06767606 -0.90799505 86 85 116
0.17505404 -0.068252005 -0.90823978 85 84 114
0.17849484 -0.068350919 -0.90675217 114 115 147
0.18540697 -0.067868054 -0.9069556 154 152 182
0.1855825 -0.066479854 -0.90684664 146 146 177
0.18818703 -0.067301303 -0.90933245 158 156 185
0.18688729 -0.066293441 -0.90801263 148 148 179
0.1871646 -0.067266591 -0.90839559 155 154 183
0.18728352 -0.066578738 -0.90841198 151 151 180
0.18901223 -0.068005614 -0.91017902 164 162 189
0.1867405 -0.065936007 -0.90783095 145 146 177
0.18579823 -0.065610319 -0.9069283 141 142 174
0.1864962 -0.064461157 -0.90736258 135 138 170
0.1884103 -0.066207439 -0.90932667 152 151 180
0.18648462 -0.064804621 -0.90741754 137 140 172
0.18817057 -0.064554289 -0.90881002 141 142 172
0.18731228 -0.06583333 -0.9083184 146 147 177
0.18696423 -0.064661838 -0.90780014 138 140 172
0.18841058 -0.066916443 -0.90946066 156 155 183
0.18944858 -0.067433797 -0.91044009 162 160 187
0.18985005 -0.065860875 -0.910469 153 151 179
0.18965079 -0.064759515 -0.91010261 146 145 174
0.17213328 -0.068424799 -0.91039979 77 79 104
0.17252208 -0.068424948 -0.9100526 77 78 104
0.17242189 -0.068512239 -0.91017693 77 78 104
0.17370407 -0.070708081 -0.90990877 85 82 111
0.177582 -0.069167145 -0.90723234 109 109 143
0.17514689 -0.071727678 -0.90939099 99 96 127
0.17546429 -0.071037605 -0.90905875 99 97 128
0.17516802 -0.072151639 -0.90943599 101 98 129
0.1765967 -0.071212374 -0.90824991 109 106 139
0.17767508 -0.069392748 -0.90719604 111 110 144
0.17722307 -0.070360593 -0.9076671 111 109 143
0.17655545 -0.068721689 -0.90771127 99 99 131
0.17498934 -0.07091248 -0.90934044 95 93 123
0.1762694 -0.069753885 -0.90826434 101 100 132
0.17663051 -0.069446445 -0.90796852 103 103 134
0.17429835 -0.070967384 -0.90969086 89 87 116
0.17462631 -0.071094006 -0.90958625 92 90 120
0.17545231 -0.070146225 -0.90881091 96 94 125
0.17995827 -0.072013892 -0.90695041 141 136 169
0.17838651 -0.071545631 -0.907291 125 122 156
0.17953652 -0.070711546 -0.90687376 133 130 162
0.17801371 -0.071978159 -0.90744936 123 119 155
0.1788023 -0.071811534 -0.9072212 130 126 160
0.17834997 -0.068632372 -0.90685827 114 115 147
0.18453851 -0.068837039 -0.90684611 156 153 182
0.18387721 -0.070847921 -0.90703475 162 158 186
0.18430942 -0.070814736 -0.90717423 164 160 188
0.18247342 -0.071710572 -0.90673548 160 154 183
0.18408915 -0.071770415 -0.90729409 168 163 191
0.18445615 -0.070957534 -0.90725291 166 161 190
0.18712422 -0.071744442 -0.90898812 178 173 199
0.18908571 -0.07134863 -0.91035652 179 175 199
0.18778454 -0.070867911 -0.90944785 175 171 197
0.18916103 -0.069720045 -0.91040707 173 169 195
0.18783882 -0.071077816 -0.909486 176 172 198
0.18860801 -0.070719317 -0.91002238 176 172 197
0.18784142 -0.068388075 -0.90916491 164 161 188
0.18723531 -0.068735443 -0.90868539 164 161 189
0.18695225 -0.068763554 -0.9084332 164 160 188
0.18600708 -0.071476698 -0.90814161 175 170 197
0.18595183 -0.071484871 -0.90809292 175 170 197
0.18684548 -0.068891175 -0.90836269 164 160 189
0.1880399 -0.069266923 -0.90953064 169 165 192
0.17601258 -0.075493112 -0.90923667 118 117 149
0.1738707 -0.072751284 -0.91043574 92 89 119
0.1741306 -0.073736876 -0.91032141 97 94 125
0.17567752 -0.074729674 -0.90940821 113 112 143
0.17571396 -0.075088136 -0.90940273 114 113 145
0.17420803 -0.076171502 -0.91038984 105 99 134
0.17640653 -0.072625667 -0.90859908 112 109 142
0.17735395 -0.073729187 -0.90808147 123 122 156
0.17727549 -0.072617128 -0.90795779 119 116 151
0.17685995 -0.074062638 -0.9084996 121 120 152
0.17745158 -0.075042538 -0.90822375 128 129 161
0.17430389 -0.072386265 -0.91010821 95 92 121
0.18047296 -0.072796568 -0.90694749 149 143 175
0.17893293 -0.073314399 -0.90743142 136 132 165
0.18162464 -0.074657232 -0.90696537 166 161 188
0.18036932 -0.072921552 -0.90699536 148 143 174
0.18010275 -0.072780877 -0.90704018 145 140 172
0.17888683 -0.074679688 -0.90766656 140 138 170
0.17964007 -0.07579571 -0.90765905 151 150 178
0.1786325 -0.07469701 -0.90773344 138 136 168
0.1811644 -0.076137498 -0.90733129 167 164 189
0.17921272 -0.075301185 -0.90768594 146 144 174
0.18336655 -0.073352747 -0.90733141 170 165 192
0.18263105 -0.07390026 -0.90717375 169 164 190
0.18189952 -0.072747499 -0.90673447 161 156 184
0.18233868 -0.075464159 -0.90733522 173 168 193
0.18295075 -0.073961303 -0.90729207 170 166 192
0.18324368 -0.072937824 -0.90722078 169 163 191
0.1830166 -0.075680219 -0.90751415 177 172 195
0.18206054 -0.075857215 -0.9072963 172 168 192
0.18386729 -0.074303277 -0.90762407 176 171 196
0.18492699 -0.074820116 -0.9079147 183 177 200
0.18441853 -0.075095564 -0.90781128 181 176 199
0.18744291 -0.074243203 -0.90934753 187 182 203
0.18865146 -0.076152936 -0.91036367 193 187 208
0.18626183 -0.075529501 -0.90861285 189 183 203
0.18774301 -0.075158171 -0.90963596 190 184 205
0.18832316 -0.074514635 -0.90999591 189 183 205
0.18913159 -0.074088298 -0.91053599 188 183 205
0.18716763 -0.074353129 -0.90916276 187 181 203
0.18789715 -0.07284309 -0.90956795 183 178 202
0.1865996 -0.073807538 -0.90872878 184 179 202
0.18594804 -0.07349696 -0.90825266 182 177 201
0.18758479 -0.072870292 -0.90935177 183 178 202
0.18618277 -0.074712507 -0.90850019 187 181 203
0.18564892 -0.07481993 -0.908135 186 180 202
0.1748849 -0.078590721 -0.9103806 116 109 145
0.17533836 -0.077113859 -0.90984797 116 112 147
0.17631942 -0.076188929 -0.90908146 123 122 155
0.17541645 -0.078837827 -0.91009247 121 114 150
0.17631175 -0.076334022 -0.9091109 123 122 155
0.17565604 -0.077806026 -0.90976828 121 116 151
0.17727047 -0.077212028 -0.90862352 133 132 166
0.17709403 -0.079366945 -0.90888923 136 128 167
0.17603783 -0.079243883 -0.90970623 127 120 157
0.17681618 -0.078697301 -0.90906632 132 127 164
0.17551728 -0.07958515 -0.91013277 123 116 152
0.18162994 -0.077427439 -0.90724021 174 171 194
0.18133695 -0.078067265 -0.90733683 172 169 193
0.18134338 -0.07971251 -0.90736109 175 173 197
0.18145208 -0.0794819 -0.90732527 176 174 197
0.17888246 -0.079800434 -0.90808868 153 145 181
0.17777468 -0.076692693 -0.90822071 136 136 170
0.17941962 -0.078213841 -0.90789723 155 148 182
0.18028706 -0.077003658 -0.90760708 160 156 185
0.17961054 -0.076893762 -0.90777075 154 151 181
0.17855747 -0.077322952 -0.90806121 145 142 175
0.17847721 -0.078451164 -0.90814835 146 140 176
0.18553381 -0.076422982 -0.90814394 191 184 204
0.18549022 -0.078503519 -0.90804756 195 191 210
0.18535964 -0.079917319 -0.90796369 197 195 214
0.18253233 -0.079396881 -0.90747046 182 180 201
0.18297207 -0.080005608 -0.90752476 185 184 205
0.18404739 -0.078052133 -0.90780371 187 182 203
0.18184063 -0.076687887 -0.90727329 173 170 193
0.18376297 -0.07780847 -0.90775365 185 180 201
0.18234485 -0.07703644 -0.90740013 176 173 195
0.18232673 -0.077577889 -0.90740436 177 174 196
0.18196221 -0.078824282 -0.90733641 178 176 198
0.18856236 -0.07813862 -0.91015029 198 193 214
0.18781076 -0.078864224 -0.90959126 199 195 215
0.18810119 -0.078141101 -0.90984529 197 193 213
0.18774705 -0.078164622 -0.90960926 197 193 213
0.18864851 -0.078535639 -0.91017306 199 195 215
0.18895042 -0.077037953 -0.9105013 196 190 211
0.18681213 -0.077213466 -0.90901262 194 188 209
0.18557169 -0.07629016 -0.90816957 191 184 204
0.18618768 -0.076328531 -0.90860605 191 185 205
0.18624458 -0.077401504 -0.90860093 194 188 208
0.18668775 -0.078609489 -0.90886486 197 193 213
0.17589661 -0.081004694 -0.91003895 130 121 157
0.1762445 -0.083338581 -0.91020298 138 129 162
0.17658578 -0.082319587 -0.90974647 139 129 165
0.1773655 -0.08036945 -0.90877402 140 130 171
0.17634048 -0.08050549 -0.90959936 132 123 161
0.17714973 -0.08328981 -0.90937787 142 134 169
0.17676175 -0.082751662 -0.90965933 140 131 166
0.17748627 -0.081222259 -0.90880483 142 133 172
0.17688304 -0.083029434 -0.90958554 141 132 167
0.18108876 -0.08310432 -0.90748131 173 172 198
0.18062672 -0.083000302 -0.90768504 169 167 194
0.18017334 -0.083369233 -0.90787876 166 162 191
0.18058735 -0.083716176 -0.90769297 169 167 195
0.17977978 -0.08325915 -0.90805256 162 158 188
0.18116242 -0.081361428 -0.90747184 174 173 197
0.18008497 -0.081219219 -0.90788639 165 161 189
0.17971212 -0.080482267 -0.90790075 161 156 187
0.1782719 -0.082487963 -0.90858608 149 142 177
0.17866701 -0.082687445 -0.90849537 153 147 179
0.18030167 -0.080909558 -0.9077822 167 163 191
0.18240583 -0.083854005 -0.90735203 181 180 206
0.18409434 -0.082092807 -0.9076848 190 189 211
0.18435244 -0.083011948 -0.90768814 191 188 212
0.18402395 -0.082352817 -0.90766346 190 188 211
0.18512632 -0.081581257 -0.90786558 195 193 214
0.18367836 -0.082483687 -0.90760452 188 187 210
0.18297376 -0.080817737 -0.90751231 185 184 206
0.18216911 -0.082480416 -0.90734392 181 180 204
0.18286118 -0.080924332 -0.90749037 185 183 205
0.18244274 -0.082631677 -0.90739185 182 181 205
0.18495798 -0.080655165 -0.90787613 195 194 214
0.1887441 -0.082217008 -0.90996283 202 198 220
0.18816969 -0.081520066 -0.90962917 201 198 219
0.18771282 -0.081742816 -0.90931261 200 197 218
0.18895119 -0.080322966 -0.91022444 203 200 220
0.18694645 -0.080534495 -0.90888572 200 197 217
0.18801367 -0.080736712 -0.90957761 201 198 219
0.18600622 -0.081778675 -0.90821463 198 195 216
0.1886244 -0.08320114 -0.90982014 201 196 219
0.18631281 -0.081552438 -0.9084183 199 196 216
0.18618235 -0.082403921 -0.90830147 198 194 216
0.18609872 -0.083981827 -0.90818536 196 192 216
0.18625031 -0.083132029 -0.9083156 197 193 216
0.18957043 -0.082756415 -0.91050613 202 197 220
0.17729132 -0.084257096 -0.9093765 144 136 169
0.17874336 -0.084262952 -0.90852565 154 148 180
0.18438086 -0.085394338 -0.90770626 189 185 210
0.18427989 -0.084343977 -0.9076544 189 186 211
0.18186067 -0.084785074 -0.90729845 178 176 203
0.18278342 -0.08410757 -0.90741116 183 181 207
0.18169871 -0.084015921 -0.90723842 178 178 204
0.18742074 -0.084501036 -0.90902388 198 194 218
0.18595541 -0.085170276 -0.9080925 196 191 215
0.18628368 -0.084411345 -0.90830207 197 192 216
0.18583117 -0.084585287 -0.90801448 196 192 215
0.1897241 -0.084961914 -0.91049844 201 196 219
0.20865084 -0.073551007 -0.94847137 112 110 125
0.20843713 -0.073193051 -0.94787455 128 123 138
0.20645916 -0.072813995 -0.9468202 167 165 180
0.20814231 -0.073753983 -0.94865805 111 112 127
0.20651123 -0.072975151 -0.94706273 161 159 174
0.20659567 -0.074209407 -0.94949466 84 87 103
0.20515101 -0.072637208 -0.94631463 183 181 196
0.2063807 -0.073054075 -0.947173 157 156 171
0.20572187 -0.073413149 -0.94788152 134 135 150
0.20655915 -0.073392481 -0.94785511 136 136 151
0.2113919 -0.074016295 -0.94594342 149 142 159
0.21087265 -0.073587514 -0.94603217 151 142 159
0.21253124 -0.075576305 -0.94636798 146 142 161
0.21267088 -0.075222887 -0.94587541 146 142 161
0.21053216 -0.074356943 -0.9474259 131 126 143
0.2115401 -0.075456955 -0.94756937 125 124 141
0.209766 -0.074630462 -0.94900739 95 96 112
0.20927283 -0.073272631 -0.94768852 128 121 136
0.21244785 -0.07590837 -0.94687712 140 137 156
0.21063384 -0.074155621 -0.94696462 142 135 152
0.20926394 -0.073703647 -0.94835865 112 108 124
0.21051586 -0.07555531 -0.94927287 90 91 106
0.21071526 -0.075647026 -0.94910949 93 94 110
0.21095929 -0.07608027 -0.94939655 87 89 104
0.19673131 -0.054027785 -0.9152745 120 115 164
0.19614226 -0.053478666 -0.91486889 121 115 164
0.19669653 -0.053422067 -0.91545892 119 113 163
0.19632743 -0.05531998 -0.9144752 123 120 165
0.19684479 -0.056951907 -0.91449779 125 123 165
0.19844176 -0.058082223 -0.91445333 126 126 169
0.19872034 -0.057050891 -0.91458076 124 125 171
0.19655894 -0.064166099 -0.91459346 145 141 168
0.1980059 -0.064383149 -0.91497952 145 141 168
0.19843267 -0.063967921 -0.91484201 143 139 167
0.19992465 -0.062925905 -0.91454887 137 133 165
0.19923638 -0.062607884 -0.91452378 136 133 164
0.19835748 -0.062842794 -0.91461998 138 135 164
0.19815138 -0.062476654 -0.91455829 136 133 164
0.20265502 -0.061267011 -0.91451329 132 127 167
0.2033681 -0.060684044 -0.91457754 131 125 169
0.20431498 -0.061167527 -0.91504174 134 128 172
0.20338142 -0.061907943 -0.9149574 136 130 171
0.2025768 -0.064309575 -0.91514504 144 138 168
0.20464748 -0.062437046 -0.9152174 138 132 170
0.2037567 -0.063191503 -0.91518193 140 134 169
0.20366786 -0.062162511 -0.91508538 137 131 171
0.20319702 -0.063127525 -0.91511434 140 134 170
0.2079896 -0.063213803 -0.91621834 140 131 171
0.20820403 -0.063303344 -0.91617459 139 130 171
0.2082136 -0.063255422 -0.91620177 139 130 171
0.20748177 -0.064122617 -0.91569304 141 132 167
0.20890538 -0.061211266 -0.91736984 137 129 180
0.20884143 -0.06405028 -0.9157747 139 129 167
0.2076969 -0.06145921 -0.91695219 138 130 179
0.20559882 -0.061055526 -0.9155007 134 128 174
0.20640503 -0.062941723 -0.91620433 141 134 173
0.20540297 -0.064098068 -0.91562468 143 137 168
0.20582069 -0.062516093 -0.91577363 139 132 172
0.20700099 -0.061210994 -0.91646117 136 129 177
0.20531027 -0.062752366 -0.91544873 139 133 170
0.21267417 -0.063481249 -0.91698015 154 140 168
0.21214505 -0.062625907 -0.91737103 152 139 170
0.20984553 -0.060922965 -0.91776651 141 131 180
0.21140742 -0.061601918 -0.91780722 149 137 173
0.21113119 -0.062058065 -0.91743124 147 135 174
0.21141243 -0.063480988 -0.91664606 148 135 171
0.21116324 -0.063751444 -0.9164381 147 135 169
0.21116659 -0.063246645 -0.91672218 147 135 172
0.21047965 -0.064196222 -0.91603434 145 133 167
0.21106531 -0.063596822 -0.91650277 147 134 170
0.21179193 -0.06373436 -0.91658944 150 136 170
0.21113861 -0.063863896 -0.91636944 147 135 169
0.16494572 -0.067946374 -0.91500354 63 71 94
0.1626782 -0.066598333 -0.9165045 86 97 115
0.16445702 -0.067334391 -0.91554433 68 77 100
0.16249774 -0.066710472 -0.91647553 87 99 115
0.16372521 -0.066625379 -0.91621399 76 86 108
0.16391532 -0.066784203 -0.91605717 74 84 106
0.16440143 -0.066681564 -0.91589576 73 81 106
0.16426019 -0.065624684 -0.91543216 110 113 135
0.16422954 -0.06613604 -0.91581452 89 96 119
0.16325213 -0.064458206 -0.91628122 127 131 151
0.16383855 -0.066060938 -0.91638982 81 90 113
0.16413239 -0.065374568 -0.91547316 116 119 140
0.19685847 -0.06458813 -0.91481459 147 143 169
0.19682045 -0.066210203 -0.91497046 158 153 178
0.19677226 -0.066845588 -0.9150092 162 157 181
0.19644405 -0.066832677 -0.91481626 162 157 182
0.19637404 -0.065611191 -0.91467351 154 149 175
0.20088066 -0.066043437 -0.91519719 157 150 175
0.20073026 -0.066081189 -0.91519916 157 150 175
0.20043567 -0.066968866 -0.91530621 163 157 179
0.19836181 -0.067315206 -0.91531193 165 159 184
0.1983225 -0.067636773 -0.91535193 167 161 185
0.20057729 -0.064732417 -0.91503143 147 141 170
0.1992553 -0.065254942 -0.91508842 151 145 173
0.19733293 -0.066520385 -0.91522574 160 155 179
0.1981571 -0.065415874 -0.9151063 152 147 173
0.19729491 -0.067275696 -0.91530716 165 160 183
0.20404032 -0.066733584 -0.91531438 160 152 174
0.2049492 -0.066178918 -0.91526121 155 147 171
0.20313409 -0.066510566 -0.91545284 160 153 175
0.20399363 -0.067255832 -0.91526276 163 155 176
0.20375563 -0.066551179 -0.91537029 159 152 174
0.20424362 -0.065320216 -0.91544443 150 144 170
0.20349804 -0.065417856 -0.91538173 151 145 171
0.20121363 -0.066205092 -0.91522765 158 151 175
0.20176288 -0.065254554 -0.91516823 151 144 171
0.20149349 -0.064481929 -0.91504037 145 139 168
0.20239262 -0.065406337 -0.91525739 152 145 172
0.20830888 -0.067172594 -0.9150762 157 144 169
0.20868346 -0.06693171 -0.91510373 155 142 169
0.20885129 -0.065070838 -0.91544372 143 132 166
0.20888646 -0.068231024 -0.91485143 162 148 170
0.20875382 -0.066164404 -0.91524386 150 138 168
0.20582215 -0.067301624 -0.91514385 161 152 174
0.20750138 -0.065692313 -0.91537178 149 139 169
0.20523965 -0.06582322 -0.91528904 152 145 170
0.20707127 -0.064817242 -0.9154551 144 135 167
0.20516361 -0.064519905 -0.91543019 144 138 167
0.21191047 -0.067317419 -0.9155063 158 144 167
0.21039797 -0.067211881 -0.91533202 160 146 168
0.21238127 -0.065660208 -0.91603005 156 142 167
0.21011449 -0.067834616 -0.9151209 161 147 169
0.21246679 -0.066332035 -0.91585493 156 142 167
0.21181035 -0.065032199 -0.91608202 154 139 167
0.21152352 -0.065325849 -0.91596252 154 140 167
0.21102826 -0.065594845 -0.91580057 154 140 167
0.20928816 -0.068036184 -0.91495192 162 148 169
0.20981683 -0.067232221 -0.91522133 159 145 169
0.21444121 -0.06698285 -0.91532344 161 140 163
0.21537063 -0.067623332 -0.91490108 163 139 161
0.21370433 -0.067722566 -0.91531187 159 142 165
0.21368283 -0.066007018 -0.91579401 158 140 165
0.21401739 -0.065871589 -0.91574365 159 139 164
0.21580319 -0.065399155 -0.91466492 167 151 163
0.21560645 -0.065312788 -0.91478372 166 150 163
0.21424353 -0.065281659 -0.91562462 160 143 164
0.21538278 -0.066478185 -0.91495854 164 143 162
0.21375102 -0.065247126 -0.91592777 158 140 165
0.16336855 -0.068490952 -0.91517943 76 87 102
0.16530855 -0.068664901 -0.91473418 60 67 91
0.16581091 -0.070292957 -0.91515732 62 65 92
0.16546296 -0.068821274 -0.91474724 59 65 90
0.16545951 -0.070844255 -0.91543615 67 70 95
0.16413116 -0.070114225 -0.91553319 76 83 102
0.16517706 -0.071468338 -0.91571158 71 74 98
0.16373576 -0.071435347 -0.91572553 52 53 70
0.16235819 -0.071964651 -0.91579038 23 21 30
0.16336584 -0.070737809 -0.91566581 60 64 79
0.1629052 -0.069984294 -0.91560197 67 75 87
0.1661275 -0.069748856 -0.91484672 59 63 90
0.16672038 -0.070680223 -0.9147799 68 70 97
0.16732979 -0.070984401 -0.91448897 74 77 102
0.19600536 -0.068746492 -0.91476464 173 167 192
0.19709398 -0.069343857 -0.91552055 177 171 195
0.19703002 -0.070582502 -0.91573113 184 177 201
0.19487455 -0.07044515 -0.91446006 177 171 199
0.19494425 -0.072227411 -0.9148646 185 178 206
0.19518219 -0.072207175 -0.9149971 186 179 207
0.19452414 -0.071703278 -0.91451609 182 175 203
0.19579355 -0.068967134 -0.91468567 174 168 193
0.20082211 -0.06947688 -0.91572016 182 174 192
0.19855881 -0.072247908 -0.91623765 197 189 211
0.20020616 -0.07142476 -0.91611063 196 188 206
0.1999474 -0.070453197 -0.91590035 187 179 198
0.19872713 -0.071134046 -0.91600931 188 181 202
0.198173 -0.071290262 -0.91602743 188 181 203
0.20035237 -0.068503752 -0.91550988 175 167 186
0.19792098 -0.071541876 -0.91607314 189 182 205
0.1997074 -0.06947846 -0.9156931 179 172 191
0.19898623 -0.069082744 -0.9156006 177 170 191
0.20407552 -0.070525482 -0.91573179 189 179 196
0.20141989 -0.072078183 -0.91625017 204 196 212
0.20246436 -0.071004763 -0.91589081 194 185 202
0.20487633 -0.068678953 -0.91511232 171 162 179
0.20359774 -0.070077792 -0.91558075 185 176 193
0.20212108 -0.071376748 -0.91601533 197 189 205
0.20331892 -0.068554342 -0.91526699 173 164 181
0.20423995 -0.068750083 -0.91519213 173 164 181
0.20247047 -0.069622904 -0.91559708 183 174 191
0.20289113 -0.069026224 -0.91541946 177 169 186
0.20255874 -0.070618093 -0.91579407 190 182 198
0.20796402 -0.071213737 -0.91581959 191 180 195
0.20858109 -0.07040403 -0.91551977 183 170 187
0.20896493 -0.070545241 -0.91554642 184 171 188
0.2079899 -0.07021714 -0.9154889 182 169 187
0.20877399 -0.069325961 -0.91515344 172 159 178
0.20790111 -0.069458492 -0.91524285 174 161 181
0.20692587 -0.069144674 -0.91518295 173 161 180
0.20564595 -0.06885688 -0.91514587 172 162 180
0.20695764 -0.069901258 -0.91543573 180 168 186
0.20565274 -0.070958994 -0.91585195 192 181 197
0.20743981 -0.069138914 -0.91515708 172 160 179
0.2055307 -0.069633372 -0.91541219 180 169 186
0.21287563 -0.071037143 -0.91580653 184 172 183
0.21240382 -0.07090015 -0.91579503 183 171 184
0.21144527 -0.071962416 -0.91600043 195 183 193
0.21208832 -0.071989968 -0.91598898 195 183 191
0.2121537 -0.072038859 -0.91599566 195 183 191
0.21098542 -0.071354918 -0.91590828 189 178 191
0.21274909 -0.068381786 -0.91533744 158 145 167
0.20925452 -0.069413133 -0.91520768 172 159 178
0.20969416 -0.070402279 -0.91559374 181 169 186
0.2095529 -0.069812097 -0.9153797 176 163 181
0.20984551 -0.069379628 -0.91527623 171 158 177
0.21362802 -0.068378553 -0.9151656 160 143 165
0.216717 -0.071372502 -0.91582465 180 164 173
0.21655811 -0.071314938 -0.91583788 179 164 173
0.21579479 -0.071089059 -0.91592622 176 163 173
0.21655723 -0.068693139 -0.91455841 168 141 160
0.21391109 -0.068971746 -0.91538274 163 148 167
0.21663545 -0.069355823 -0.91486156 171 146 163
0.21382904 -0.069925472 -0.91567022 170 157 173
0.21417436 -0.069958381 -0.91569561 169 157 172
0.21525511 -0.070939884 -0.91592515 175 163 174
0.21427678 -0.071510307 -0.91596645 184 172 181
0.21299785 -0.069502816 -0.91555041 169 156 173
0.21683209 -0.068747908 -0.9145866 168 140 159
0.21771707 -0.0687906 -0.91530383 154 119 140
0.21875788 -0.068408668 -0.91591382 136 92 115
0.21734324 -0.070394427 -0.91577441 167 142 156
0.21877861 -0.070145957 -0.91674638 143 106 123
0.21800715 -0.06931708 -0.91577148 152 117 136
0.22041225 -0.068606809 -0.91726202 111 54 80
0.21839759 -0.068461031 -0.91566515 142 100 123
0.21980241 -0.072095633 -0.91691256 150 109 126
0.22004426 -0.070734449 -0.91705883 135 88 108
0.22023204 -0.069838323 -0.91716135 124 73 96
0.21748905 -0.072245367 -0.91639358 176 157 165
0.22018807 -0.070907392 -0.91707855 135 87 108
0.16534914 -0.075528726 -0.91607177 85 89 115
0.16351292 -0.076103203 -0.91641748 81 83 109
0.16528226 -0.074185163 -0.91600788 77 78 105
0.16588138 -0.075065173 -0.91595495 85 89 114
0.16357076 -0.07542596 -0.91636962 77 78 105
0.16450785 -0.072641835 -0.91587359 53 52 74
0.1624106 -0.072936893 -0.9159618 29 26 39
0.1626287 -0.074694633 -0.91633719 59 58 81
0.16343842 -0.073834047 -0.91614258 57 56 78
0.16247226 -0.072385401 -0.91584241 21 18 28
0.16801494 -0.075077988 -0.91506594 93 97 121
0.16699612 -0.073687658 -0.91542971 80 82 108
0.16616103 -0.073900908 -0.91580379 78 81 107
0.16844608 -0.076108381 -0.91493678 101 106 129
0.16791025 -0.076069392 -0.91516691 99 104 127
0.1689463 -0.075175278 -0.91460711 98 102 125
0.16690217 -0.072313964 -0.91521358 75 76 102
0.16776977 -0.073271483 -0.9148919 85 86 111
0.16679437 -0.072426647 -0.91531157 75 75 102
0.19571407 -0.072577499 -0.91533506 188 182 208
0.19717216 -0.073743284 -0.91624892 195 189 214
0.19687931 -0.075341426 -0.9161855 197 193 218
0.19621117 -0.073566794 -0.91568542 192 186 212
0.19594018 -0.072359391 -0.91545057 189 182 208
0.19520441 -0.075055346 -0.91501009 194 188 214
0.19566485 -0.074395418 -0.91539103 192 187 213
0.19481222 -0.073383145 -0.9148249 188 182 209
0.19429702 -0.072823785 -0.91447949 185 179 207
0.19550808 -0.075673938 -0.91519564 196 191 217
0.20034923 -0.075979665 -0.91677582 210 205 225
0.20034468 -0.074166283 -0.91650468 206 200 219
0.19878496 -0.075523369 -0.91653395 204 199 221
0.1978199 -0.075814016 -0.91647017 201 197 220
0.1994532 -0.074169457 -0.9164061 203 198 217
0.19801359 -0.074316911 -0.91636091 199 194 216
0.19841075 -0.074564286 -0.91638798 200 195 217
0.19848578 -0.072649926 -0.91626453 197 190 212
0.19958495 -0.073791772 -0.91636956 203 197 216
0.19744495 -0.07379996 -0.91631138 196 190 214
0.1977289 -0.074859895 -0.91638869 199 194 217
0.20262854 -0.075483896 -0.91670507 213 206 223
0.20410465 -0.075794853 -0.91654384 215 209 224
0.2025115 -0.075066201 -0.91670525 211 204 222
0.20477112 -0.07357768 -0.91639555 209 199 215
0.20347467 -0.074307054 -0.91656929 210 202 218
0.20305814 -0.076007344 -0.91667199 215 209 225
0.20128568 -0.075211339 -0.91675276 212 206 223
0.20259441 -0.074408859 -0.91663468 210 202 219
0.20305109 -0.073212683 -0.9164567 207 198 215
0.20196098 -0.073340528 -0.91647434 207 200 216
0.20161803 -0.073993042 -0.91657138 209 202 219
0.20264786 -0.072378583 -0.91633171 205 196 212
0.2072781 -0.075853661 -0.91615844 214 206 220
0.20784286 -0.073896401 -0.91618425 207 198 211
0.20837307 -0.07292898 -0.91616267 203 193 206
0.20790662 -0.075206414 -0.91610646 211 202 217
0.20727152 -0.075720549 -0.91616631 214 205 220
0.20627527 -0.073878966 -0.91630709 209 200 214
0.20722744 -0.073476575 -0.91624445 206 197 210
0.20604306 -0.073669434 -0.91631252 208 199 213
0.20878616 -0.072360732 -0.91612738 201 190 203
0.20539737 -0.075727545 -0.91641212 216 209 222
0.20609836 -0.073324382 -0.91629857 207 197 212
0.21177803 -0.073847212 -0.91601795 203 192 202
0.21283647 -0.075232685 -0.91621804 207 197 211
0.21181689 -0.074705288 -0.91608173 206 196 208
0.21209793 -0.073105887 -0.91599739 200 189 197
0.2117314 -0.075362422 -0.91611934 208 199 212
0.21112339 -0.073390618 -0.91600102 202 191 201
0.21183939 -0.072886929 -0.9160096 200 188 196
0.21185783 -0.072470337 -0.91603112 198 187 195
0.21069472 -0.073714308 -0.91599464 204 193 204
0.21204832 -0.072590321 -0.91601998 198 187 194
0.2163986 -0.075548045 -0.91682082 207 200 208
0.21441385 -0.074951656 -0.91633028 202 193 204
0.21397486 -0.075427674 -0.91634315 205 196 209
0.21608084 -0.076023638 -0.91685635 210 204 213
0.21659262 -0.074228667 -0.91659367 198 189 195
0.216473 -0.075341173 -0.91679347 205 199 206
0.21315487 -0.075261727 -0.91624045 206 197 210
0.21521908 -0.073182128 -0.91621351 192 181 188
0.21378888 -0.074228808 -0.91620463 201 190 201
0.21499595 -0.073292568 -0.91620845 193 182 190
0.21364814 -0.07264737 -0.91608608 195 184 190
0.21812223 -0.076144665 -0.9173947 188 171 176
0.21901089 -0.074741974 -0.91727489 173 144 155
0.21886148 -0.074518047 -0.91717184 175 148 160
0.21758325 -0.075838335 -0.91715723 198 185 192
0.21837333 -0.07494133 -0.91714454 184 162 172
0.22013867 -0.072716594 -0.91706491 152 109 127
0.21719159 -0.075223587 -0.91691738 201 190 198
0.21726316 -0.07435488 -0.91675967 194 181 189
0.21800488 -0.072895125 -0.91663128 175 153 163
0.21732295 -0.075062595 -0.91691411 198 186 195
0.21907185 -0.07324899 -0.91693658 167 135 149
0.22084667 -0.073673472 -0.91752106 140 94 107
0.22101447 -0.072875708 -0.9171477 133 89 105
0.15873933 -0.079231724 -0.91816622 145 141 145
0.15851653 -0.078714512 -0.9178896 133 129 131
0.15940787 -0.078790978 -0.91775936 112 106 116
0.15998352 -0.079053834 -0.91780049 105 99 113
0.16193172 -0.079964727 -0.91791034 82 76 104
0.16105798 -0.079202034 -0.91763192 80 73 96
0.16181985 -0.078947373 -0.91754854 78 72 100
0.16183114 -0.07848455 -0.91739786 77 72 100
0.16088463 -0.076748915 -0.91675997 69 65 86
0.15983525 -0.076313615 -0.91654032 62 58 71
0.16061155 -0.077419795 -0.91695958 69 63 82
0.16170646 -0.078548387 -0.91740954 77 72 98
0.16503687 -0.079517491 -0.91723907 104 108 136
0.16407739 -0.078163981 -0.91697681 87 87 114
0.16561173 -0.076635011 -0.91621417 92 96 121
0.16566864 -0.078162231 -0.91669279 101 107 134
0.16225927 -0.079962343 -0.91787624 82 76 105
0.16496101 -0.077318199 -0.91654873 90 93 118
0.16211632 -0.076643541 -0.91681421 76 75 103
0.16214418 -0.07674183 -0.91684163 77 75 103
0.16378172 -0.076954275 -0.91663158 84 85 111
0.16351652 -0.076257035 -0.91644859 82 83 110
0.16445874 -0.077260971 -0.91661644 87 89 115
0.16836266 -0.076458633 -0.91504848 102 107 130
0.16965477 -0.077172048 -0.91466337 109 112 136
0.16970173 -0.078490496 -0.91496211 112 114 138
0.16984247 -0.078080833 -0.91480213 112 114 138
0.16913117 -0.078074753 -0.91510808 109 111 136
0.16862601 -0.07723438 -0.91512305 105 109 133
0.16752827 -0.079876132 -0.91640776 115 120 147
0.16744189 -0.077858172 -0.91580606 103 107 132
0.16668107 -0.079987414 -0.91687566 115 123 150
0.16623922 -0.077464283 -0.91629368 100 107 132
0.16680643 -0.07988067 -0.91677755 115 122 149
0.16645658 -0.077641159 -0.91623938 101 107 133
0.16699633 -0.07907746 -0.91642362 110 116 142
0.17032015 -0.078773543 -0.91454601 113 113 139
0.17027447 -0.079281718 -0.91471368 115 114 140
0.19637167 -0.077504598 -0.91581523 199 195 219
0.19579545 -0.076444387 -0.91537941 198 193 218
0.19722289 -0.076652355 -0.916435 199 197 220
0.19623341 -0.077185594 -0.91571003 198 194 219
0.19502676 -0.07779973 -0.91486448 198 193 218
0.19469589 -0.079017401 -0.91470283 198 194 218
0.1956609 -0.078026801 -0.91530633 198 194 218
0.19477352 -0.078518063 -0.91472971 198 194 218
0.19527747 -0.077844806 -0.91503686 198 193 218
0.20015649 -0.080051236 -0.91706389 211 206 225
0.19942465 -0.078497134 -0.91677386 208 204 224
0.19821888 -0.079317912 -0.91661555 203 200 222
0.20008928 -0.078232288 -0.91687888 210 206 225
0.19972949 -0.079595804 -0.91693729 209 205 224
0.1974815 -0.076555304 -0.91648978 200 197 221
0.19851646 -0.076572895 -0.91660494 204 200 222
0.1977431 -0.07631547 -0.91651642 201 198 221
0.19751178 -0.078192823 -0.91650951 200 198 221
0.19775802 -0.077722371 -0.91653216 201 198 221
0.20384881 -0.079505518 -0.91691393 218 212 228
0.20334406 -0.078527823 -0.91687065 217 211 226
0.20364675 -0.0785705 -0.91684175 218 211 226
0.20410834 -0.079802692 -0.91691548 219 212 228
0.20315467 -0.079845943 -0.91702431 218 211 228
0.20490752 -0.07666216 -0.91651106 218 212 225
0.20200874 -0.078758366 -0.91704333 216 210 226
0.20250548 -0.077648059 -0.91688079 216 210 226
0.20163497 -0.077750616 -0.91699141 215 209 226
0.20360571 -0.077203341 -0.91671115 217 211 225
0.20204653 -0.078735143 -0.91703671 216 210 226
0.20608591 -0.079714358 -0.9166888 220 213 228
0.20891495 -0.078567512 -0.916255 218 210 224
0.20834945 -0.079175465 -0.91639549 219 211 226
0.20703305 -0.079135746 -0.91651595 219 211 227
0.2083474 -0.078257091 -0.91626525 217 209 224
0.20567338 -0.077875741 -0.91653329 218 211 226
0.20775828 -0.076737076 -0.91613287 215 206 222
0.20838287 -0.076588809 -0.91603237 214 205 221
0.20657128 -0.077647448 -0.91638726 217 209 224
0.20758727 -0.076461837 -0.91612852 215 207 222
0.21225353 -0.078228883 -0.9164508 214 206 221
0.21139373 -0.079874277 -0.91656291 218 209 224
0.21271427 -0.079162069 -0.91656125 215 206 221
0.21213397 -0.077302374 -0.91635782 213 204 220
0.21127567 -0.078915678 -0.91646701 216 208 223
0.21025978 -0.076717086 -0.91610986 213 204 220
0.20949543 -0.077186562 -0.91610205 215 206 221
0.2090213 -0.077620715 -0.91611749 216 207 222
0.20935649 -0.078858405 -0.91632605 218 210 225
0.20966497 -0.079316802 -0.91642123 219 211 226
0.21656542 -0.079156049 -0.91718519 215 209 218
0.2160679 -0.078352466 -0.91705054 214 208 217
0.21493623 -0.0795191 -0.91694748 215 208 220
0.21623157 -0.079081528 -0.91712636 215 208 218
0.21572332 -0.079696074 -0.91708618 215 209 219
0.21370392 -0.078129984 -0.91662508 214 206 219
0.21519856 -0.077108748 -0.9168089 213 206 216
0.21334897 -0.07694225 -0.91644704 212 203 218
0.21435851 -0.077368431 -0.91667604 213 205 217
0.21449143 -0.077255987 -0.91669035 213 205 217
0.21772286 -0.080016308 -0.917714 200 188 194
0.21826905 -0.079789393 -0.91791737 191 175 178
0.21812828 -0.077455185 -0.9174909 190 172 178
0.21803844 -0.077729709 -0.91748357 191 174 181
0.21705888 -0.077025786 -0.91715348 208 200 207
0.21835278 -0.076338731 -0.91747981 185 165 170
0.21855588 -0.077073462 -0.91758823 182 160 165
0.16094208 -0.08043211 -0.91826266 114 108 129
0.16102973 -0.081038229 -0.91830158 110 104 127
0.16361929 -0.082500219 -0.91789222 92 92 125
0.16550624 -0.081447788 -0.9174574 113 120 149
0.1660101 -0.082130998 -0.91742641 122 131 157
0.16404688 -0.081128396 -0.91769081 97 98 129
0.16316248 -0.081170216 -0.91785222 90 87 118
0.16560863 -0.080452025 -0.91735077 112 119 148
0.16222891 -0.082370535 -0.91812819 80 74 108
0.16383861 -0.080923036 -0.91770911 96 96 126
0.16267022 -0.082392409 -0.91805154 84 80 113
0.16991305 -0.08299493 -0.91587949 129 129 154
0.16924949 -0.081631146 -0.91584229 123 124 149
0.16888221 -0.081270561 -0.91590613 121 122 148
0.16749473 -0.081191383 -0.91658783 120 125 151
0.16692871 -0.083024025 -0.9170385 126 132 157
0.16899374 -0.080590561 -0.91576993 119 120 146
0.16817537 -0.081464991 -0.91626471 121 124 150
0.16840008 -0.08101698 -0.91611052 120 123 149
0.16633669 -0.080149241 -0.91708672 116 124 152
0.17055175 -0.0835208 -0.91541028 132 130 154
0.1700474 -0.083302572 -0.9158268 131 130 155
0.1706951 -0.081248052 -0.9147774 122 119 145
0.19524974 -0.080932371 -0.91511685 199 197 219
0.19545764 -0.080941491 -0.91525769 200 197 219
0.19712864 -0.083226793 -0.91634738 202 201 222
0.19720498 -0.080761656 -0.91644645 200 198 221
0.19644243 -0.080726072 -0.91592985 200 198 220
0.19640598 -0.082962997 -0.9158628 201 200 221
0.19476625 -0.082932994 -0.91476429 200 197 218
0.19480458 -0.083681501 -0.91478032 200 197 218
0.19524005 -0.08369419 -0.91507202 200 198 219
0.19432926 -0.082150593 -0.91448146 199 196 218
0.19980682 -0.082504198 -0.91698891 211 207 225
0.1989675 -0.082723245 -0.91679859 208 205 224
0.20097451 -0.081525728 -0.91724277 215 210 227
0.197863 -0.08356192 -0.91655707 204 203 223
0.19833721 -0.083195046 -0.91666067 206 204 224
0.1994518 -0.083257645 -0.91691899 210 207 225
0.19874682 -0.080393843 -0.91678452 206 202 223
0.20053507 -0.080665946 -0.91712916 213 208 226
0.1974926 -0.083031647 -0.91648865 203 201 222
0.19871542 -0.082078278 -0.91674608 207 204 224
0.19887401 -0.080453768 -0.91680831 206 203 223
0.20168968 -0.083655722 -0.917283 216 212 228
0.20382963 -0.082087442 -0.91707438 219 213 229
0.20459104 -0.08235845 -0.91708779 219 214 230
0.20454623 -0.08344537 -0.91720361 219 215 231
0.20288181 -0.083391197 -0.91723114 217 213 229
0.20318833 -0.081781141 -0.91707152 218 212 228
0.20464328 -0.080283649 -0.91688794 220 213 229
0.20275366 -0.081368946 -0.91711247 218 212 228
0.20140925 -0.081727937 -0.91726565 216 211 227
0.20168301 -0.080843583 -0.91722131 216 210 227
0.20357515 -0.080111675 -0.9170022 219 212 228
0.2087511 -0.083310351 -0.91703129 222 216 232
0.20683573 -0.082792647 -0.91699433 220 215 230
0.20840214 -0.081797294 -0.91677797 221 215 230
0.20767884 -0.08386305 -0.91715699 221 216 232
0.20723417 -0.082255729 -0.91688997 220 215 230
0.20625165 -0.082956672 -0.91703898 220 215 230
0.2051686 -0.080411866 -0.91686362 220 214 230
0.20669667 -0.082019329 -0.91688728 220 214 230
0.20607847 -0.08225958 -0.91697186 220 215 230
0.20709774 -0.080547772 -0.91669327 220 214 229
0.20768796 -0.080827869 -0.91666639 220 214 229
0.20565626 -0.083145998 -0.91710597 220 215 231
0.21286973 -0.081561394 -0.91693044 217 209 223
0.21057235 -0.082495168 -0.9169628 220 213 228
0.21171105 -0.08261206 -0.91705453 219 212 227
0.21135199 -0.083724551 -0.91723925 220 213 229
0.21246928 -0.083112963 -0.91719419 218 211 226
0.21057051 -0.083157741 -0.91708583 220 214 229
0.21084513 -0.08172787 -0.91684175 219 212 227
0.2116535 -0.080368005 -0.91664529 218 210 224
0.20969218 -0.081438154 -0.9167344 220 213 228
0.20920414 -0.082600281 -0.91691238 222 215 230
0.20918508 -0.081769913 -0.916767 221 214 229
0.21648404 -0.082728982 -0.91780156 218 214 224
0.21596147 -0.082231238 -0.91759253 217 212 223
0.21623632 -0.081728399 -0.91753608 217 212 222
0.21600802 -0.081614017 -0.91746718 217 211 222
0.21621917 -0.083412379 -0.91789919 218 215 225
0.214223 -0.081009626 -0.91704369 217 209 222
0.21303016 -0.080716692 -0.91679716 217 208 222
0.21478759 -0.081215493 -0.91717285 217 210 222
0.21419795 -0.082047388 -0.91723257 217 210 223
0.21399227 -0.080384441 -0.91689032 216 208 221
0.21364924 -0.081820853 -0.91710204 217 210 223
0.21756987 -0.082946941 -0.91827798 205 196 203
0.21793766 -0.081176423 -0.9180724 198 186 190
0.21734697 -0.082734913 -0.9181276 209 202 208
0.2180324 -0.081084177 -0.91809785 196 184 187
0.19617419 -0.084009953 -0.91569406 201 200 221
0.1959113 -0.084623389 -0.91551208 201 199 220
0.19621846 -0.085531011 -0.91570932 202 199 221
0.19645686 -0.084559157 -0.9158783 202 200 221
0.19543159 -0.085737564 -0.9151631 201 198 220
0.20050034 -0.085475639 -0.91718227 213 210 227
0.20088631 -0.084527977 -0.91726428 215 211 227
0.19947003 -0.084984802 -0.91692549 210 207 226
0.19912581 -0.084962368 -0.91684622 209 206 225
0.19830391 -0.08399462 -0.91666555 206 204 224
0.20004019 -0.084911242 -0.91705787 212 208 226
0.20480888 -0.085877247 -0.91730207 220 216 231
0.20454541 -0.085706547 -0.9173013 219 215 231
0.20174512 -0.08611121 -0.91735739 216 213 230
0.20362052 -0.084970251 -0.91729802 218 214 231
0.2030881 -0.085489661 -0.91731864 217 214 231
0.20275825 -0.084203914 -0.91730058 217 213 229
