ply
format ascii 1.0
comment PCL generated
element vertex 256
property float x
property float y
property float z
property uchar red
property uchar green
property uchar blue
element camera 1
property float view_px
property float view_py
property float view_pz
property float x_axisx
property float x_axisy
property float x_axisz
property float y_axisx
property float y_axisy
property float y_axisz
property float z_axisx
property float z_axisy
property float z_axisz
property float focal
property float scalex
property float scaley
property float centerx
property float centery
property int viewportx
property int viewporty
property float k1
property float k2
end_header
-0.21696684 -0.12229364 -0.8172031 98 92 108
-0.21720695 -0.12118277 -0.81867486 113 110 125
-0.21752094 -0.12137435 -0.8187449 112 108 124
-0.21799093 -0.12301232 -0.81702006 101 94 111
-0.21841832 -0.12302723 -0.81767368 96 85 107
-0.21853058 -0.1216785 -0.81988382 99 86 112
-0.21795747 -0.12188558 -0.81866509 105 98 117
-0.21871476 -0.12161198 -0.82027543 97 83 110
-0.21740733 -0.12003848 -0.82057834 118 113 132
-0.21761845 -0.12051395 -0.82019579 114 108 127
-0.21373491 -0.12186535 -0.81870431 80 71 77
-0.21406364 -0.12152873 -0.81925732 85 78 86
-0.21367274 -0.12175179 -0.81955451 79 74 80
-0.2139129 -0.12159196 -0.81949478 83 77 84
-0.21593724 -0.12000132 -0.82030213 114 112 124
-0.21595441 -0.11995076 -0.82050872 115 114 126
-0.21444587 -0.12120597 -0.81953061 91 86 94
-0.21478327 -0.12188475 -0.81776917 88 77 86
-0.21492895 -0.12174966 -0.81792015 90 80 90
-0.21438047 -0.12167062 -0.8180607 88 76 84
-0.21637638 -0.12052384 -0.81927949 112 108 122
-0.21526538 -0.12082892 -0.81900311 102 95 105
-0.21645187 -0.12027176 -0.81957734 115 112 126
-0.2161403 -0.12054659 -0.8192715 110 106 119
-0.21281199 -0.12235742 -0.8198368 67 63 68
-0.21245119 -0.12270778 -0.82045001 68 67 72
-0.22044808 -0.12385835 -0.81797034 106 93 118
-0.2181661 -0.12308024 -0.81715488 100 92 111
-0.21840355 -0.12314014 -0.81732517 100 91 110
-0.21081805 -0.12656324 -0.82029194 134 112 108
-0.21178371 -0.12394504 -0.82052696 86 81 84
-0.21003081 -0.12616313 -0.81785566 149 138 131
-0.21210709 -0.12316523 -0.82069159 71 70 76
-0.20993432 -0.12641978 -0.81782776 154 141 133
-0.21015236 -0.12623477 -0.81824052 147 134 127
-0.21131541 -0.12455153 -0.81745744 107 94 92
-0.21174192 -0.12385952 -0.81864053 89 81 82
-0.21221824 -0.12318324 -0.8193599 71 65 70
-0.21067105 -0.12528633 -0.81760687 127 116 112
-0.21121654 -0.12452739 -0.8183338 107 98 97
-0.21129355 -0.12465017 -0.81700289 110 95 92
-0.21162854 -0.12427681 -0.81687117 99 83 82
-0.20987974 -0.12742612 -0.81919575 162 139 133
-0.21033545 -0.12708728 -0.81964093 152 129 123
-0.20954239 -0.12774992 -0.81903613 169 143 140
-0.20973301 -0.1276619 -0.8193475 164 137 134
-0.21011496 -0.12701504 -0.8189069 156 136 128
-0.22125147 -0.11745042 -0.83731079 63 36 36
-0.22101064 -0.11822807 -0.83895814 71 42 55
-0.22092344 -0.11855222 -0.83972806 75 45 64
-0.22097632 -0.11783729 -0.83714992 64 36 37
-0.22229613 -0.11650373 -0.84004819 65 44 56
-0.22185731 -0.11674611 -0.83826578 61 39 41
-0.22266057 -0.11582755 -0.83906251 59 41 46
-0.221201 -0.11748577 -0.83709008 62 35 35
-0.22245021 -0.11608158 -0.83859831 60 40 43
-0.22218882 -0.1165183 -0.83657295 59 37 34
-0.222747 -0.11572365 -0.8392477 59 41 47
-0.21984303 -0.11913101 -0.83671772 76 55 58
-0.22051989 -0.11890822 -0.83886296 74 44 59
-0.21681488 -0.12128601 -0.83643007 46 50 45
-0.2168704 -0.12150425 -0.83672142 41 44 40
-0.21879445 -0.12235584 -0.8395052 13 10 10
-0.21761803 -0.12072121 -0.83643842 54 52 48
-0.21935622 -0.12049449 -0.83767462 50 37 37
-0.2191067 -0.12057722 -0.83755976 49 38 38
-0.21725415 -0.12133732 -0.83688885 43 45 41
-0.21858622 -0.12090711 -0.83751637 45 38 37
-0.21950679 -0.12076367 -0.8389287 45 30 36
-0.21953548 -0.12102251 -0.839643 40 25 34
-0.21902575 -0.12184805 -0.83923423 23 16 18
-0.21911196 -0.12183068 -0.83958024 24 16 19
-0.21911079 -0.12194724 -0.8398388 21 14 18
-0.21990301 -0.12018219 -0.83938277 56 36 48
-0.22116236 -0.12117532 -0.84778911 2 2 2
-0.22213788 -0.12002703 -0.84770876 3 3 3
-0.22071648 -0.12147032 -0.84649384 17 14 17
-0.22150004 -0.12045545 -0.84589303 24 20 24
-0.22094715 -0.12093702 -0.84495771 34 29 35
-0.22247374 -0.11914626 -0.84555805 34 29 35
-0.22285169 -0.11920703 -0.84779918 3 2 3
-0.22221111 -0.11936338 -0.84506255 40 34 40
-0.2158643 -0.1230259 -0.81589514 89 80 93
-0.21496446 -0.12300763 -0.81616914 82 70 81
-0.21494548 -0.12273159 -0.81675279 80 68 79
-0.21832295 -0.12346319 -0.81621575 106 100 117
-0.21873324 -0.12367952 -0.81609768 110 104 120
-0.21716762 -0.12346829 -0.81479448 104 98 114
-0.21982796 -0.12408251 -0.81623888 118 112 129
-0.21931967 -0.12384937 -0.81631213 114 108 124
-0.21739773 -0.12350126 -0.81498021 105 99 115
-0.21986717 -0.12418061 -0.81523418 127 121 138
-0.21401896 -0.12411246 -0.81334054 65 53 72
-0.21405351 -0.12362775 -0.81464779 74 61 73
-0.21463445 -0.12383758 -0.81388897 79 68 83
-0.21459681 -0.12404398 -0.81333971 75 65 82
-0.21514647 -0.12353507 -0.81455541 91 80 92
-0.21581297 -0.12308436 -0.8157447 90 81 94
-0.21407278 -0.12316939 -0.81593287 77 63 71
-0.21528597 -0.1234142 -0.81488436 91 80 92
-0.20918413 -0.12585416 -0.81552756 130 117 115
-0.20921585 -0.12593859 -0.81567997 135 122 119
-0.21041098 -0.12563308 -0.8167212 136 121 115
-0.21039593 -0.12499838 -0.81616759 116 101 100
-0.20976463 -0.12492392 -0.81547362 110 96 98
-0.21060959 -0.12445092 -0.81591654 100 84 86
-0.21017614 -0.12462425 -0.8156305 103 88 91
-0.20999551 -0.12496996 -0.81574339 113 99 99
-0.21964353 -0.11855623 -0.83103484 74 70 68
-0.21865259 -0.11889665 -0.8289215 66 56 61
-0.22043905 -0.11817288 -0.83208948 76 68 65
-0.21706636 -0.12113966 -0.83071333 77 60 72
-0.2192111 -0.11927716 -0.83220845 69 63 57
-0.21773489 -0.12059936 -0.8313759 75 62 69
-0.21728258 -0.1209102 -0.83066052 75 59 70
-0.21909353 -0.11939754 -0.83221579 70 63 59
-0.21837346 -0.11966997 -0.83037722 68 55 58
-0.21866301 -0.11935189 -0.83049387 67 56 57
-0.21872744 -0.11937539 -0.83078265 67 57 57
-0.21856363 -0.1191632 -0.82962334 64 53 57
-0.21561725 -0.12298395 -0.83062345 69 49 63
-0.21602839 -0.12246013 -0.83100772 66 46 62
-0.21541436 -0.12297449 -0.82877594 75 54 64
-0.21619174 -0.12193527 -0.8292008 71 48 63
-0.21676581 -0.12168284 -0.83184361 81 68 82
-0.21603326 -0.12255853 -0.83161336 65 46 63
-0.21638885 -0.12195072 -0.83083296 70 51 67
-0.21520121 -0.12321474 -0.82855254 80 60 68
-0.21315919 -0.12564477 -0.82882231 139 132 125
-0.21432538 -0.12436684 -0.82888287 98 84 86
-0.21410242 -0.12572984 -0.83105713 31 24 26
-0.21444201 -0.12418896 -0.82879114 97 82 85
-0.21539001 -0.12332764 -0.83036685 65 47 59
-0.21486138 -0.12452268 -0.83148414 42 30 39
-0.21485664 -0.12424802 -0.83011431 51 37 44
-0.21423724 -0.12584718 -0.83238512 17 12 17
-0.21483532 -0.12439477 -0.83063579 47 34 42
-0.21431823 -0.12566145 -0.83220118 21 15 20
-0.2148211 -0.12425564 -0.82983774 52 38 44
-0.21288541 -0.12616989 -0.82924044 134 128 121
-0.21157257 -0.12777252 -0.8286531 149 138 140
-0.21174015 -0.12764442 -0.82890397 141 131 132
-0.21185467 -0.12765005 -0.8291437 132 122 123
-0.2171679 -0.11963337 -0.82078809 122 120 136
-0.21826397 -0.11989757 -0.82185036 113 109 126
-0.21310537 -0.12296377 -0.82212538 79 79 81
-0.21361428 -0.12219463 -0.82216632 72 66 67
-0.21446207 -0.12210211 -0.8235454 74 62 59
-0.21375567 -0.12250105 -0.82291335 76 70 70
-0.21421181 -0.12234405 -0.82348305 76 66 64
-0.21386164 -0.12210103 -0.82246178 72 64 64
-0.2146779 -0.1210217 -0.82163709 78 71 73
-0.2157177 -0.12011135 -0.82083565 109 108 118
-0.21497276 -0.12068698 -0.82104951 93 91 98
-0.21332355 -0.12367504 -0.82430553 75 72 70
-0.21323989 -0.12375154 -0.82432121 74 71 69
-0.21237671 -0.12418938 -0.82300901 77 73 78
-0.21279441 -0.12356976 -0.82278198 76 76 78
-0.21227548 -0.12387342 -0.82214379 77 73 80
-0.21178098 -0.12406819 -0.82143331 76 69 77
-0.21193178 -0.12368403 -0.82085699 77 73 79
-0.21130988 -0.12547453 -0.82143778 100 85 89
-0.21136929 -0.12528817 -0.82151592 96 82 87
-0.22099233 -0.11775114 -0.83302635 73 62 59
-0.22087705 -0.11786907 -0.83302283 73 62 59
-0.21961014 -0.1189977 -0.83296025 71 63 57
-0.21970089 -0.11894056 -0.83320296 71 63 58
-0.22022817 -0.11858974 -0.83446419 76 61 59
-0.22028078 -0.11853166 -0.83487171 74 56 54
-0.21697056 -0.12115889 -0.83581674 55 55 53
-0.21857376 -0.1200005 -0.83606404 68 56 56
-0.21821335 -0.12036983 -0.83524054 72 60 63
-0.21727473 -0.12106012 -0.83501065 65 60 62
-0.21769665 -0.12093113 -0.83383554 79 67 75
-0.21872212 -0.1199303 -0.83366251 76 64 66
-0.21899225 -0.11963941 -0.83347094 74 64 62
-0.2179897 -0.12067033 -0.83365595 80 67 74
-0.21912447 -0.11960535 -0.83454615 76 61 62
-0.21839221 -0.12025411 -0.83355677 77 66 69
-0.21589266 -0.12282021 -0.83275902 61 46 61
-0.21573798 -0.1226309 -0.83435565 38 32 39
-0.21556146 -0.12289539 -0.83418059 37 28 37
-0.21673723 -0.12176214 -0.83285975 78 69 81
-0.21597381 -0.12214498 -0.8357656 31 31 31
-0.2155983 -0.12263359 -0.83507764 26 23 27
-0.21627255 -0.12196802 -0.83481991 47 45 48
-0.21491075 -0.1254569 -0.83559412 22 21 26
-0.21406071 -0.12614143 -0.83354038 4 3 4
-0.21464047 -0.12456606 -0.83515358 4 4 5
-0.21486801 -0.12470433 -0.83564174 12 12 15
-0.21508759 -0.12422315 -0.83623058 14 13 16
-0.21462117 -0.12658112 -0.83472377 25 24 30
-0.21513043 -0.12306678 -0.83575052 8 6 8
-0.21479404 -0.12389938 -0.83512127 5 4 5
-0.21477666 -0.12484264 -0.8325038 32 23 32
-0.21453156 -0.12465823 -0.83431667 6 4 6
-0.21534498 -0.12357165 -0.83317763 42 30 42
-0.21554989 -0.12307904 -0.83351922 44 31 44
-0.21455976 -0.12755816 -0.83469057 59 55 62
-0.2142355 -0.12759587 -0.83396816 51 48 53
-0.21297242 -0.12451594 -0.81215835 55 43 64
-0.21350484 -0.12437832 -0.81263703 57 45 66
-0.21565539 -0.12424126 -0.81187004 107 99 116
-0.21437219 -0.12432897 -0.81228948 78 67 87
-0.21355641 -0.12455221 -0.81147629 76 65 85
-0.21258266 -0.12474661 -0.81120789 61 49 69
-0.21177222 -0.12514423 -0.80989075 62 52 68
-0.21188691 -0.12512307 -0.80985081 66 56 72
-0.21207948 -0.12506706 -0.80991584 69 59 76
-0.21793354 -0.12005023 -0.82803267 70 53 65
-0.2177252 -0.11997788 -0.82835233 68 49 61
-0.21765855 -0.12077086 -0.82759035 76 55 70
-0.21564835 -0.1215286 -0.82490367 71 49 41
-0.21468385 -0.12271253 -0.82521963 81 67 65
-0.21498305 -0.12221034 -0.82470357 77 61 56
-0.21508008 -0.12288359 -0.82712698 78 60 64
-0.21483713 -0.12297123 -0.82655412 80 64 67
-0.21563491 -0.12247926 -0.82785183 73 51 56
-0.21375121 -0.12442869 -0.82757086 108 98 97
-0.21315363 -0.1253375 -0.8281408 141 134 128
-0.21349381 -0.12489114 -0.82798624 126 117 113
-0.21464416 -0.12373789 -0.82831639 95 79 83
-0.2130463 -0.12439532 -0.82559681 86 83 80
-0.21428546 -0.12330566 -0.82593971 78 67 69
-0.21451075 -0.12313974 -0.82603747 81 68 70
-0.21287006 -0.12419662 -0.8246451 70 68 66
-0.21283798 -0.12483799 -0.8261041 104 100 96
-0.21214268 -0.12632219 -0.82788461 153 144 143
-0.21264556 -0.1255652 -0.82735449 135 129 124
-0.21142712 -0.12791 -0.8283512 154 143 145
-0.21134609 -0.12716155 -0.82710582 142 127 134
-0.22218385 -0.11804636 -0.84233809 60 45 57
-0.22154661 -0.11856408 -0.841591 67 46 62
-0.2223947 -0.11652827 -0.84044331 64 44 57
-0.22149134 -0.11879205 -0.84181744 67 46 63
-0.22223102 -0.1188975 -0.84380794 54 45 55
-0.22260702 -0.11687142 -0.84151232 59 44 54
-0.22175859 -0.11787181 -0.84101248 67 45 61
-0.22241729 -0.11829833 -0.84341979 55 46 54
-0.22245283 -0.11825019 -0.84382701 57 48 55
-0.22279456 -0.11674847 -0.84198326 57 46 53
-0.22299115 -0.11618918 -0.84261125 62 52 54
-0.22258197 -0.11761779 -0.84277034 56 46 54
-0.2230989 -0.11601917 -0.84371251 66 58 56
-0.2210414 -0.11973154 -0.84237331 63 44 59
-0.22083673 -0.11943458 -0.84128791 72 46 66
-0.22073475 -0.12094994 -0.84396827 45 37 46
-0.22053896 -0.12091595 -0.84341913 46 35 45
-0.22056764 -0.12032373 -0.84234285 57 39 53
-0.22023992 -0.12106635 -0.84297353 42 29 39
-0.22000286 -0.12072064 -0.84161615 46 27 41
-0.2194061 -0.12193067 -0.84173995 22 13 20
-0.21882682 -0.12287445 -0.8409729 3 2 3
-0.21924554 -0.12246683 -0.84258264 11 6 10
-0.21918155 -0.12253779 -0.84237009 10 5 9
-0.21933328 -0.12251022 -0.84341502 10 6 9
0 0 0 1 0 0 0 1 0 0 0 1 0 0 0 0 0 256 1 0 0
