ply
format ascii 1.0
comment PCL generated
element vertex 393
property float x
property float y
property float z
property uchar red
property uchar green
property uchar blue
element camera 1
property float view_px
property float view_py
property float view_pz
property float x_axisx
property float x_axisy
property float x_axisz
property float y_axisx
property float y_axisy
property float y_axisz
property float z_axisx
property float z_axisy
property float z_axisz
property float focal
property float scalex
property float scaley
property float centerx
property float centery
property int viewportx
property int viewporty
property float k1
property float k2
end_header
-0.20235859 -0.14663155 -0.80862665 97 76 91
-0.20273151 -0.15553491 -0.80816489 175 152 158
-0.20342922 -0.15783112 -0.80848837 182 163 169
-0.20318846 -0.15623312 -0.80884421 180 159 166
-0.20316726 -0.15652134 -0.80862659 180 159 165
-0.20261769 -0.15556997 -0.8078745 173 150 157
-0.20362276 -0.15816534 -0.80875373 184 166 172
-0.20254314 -0.1552548 -0.80780846 172 149 155
-0.20261084 -0.15493257 -0.80816865 173 150 157
-0.20367326 -0.15958428 -0.80851138 185 165 173
-0.20340912 -0.16093373 -0.8074078 184 163 173
-0.20361933 -0.16005383 -0.80824357 185 165 173
-0.20388821 -0.16082111 -0.80889887 185 163 172
-0.20371974 -0.16190404 -0.80814636 184 162 172
-0.20351477 -0.16036361 -0.80785578 184 164 173
-0.20229264 -0.15845001 -0.8054781 167 144 152
-0.2025824 -0.15961921 -0.80570471 174 152 161
-0.20281568 -0.16027333 -0.80600035 179 158 168
-0.20246947 -0.15971401 -0.80539936 173 150 160
-0.20253558 -0.15916012 -0.80577463 172 150 159
-0.20290442 -0.15983364 -0.80638433 179 158 167
-0.2034211 -0.16364694 -0.80639458 192 171 180
-0.20370677 -0.1628349 -0.8076877 188 166 175
-0.20309827 -0.16289623 -0.80579334 188 167 177
-0.20330831 -0.16222399 -0.8067829 184 162 174
-0.20350389 -0.16458224 -0.80616581 198 177 184
-0.20327136 -0.16414584 -0.80567902 195 175 182
-0.20564948 -0.17238678 -0.80871016 174 168 165
-0.20530805 -0.1716834 -0.80814099 189 180 179
-0.20534131 -0.17243445 -0.8081072 187 179 179
-0.20554146 -0.17321128 -0.80840284 175 170 170
-0.20479952 -0.17266567 -0.80714476 194 184 186
-0.2046054 -0.17191674 -0.80696154 190 178 178
-0.20492148 -0.17357711 -0.80720109 196 188 192
-0.20408243 -0.17137179 -0.80628926 188 174 176
-0.20421262 -0.17202619 -0.80637437 180 166 168
-0.20363098 -0.17233935 -0.8055042 177 163 168
-0.20347776 -0.17271067 -0.80523127 173 158 165
-0.20362048 -0.17295831 -0.80539566 170 156 161
-0.20591961 -0.1759505 -0.80875516 166 151 153
-0.20547256 -0.17509943 -0.80799156 186 173 177
-0.2055385 -0.17418811 -0.80826038 177 170 172
-0.20606762 -0.17745902 -0.808797 165 141 145
-0.20574658 -0.17652583 -0.80823278 172 152 156
-0.20538957 -0.17505756 -0.80779839 187 174 179
-0.20389862 -0.17420726 -0.80549741 164 150 155
-0.20457907 -0.17498629 -0.80612397 170 153 158
-0.20480007 -0.17534217 -0.80627912 171 152 157
-0.20466667 -0.17434537 -0.80655289 182 169 175
-0.20607585 -0.17821741 -0.80861181 153 128 132
-0.20678876 -0.15007631 -0.81779724 135 125 128
-0.20674476 -0.14890341 -0.82069629 158 139 134
-0.20663938 -0.14846224 -0.82059425 146 127 124
-0.20667495 -0.14951059 -0.81795275 125 114 118
-0.20670606 -0.14982469 -0.81743592 123 113 119
-0.20634899 -0.14843231 -0.81682533 80 69 87
-0.20688909 -0.15285917 -0.81956452 146 123 121
-0.20643419 -0.1536783 -0.81747645 139 113 123
-0.20674275 -0.15247242 -0.81897974 157 134 135
-0.20702589 -0.15108544 -0.8203966 179 160 151
-0.20680436 -0.15200832 -0.81930977 165 143 142
-0.20658205 -0.15276735 -0.81806326 150 126 132
-0.20675771 -0.15178616 -0.81877893 161 141 141
-0.20678328 -0.15176919 -0.81909382 166 145 145
-0.20678784 -0.15136936 -0.81848603 155 138 139
-0.20658278 -0.15202093 -0.81682402 128 111 121
-0.20671408 -0.15157987 -0.81784832 145 128 132
-0.20737548 -0.15594459 -0.82048678 124 101 99
-0.20674215 -0.15789661 -0.81761694 127 104 112
-0.20737424 -0.15801528 -0.81951147 139 115 123
-0.20706908 -0.15682663 -0.81912768 125 102 105
-0.2068705 -0.15797882 -0.81797433 130 106 115
-0.20655575 -0.15431271 -0.8179186 123 97 105
-0.20656639 -0.15504748 -0.81777996 123 98 106
-0.2066755 -0.1543501 -0.81842995 121 95 100
-0.20673516 -0.15584312 -0.81831378 120 96 100
-0.20697577 -0.15474263 -0.81963736 114 91 88
-0.20643438 -0.15663345 -0.81680661 127 102 114
-0.207959 -0.16132732 -0.81802928 179 154 168
-0.20789015 -0.15894905 -0.82021785 156 131 141
-0.20798364 -0.16022126 -0.81919056 169 144 156
-0.20782582 -0.16079427 -0.81822175 173 147 160
-0.20805497 -0.15992774 -0.81966281 167 142 154
-0.20765869 -0.15903813 -0.81947243 153 128 139
-0.20738132 -0.15999855 -0.81766385 158 133 145
-0.20740771 -0.16094823 -0.81680304 168 142 155
-0.20774458 -0.16027045 -0.81851482 167 141 153
-0.20725155 -0.15841383 -0.81883562 140 116 126
-0.20754765 -0.16115649 -0.81702822 172 146 160
-0.19779254 -0.15351488 -0.79781222 172 147 157
-0.19797653 -0.15389331 -0.79797792 178 152 162
-0.19806412 -0.15529543 -0.79775649 173 146 156
-0.2013965 -0.16140598 -0.80084401 206 187 198
-0.20061623 -0.16160117 -0.79947132 203 186 192
-0.20083956 -0.15994205 -0.80051041 194 176 182
-0.2006565 -0.16117866 -0.79971439 201 184 189
-0.20055194 -0.15953818 -0.80035675 187 169 174
-0.20048626 -0.16019005 -0.79994637 192 175 178
-0.20026106 -0.1600924 -0.79971892 188 171 174
-0.19954686 -0.16001841 -0.79871142 179 161 163
-0.19977625 -0.1595007 -0.79926425 178 159 162
-0.19910556 -0.1614138 -0.79751492 185 170 168
-0.20059788 -0.15822373 -0.80105215 177 157 164
-0.2000871 -0.15830964 -0.80017638 173 150 158
-0.19925079 -0.16160865 -0.79769093 188 174 171
-0.2013528 -0.16228868 -0.80037606 210 191 202
-0.20161934 -0.16351289 -0.80076367 197 178 186
-0.20117234 -0.16307127 -0.79982781 206 188 195
-0.20125428 -0.16523103 -0.79969269 189 171 172
-0.20105144 -0.16536656 -0.79935205 190 172 172
-0.2008462 -0.16341384 -0.7993772 205 187 194
-0.20077881 -0.16424085 -0.79917663 199 181 186
-0.2002624 -0.16444293 -0.7985121 200 182 187
-0.20086493 -0.16223978 -0.79955047 209 192 201
-0.19943276 -0.16262756 -0.79764664 193 180 178
-0.19974686 -0.16308726 -0.7980032 197 182 182
-0.19961019 -0.16236629 -0.7979064 195 181 181
-0.19953156 -0.16307938 -0.79772437 194 180 179
-0.20183265 -0.16828631 -0.80102676 187 170 170
-0.20182034 -0.16858667 -0.80103129 189 172 171
-0.20158228 -0.16681765 -0.80035174 183 164 164
-0.20127228 -0.16796423 -0.7997942 191 175 171
-0.20129955 -0.16762042 -0.79982495 190 173 170
-0.20144284 -0.16951989 -0.80030167 196 181 177
-0.20022243 -0.16880901 -0.79817075 197 185 177
-0.20010126 -0.16876765 -0.797979 198 186 177
-0.20051068 -0.16935429 -0.79866469 198 186 177
-0.20111445 -0.16936561 -0.79960334 196 183 175
-0.19996332 -0.16784067 -0.79783553 196 182 176
-0.20051822 -0.16739859 -0.7985391 192 177 171
-0.19947951 -0.16702014 -0.79727799 196 180 177
-0.20175269 -0.1727443 -0.80098397 169 154 150
-0.20177439 -0.17055935 -0.80105752 190 175 173
-0.2012769 -0.17053561 -0.79996282 191 179 171
-0.20130824 -0.17197192 -0.79978716 172 159 150
-0.2008083 -0.17114353 -0.79887211 176 163 154
-0.20007668 -0.17021014 -0.79796743 196 186 175
-0.20089637 -0.17052661 -0.79916191 187 175 166
-0.19991811 -0.17147018 -0.79740852 173 161 151
-0.20040303 -0.17063434 -0.79836905 187 176 166
-0.20362578 -0.14565268 -0.81414342 112 91 89
-0.20303273 -0.14456987 -0.8129679 133 113 114
-0.20319496 -0.14568219 -0.81344247 112 90 89
-0.20586152 -0.14877421 -0.81599557 89 77 92
-0.20568672 -0.14971545 -0.81543523 92 84 93
-0.20566541 -0.148817 -0.81569868 85 73 88
-0.20479251 -0.14835422 -0.81475079 63 50 67
-0.20459931 -0.14899687 -0.81436986 66 55 67
-0.20461661 -0.14872804 -0.81447309 65 52 66
-0.20379661 -0.14800797 -0.81367862 71 54 65
-0.20358992 -0.14890353 -0.81328338 71 57 63
-0.2031271 -0.14665738 -0.81294107 93 70 74
-0.2034353 -0.14920367 -0.81303489 72 60 63
-0.20613849 -0.15062468 -0.81575686 113 105 110
-0.20575315 -0.15269111 -0.8142373 136 120 125
-0.20585079 -0.15124488 -0.81505263 115 105 110
-0.20587151 -0.1526552 -0.81442481 138 122 127
-0.20616442 -0.15342323 -0.81581229 134 112 122
-0.20659566 -0.15108426 -0.81638157 128 118 124
-0.20551522 -0.15428659 -0.81360418 147 124 130
-0.20648547 -0.15237179 -0.81658679 129 111 121
-0.20602894 -0.15272966 -0.81490737 138 121 128
-0.20459945 -0.15144895 -0.81346065 95 85 88
-0.2046573 -0.15203446 -0.81326103 105 93 96
-0.20401946 -0.15054891 -0.81333405 74 67 68
-0.20598163 -0.15600616 -0.81534839 144 121 131
-0.20632802 -0.157333 -0.81629121 132 109 119
-0.20612693 -0.15562938 -0.81593269 138 113 125
-0.20641373 -0.15806398 -0.81644309 130 107 117
-0.20637165 -0.15560435 -0.81679356 128 102 115
-0.20604925 -0.1558332 -0.81561989 141 118 128
-0.20570405 -0.15676315 -0.8142069 155 136 142
-0.20617561 -0.15440619 -0.81629443 133 106 119
-0.20579228 -0.15479848 -0.81470406 143 119 128
-0.20596951 -0.15565386 -0.81536692 143 120 130
-0.20599544 -0.1554776 -0.81548494 142 118 129
-0.20559748 -0.15722093 -0.81374037 159 142 146
-0.20671156 -0.15911543 -0.81652862 140 116 128
-0.20662291 -0.16155881 -0.8142907 182 159 172
-0.20647955 -0.15988415 -0.81530213 154 132 143
-0.20693512 -0.1607427 -0.81576157 166 142 155
-0.20647912 -0.16066973 -0.81465441 167 145 157
-0.20649569 -0.15868489 -0.81633049 134 111 121
-0.20639277 -0.15952229 -0.81534123 150 128 138
-0.20612252 -0.16031921 -0.81379193 172 152 161
-0.20631513 -0.1596148 -0.81499958 154 133 143
-0.20601735 -0.1595661 -0.81399518 165 146 153
-0.205836 -0.15994784 -0.81307155 177 160 166
-0.20728381 -0.17370164 -0.81457913 178 160 168
-0.20744173 -0.1754749 -0.81574011 134 119 124
-0.20758875 -0.17528915 -0.81633037 134 119 123
-0.20716472 -0.17634848 -0.81462961 113 98 102
-0.2073727 -0.17461015 -0.81530988 163 147 154
-0.2072621 -0.17506063 -0.81486887 151 134 141
-0.20698272 -0.17432752 -0.81324124 158 140 147
-0.20719713 -0.17469296 -0.8144362 156 139 146
-0.19603218 -0.15832922 -0.79296446 169 151 153
-0.19787827 -0.17254767 -0.79332149 187 178 165
-0.19737402 -0.17182493 -0.79257202 178 172 156
-0.19730596 -0.17048214 -0.79278195 189 192 162
-0.19667044 -0.17067471 -0.79160416 161 157 136
-0.19768135 -0.17422825 -0.79256153 160 140 143
-0.19789997 -0.17390917 -0.79299772 176 157 157
-0.19808359 -0.17394921 -0.79331654 181 163 162
-0.20144755 -0.15616517 -0.80346256 168 144 152
-0.20139515 -0.1567155 -0.80313462 173 150 158
-0.20156232 -0.15693857 -0.80364442 170 147 154
-0.20132197 -0.15797077 -0.80254459 184 163 169
-0.20096573 -0.15808567 -0.80167651 184 164 170
-0.20096028 -0.15717396 -0.80191511 177 156 164
-0.2008723 -0.15649547 -0.80195802 171 149 157
-0.20130239 -0.15982765 -0.80138564 197 178 186
-0.20156434 -0.16051243 -0.80186445 198 178 188
-0.20165014 -0.15846288 -0.80343878 178 157 164
-0.2020393 -0.15851375 -0.80473465 167 144 152
-0.20128554 -0.1587017 -0.80204552 191 171 177
-0.20254852 -0.16155812 -0.80474484 182 161 173
-0.20199406 -0.1602875 -0.80350077 185 163 173
-0.20240849 -0.16026126 -0.80501825 174 152 162
-0.20237555 -0.16034453 -0.80484873 176 153 164
-0.20199366 -0.15990473 -0.80372977 181 159 169
-0.2023135 -0.16184208 -0.80372232 191 170 182
-0.20095229 -0.1588908 -0.80117732 187 168 175
-0.20232993 -0.16507316 -0.80252516 178 158 162
-0.20267111 -0.16525979 -0.80340248 187 167 172
-0.20292047 -0.16394724 -0.804735 190 170 179
-0.202516 -0.16502242 -0.80307645 183 162 167
-0.20270778 -0.16395973 -0.80412662 185 165 173
-0.20275071 -0.16338301 -0.80452329 185 165 174
-0.20187661 -0.16243391 -0.801871 202 181 193
-0.20216806 -0.16224796 -0.80298865 196 175 187
-0.20227765 -0.16397406 -0.80281419 180 160 167
-0.20238684 -0.16212554 -0.80382198 191 170 183
-0.20190614 -0.16297537 -0.80179876 197 177 187
-0.20256494 -0.1630116 -0.80417389 180 159 170
-0.20197037 -0.16957816 -0.80154544 197 181 181
-0.20213765 -0.16971423 -0.8021037 199 183 184
-0.20238625 -0.16827746 -0.80254322 198 181 182
-0.20219484 -0.16621977 -0.8017205 178 158 160
-0.20241581 -0.16644861 -0.80237764 185 166 168
-0.20217928 -0.16713627 -0.80180144 185 165 167
-0.20241053 -0.16740525 -0.8024931 192 174 175
-0.20238283 -0.16681787 -0.80233461 187 168 170
-0.20269971 -0.17254284 -0.80353045 175 160 163
-0.20318632 -0.17290075 -0.80459493 171 156 161
-0.20321582 -0.1735732 -0.80449408 162 148 153
-0.20264412 -0.17297404 -0.80328888 169 154 156
-0.20255019 -0.17357656 -0.80291271 162 147 148
-0.20235367 -0.1733565 -0.80250204 165 150 149
-0.20248568 -0.17063445 -0.8032341 195 179 183
-0.2022146 -0.17253546 -0.80235362 174 159 159
-0.20184712 -0.17276673 -0.80119962 169 154 151
-0.20242403 -0.17148793 -0.80302674 186 170 173
-0.20337552 -0.17507368 -0.80423969 146 129 136
-0.2036324 -0.17432806 -0.80504924 156 140 145
-0.20712605 -0.15029114 -0.82198673 130 118 111
-0.20695902 -0.14870559 -0.82184255 139 122 116
-0.20740934 -0.15417016 -0.82245976 112 91 82
-0.20757054 -0.15386087 -0.82397503 109 89 82
-0.20708241 -0.15041944 -0.8208558 184 167 156
-0.20718841 -0.15299192 -0.82148653 98 81 73
-0.20714174 -0.15254554 -0.82071608 146 125 116
-0.20713057 -0.15160218 -0.82113236 145 128 119
-0.20625031 -0.15803421 -0.82443881 73 46 46
-0.20737463 -0.15562136 -0.82379168 123 99 95
-0.20760392 -0.1548482 -0.82421738 126 103 97
-0.20736365 -0.15536591 -0.82405484 121 98 93
-0.20747027 -0.1547876 -0.82446498 122 98 92
-0.20717771 -0.15712275 -0.82261407 124 99 102
-0.20614284 -0.1578939 -0.82332855 96 71 73
-0.20727584 -0.15757917 -0.82203287 129 104 109
-0.20770411 -0.15656251 -0.82241362 137 113 115
-0.20747343 -0.15604305 -0.82080185 126 103 102
-0.20772418 -0.15641047 -0.82229441 137 113 114
-0.20756949 -0.15459722 -0.82322139 123 100 93
-0.2076638 -0.15499817 -0.82347679 128 105 100
-0.20766282 -0.15697613 -0.8211655 137 113 117
-0.20761834 -0.15541676 -0.82264113 129 105 102
-0.19713789 -0.15380847 -0.79657382 168 145 154
-0.19767979 -0.1553949 -0.79705322 176 150 159
-0.19758441 -0.15636204 -0.79633594 175 148 157
-0.19746676 -0.15787797 -0.79529786 178 153 160
-0.19779482 -0.15785903 -0.79613376 169 141 150
-0.19635105 -0.15811555 -0.79348511 176 160 160
-0.19700336 -0.1570949 -0.79483336 181 160 164
-0.1965452 -0.15651074 -0.79444879 176 156 159
-0.19648519 -0.15583049 -0.79460055 173 151 155
-0.1963879 -0.15626447 -0.7942667 172 151 154
-0.19637194 -0.15707706 -0.79393226 174 155 157
-0.19883613 -0.16142675 -0.7969588 187 172 169
-0.19866464 -0.16034718 -0.79707265 176 155 158
-0.19797064 -0.15850128 -0.79625762 169 141 149
-0.1983314 -0.16070911 -0.79616457 187 170 169
-0.1983677 -0.16059713 -0.79621857 187 171 170
-0.19804592 -0.16072518 -0.79574764 185 168 165
-0.19838142 -0.16145474 -0.79623055 186 171 167
-0.19820081 -0.16091718 -0.79597193 185 169 167
-0.19722763 -0.15974772 -0.79457015 180 159 160
-0.19653535 -0.15884614 -0.79368341 176 157 159
-0.19692728 -0.15855406 -0.79419291 180 159 162
-0.19870226 -0.16226144 -0.79662102 186 173 167
-0.19882439 -0.16255748 -0.79666013 186 172 167
-0.19904195 -0.16457786 -0.79667383 187 170 168
-0.1989053 -0.16416147 -0.7964496 185 168 166
-0.19899581 -0.1696023 -0.79620439 200 195 177
-0.19903977 -0.1680965 -0.79639143 196 187 175
-0.19921462 -0.166575 -0.79682285 194 179 174
-0.19782658 -0.16946621 -0.79404062 193 197 166
-0.19833922 -0.16991378 -0.79496223 197 198 171
-0.19899425 -0.16946815 -0.79621089 199 194 177
-0.19894281 -0.16691336 -0.79627931 193 180 172
-0.19805276 -0.16765624 -0.79438245 184 173 158
-0.1986348 -0.16757111 -0.79566854 193 185 170
-0.19910951 -0.1664895 -0.79660207 192 177 172
-0.19887467 -0.16683528 -0.79611862 191 177 170
-0.19936076 -0.17069082 -0.79663324 198 187 177
-0.1991701 -0.17217402 -0.79583997 180 167 160
-0.19955651 -0.17114705 -0.79686123 186 174 164
-0.19781484 -0.1705898 -0.79378986 192 194 166
-0.19838019 -0.17199652 -0.79442573 191 181 170
-0.19893599 -0.17107829 -0.79572964 197 187 176
-0.19886598 -0.17142218 -0.79549813 195 184 175
-0.19863963 -0.17103842 -0.79519063 195 188 173
-0.19752935 -0.17003609 -0.79342258 192 199 164
-0.20292671 -0.14415032 -0.81242603 141 122 124
-0.20300801 -0.14593518 -0.81257915 106 84 87
-0.20294169 -0.14595416 -0.81214696 105 83 88
-0.2028587 -0.14495325 -0.81181949 124 105 110
-0.2029506 -0.1462903 -0.81213444 99 76 81
-0.20311718 -0.14720838 -0.81279689 92 71 73
-0.20332225 -0.15032704 -0.81246418 76 68 68
-0.20303598 -0.14943513 -0.81169766 101 91 87
-0.20312196 -0.14829192 -0.81242961 92 76 77
-0.20326215 -0.14898342 -0.81271452 80 67 68
-0.20276976 -0.1467663 -0.81095427 99 78 84
-0.20247982 -0.14759991 -0.80916452 111 96 101
-0.2025861 -0.14793774 -0.80988431 117 103 103
-0.20279293 -0.14783336 -0.81120974 116 100 98
-0.20255345 -0.14825897 -0.80970538 122 110 108
-0.20501351 -0.15389094 -0.81270164 144 124 128
-0.20461227 -0.153467 -0.81240189 135 117 121
-0.20307761 -0.15417244 -0.8095392 170 148 153
-0.20412666 -0.15232649 -0.81250495 110 95 98
-0.20404136 -0.15326092 -0.81168354 136 118 122
-0.20356323 -0.15348125 -0.81079125 147 127 132
-0.20362544 -0.15390456 -0.81057298 157 136 141
-0.2030704 -0.15223451 -0.81083578 123 108 111
-0.2030322 -0.15092102 -0.81115586 109 100 97
-0.20306292 -0.150703 -0.81134921 103 96 92
-0.20308322 -0.15157215 -0.8111186 113 101 101
-0.20533173 -0.15527265 -0.81285548 156 136 140
-0.20525694 -0.15778957 -0.81247854 173 157 159
-0.20519897 -0.15750697 -0.81233931 174 157 160
-0.2044643 -0.15782805 -0.81059778 182 164 169
-0.20471512 -0.15627645 -0.81139612 173 153 157
-0.20478244 -0.15793645 -0.8112489 182 165 169
-0.204338 -0.15745007 -0.81039762 180 162 167
-0.20423891 -0.156646 -0.81034499 176 156 161
-0.20369522 -0.15585485 -0.80980974 177 156 161
-0.20381148 -0.15685773 -0.80961269 180 160 166
-0.20432428 -0.15567112 -0.81083971 172 151 155
-0.20443629 -0.1546399 -0.81139618 167 144 149
-0.20532788 -0.15889497 -0.81214941 182 166 171
-0.20568123 -0.16002661 -0.81250036 185 167 175
-0.20532247 -0.16015394 -0.81166738 190 172 180
-0.20561929 -0.16052519 -0.81214178 190 171 180
-0.2043875 -0.16155182 -0.80971557 188 167 176
-0.20401347 -0.1617604 -0.80904794 185 162 172
-0.20419912 -0.15862745 -0.80991018 184 167 172
-0.20408894 -0.15948807 -0.80954868 185 165 172
-0.20417546 -0.16096939 -0.80950809 184 163 172
-0.20415992 -0.16213669 -0.80918932 187 165 175
-0.20432694 -0.16211921 -0.80943787 189 168 178
-0.20614529 -0.17333089 -0.81019783 164 156 158
-0.20667385 -0.17204653 -0.81270272 181 162 170
-0.20666282 -0.17260103 -0.81241643 176 159 166
-0.20666178 -0.17322129 -0.81213766 170 154 161
-0.20653819 -0.17201224 -0.81222117 180 163 170
-0.20601609 -0.17130385 -0.81028843 185 174 174
-0.20590712 -0.17069173 -0.80988073 192 181 179
-0.20594767 -0.17202438 -0.80977541 177 169 168
-0.20605977 -0.1715367 -0.81045473 182 171 173
-0.20595144 -0.17108758 -0.81001234 187 177 176
-0.20637721 -0.17704098 -0.8101725 153 130 135
-0.20671773 -0.17500837 -0.81178015 165 144 151
-0.20621595 -0.17761829 -0.80926722 160 135 139
-0.20628297 -0.1769204 -0.8096264 164 140 144
-0.2062822 -0.17544433 -0.81003165 162 146 149
-0.20653138 -0.17572364 -0.81086689 165 143 149
-0.206286 -0.17474541 -0.8102389 162 149 152
-0.20647573 -0.17559803 -0.81069785 164 144 149
-0.20638035 -0.17428158 -0.81071264 162 150 153
-0.20623462 -0.17785826 -0.80938935 153 129 132
0 0 0 1 0 0 0 1 0 0 0 1 0 0 0 0 0 393 1 0 0
