ply
format ascii 1.0
comment PCL generated
element vertex 148
property float x
property float y
property float z
property uchar red
property uchar green
property uchar blue
element camera 1
property float view_px
property float view_py
property float view_pz
property float x_axisx
property float x_axisy
property float x_axisz
property float y_axisx
property float y_axisy
property float y_axisz
property float z_axisx
property float z_axisy
property float z_axisz
property float focal
property float scalex
property float scaley
property float centerx
property float centery
property int viewportx
property int viewporty
property float k1
property float k2
end_header
-0.18431658 -0.27127835 -0.77057928 115 87 82
-0.18504795 -0.26927727 -0.77193016 121 103 97
-0.18545628 -0.26781946 -0.77260888 128 116 107
-0.18408102 -0.27144012 -0.77003747 116 86 81
-0.18441758 -0.26862362 -0.77124006 120 101 93
-0.18396816 -0.27038673 -0.77020252 116 89 83
-0.18499365 -0.26831967 -0.77195203 124 108 100
-0.18370149 -0.26837954 -0.77055144 115 94 86
-0.18350731 -0.26795608 -0.77047759 113 93 85
-0.18558352 -0.27313951 -0.77234972 122 109 99
-0.18462962 -0.27295113 -0.77035463 126 106 94
-0.18474524 -0.27172652 -0.77150434 111 88 84
-0.18529353 -0.27292737 -0.77199948 118 104 95
-0.18512435 -0.27310738 -0.77145725 122 107 96
-0.18076211 -0.25855714 -0.76772648 87 68 66
-0.18027768 -0.25909078 -0.76686871 98 80 76
-0.18044075 -0.25840381 -0.76735961 95 77 73
-0.1798542 -0.2596812 -0.76606762 106 89 85
-0.180577 -0.26337433 -0.76633483 98 80 73
-0.18044505 -0.26014861 -0.76675361 94 74 72
-0.18058693 -0.2613506 -0.76673561 93 74 71
-0.18220137 -0.26676673 -0.76824141 108 91 82
-0.18166909 -0.26741764 -0.76664901 124 114 105
-0.18271095 -0.26710272 -0.76956797 105 84 75
-0.18153559 -0.26699874 -0.76652539 119 108 99
-0.18080182 -0.26486832 -0.76620746 106 91 83
-0.18100113 -0.26494515 -0.76639402 103 87 79
-0.18075763 -0.26415664 -0.7663269 100 83 75
-0.18178813 -0.26920447 -0.76657826 129 122 112
-0.18195777 -0.26835069 -0.76723385 124 114 104
-0.18178733 -0.26967117 -0.76647168 131 125 114
-0.18223721 -0.26977989 -0.76767975 124 114 103
-0.18180574 -0.26831833 -0.76682472 126 117 108
-0.18363343 -0.27054566 -0.76971585 116 89 82
-0.1829178 -0.27077582 -0.7683621 123 105 97
-0.18266295 -0.27056921 -0.76802725 124 110 100
-0.18232413 -0.27002284 -0.76772076 125 114 103
-0.18277223 -0.26975453 -0.76863182 120 103 93
-0.1830906 -0.27062467 -0.76873773 121 101 92
-0.18161513 -0.26782903 -0.7664513 127 119 110
-0.18301328 -0.27535853 -0.76688385 119 103 101
-0.18348214 -0.27328292 -0.76840353 117 93 90
-0.18344003 -0.27450326 -0.76784247 121 103 98
-0.18351971 -0.27423489 -0.76806611 121 102 97
-0.18394856 -0.27297866 -0.7691924 122 98 91
-0.1828126 -0.27355605 -0.7672289 117 98 96
-0.18265736 -0.27461016 -0.76666051 113 94 96
-0.18248981 -0.27183205 -0.76716214 128 116 107
-0.18381205 -0.27159142 -0.76951492 118 89 84
-0.18266773 -0.27460024 -0.76668125 113 93 95
-0.18295608 -0.27240184 -0.7678054 121 102 97
-0.18286631 -0.27660415 -0.76657861 115 99 95
-0.18258919 -0.27899671 -0.76602107 105 91 81
-0.18271142 -0.27783012 -0.76627457 110 95 87
-0.18263479 -0.27808359 -0.76614821 108 93 86
-0.17525156 -0.25655234 -0.7610603 82 62 60
-0.17588368 -0.2587018 -0.76164085 106 91 84
-0.17576064 -0.25859746 -0.76150239 105 90 83
-0.17544861 -0.26120746 -0.76061606 86 73 80
-0.17546533 -0.26119968 -0.7606411 86 73 80
-0.17513631 -0.26012468 -0.76031798 121 100 105
-0.17541626 -0.26189676 -0.76039982 76 61 72
-0.17605461 -0.26251909 -0.7610141 77 60 65
-0.17533799 -0.26155871 -0.76039451 79 65 76
-0.17670344 -0.2635569 -0.76153004 73 52 54
-0.17555051 -0.26311016 -0.7602396 62 44 59
-0.17601128 -0.26220232 -0.76104581 80 64 69
-0.18086661 -0.27774975 -0.76199949 107 66 77
-0.18089381 -0.27866352 -0.76155329 107 68 75
-0.17939125 -0.25821283 -0.76597542 91 71 73
-0.17916973 -0.25826767 -0.76557171 93 74 73
-0.17889827 -0.25843218 -0.76517606 98 80 76
-0.17794852 -0.25814795 -0.76420456 106 92 83
-0.17972644 -0.25959125 -0.76591635 105 88 84
-0.17870645 -0.25799567 -0.7650243 93 75 72
-0.177178 -0.2594974 -0.76314592 124 113 100
-0.17729679 -0.25766784 -0.76350427 95 80 73
-0.1772642 -0.25879824 -0.76333231 114 101 90
-0.1765918 -0.25678313 -0.76268643 83 65 57
-0.17674559 -0.25767499 -0.76280719 93 77 69
-0.17653108 -0.25858396 -0.76244968 104 89 80
-0.17875855 -0.25999424 -0.76484066 122 109 98
-0.17977822 -0.26263279 -0.76555854 110 95 85
-0.18003276 -0.26208898 -0.76590222 106 90 83
-0.17879507 -0.26032344 -0.76483428 121 109 98
-0.17959343 -0.26300886 -0.76527137 107 92 82
-0.17867236 -0.26350424 -0.7640658 97 80 72
-0.17784722 -0.26259014 -0.76328987 103 89 78
-0.1792215 -0.26232436 -0.7649827 113 99 88
-0.18009989 -0.26361859 -0.7657367 103 86 78
-0.17888929 -0.26217595 -0.76462114 113 100 88
-0.17747711 -0.26252252 -0.76278222 98 81 72
-0.17733628 -0.26140103 -0.76287311 109 95 84
-0.17728293 -0.25980264 -0.76323187 129 119 105
-0.17655611 -0.26059109 -0.76214254 110 96 86
-0.17935555 -0.26426303 -0.7646262 94 76 69
-0.17855294 -0.26601717 -0.76303744 76 55 54
-0.17816751 -0.26418895 -0.76324111 88 71 64
-0.17988314 -0.26434436 -0.76522374 96 78 72
-0.17844126 -0.26518193 -0.76320708 82 63 59
-0.17914021 -0.26375163 -0.76455539 96 80 72
-0.18046848 -0.26754883 -0.76503015 109 97 92
-0.17950064 -0.26619482 -0.76416206 88 69 67
-0.18030693 -0.26696175 -0.76499218 106 91 86
-0.17908914 -0.2668595 -0.76342583 80 59 59
-0.17980514 -0.26633325 -0.76452035 94 77 74
-0.18014702 -0.26685342 -0.76481456 102 87 83
-0.17945094 -0.26714119 -0.76381677 88 69 68
-0.18107167 -0.27137986 -0.76465559 126 116 105
-0.1815249 -0.27040905 -0.76567543 133 128 116
-0.1813249 -0.26824975 -0.76598853 128 120 111
-0.18093158 -0.26898515 -0.76521987 124 113 104
-0.18058811 -0.27008867 -0.76443052 120 107 99
-0.1809136 -0.26830429 -0.76536763 122 111 103
-0.18020654 -0.26866752 -0.76430875 109 94 88
-0.18068923 -0.26821992 -0.76509339 117 105 98
-0.17935915 -0.2682786 -0.76332963 90 70 69
-0.18080415 -0.26808897 -0.76528835 119 107 100
-0.1794598 -0.26773596 -0.76364547 89 71 70
-0.17943813 -0.26858851 -0.76332808 93 73 71
-0.18177594 -0.2715407 -0.76600444 136 134 121
-0.18181817 -0.27421468 -0.7648825 115 93 96
-0.18166493 -0.27180836 -0.76534516 131 124 112
-0.1818658 -0.27316594 -0.76538336 123 110 105
-0.1810098 -0.27507854 -0.76345968 105 72 82
-0.18133515 -0.27390072 -0.76421708 115 91 93
-0.18156858 -0.27475539 -0.76415062 110 80 87
-0.18160249 -0.27538863 -0.76395828 105 71 82
-0.18064855 -0.27238581 -0.7638545 118 100 95
-0.18023516 -0.27434105 -0.76290482 106 76 83
-0.18045935 -0.27178946 -0.76370901 118 101 93
-0.18109648 -0.27194315 -0.76455849 125 113 104
-0.18051204 -0.27148834 -0.76384014 119 104 95
-0.18015994 -0.27240902 -0.76317567 112 90 87
-0.18210593 -0.2767671 -0.76452559 112 84 91
-0.18193875 -0.27651134 -0.76421613 110 80 88
-0.18199155 -0.2760568 -0.76458126 110 81 89
-0.18230905 -0.27734518 -0.76519066 110 88 89
-0.18236394 -0.27621752 -0.76564568 111 91 94
-0.18247187 -0.27668482 -0.76600313 109 92 92
-0.18237437 -0.27592704 -0.76574737 111 92 95
-0.18203211 -0.27886823 -0.76372874 111 79 82
-0.18126495 -0.27737892 -0.76260847 108 69 80
-0.18076867 -0.27562407 -0.76298207 102 66 78
-0.18085428 -0.27626118 -0.76274914 104 66 78
-0.1812467 -0.27742317 -0.7625674 108 69 80
-0.18171503 -0.28016436 -0.76242518 109 73 79
-0.18176806 -0.27965975 -0.76259673 109 70 77
0 0 0 1 0 0 0 1 0 0 0 1 0 0 0 0 0 148 1 0 0
