ply
format ascii 1.0
comment PCL generated
element vertex 152
property float x
property float y
property float z
property uchar red
property uchar green
property uchar blue
element camera 1
property float view_px
property float view_py
property float view_pz
property float x_axisx
property float x_axisy
property float x_axisz
property float y_axisx
property float y_axisy
property float y_axisz
property float z_axisx
property float z_axisy
property float z_axisz
property float focal
property float scalex
property float scaley
property float centerx
property float centery
property int viewportx
property int viewporty
property float k1
property float k2
end_header
-0.23663254 -0.11357265 -0.84004515 214 207 219
-0.23784529 -0.11169636 -0.84004384 227 221 231
-0.23734252 -0.11168234 -0.83949196 226 220 229
-0.23670039 -0.11218643 -0.83915132 222 215 225
-0.23631598 -0.11209866 -0.8386758 221 214 224
-0.2354691 -0.1130571 -0.83830446 201 195 205
-0.23521285 -0.11152691 -0.83684903 222 217 225
-0.2358409 -0.1118281 -0.83788544 218 212 221
-0.23478895 -0.11228529 -0.83654362 214 208 219
-0.23500922 -0.11366224 -0.83778155 196 189 202
-0.23504522 -0.1135099 -0.8377797 198 191 203
-0.23473623 -0.11349119 -0.83707798 200 193 207
-0.23446493 -0.11357123 -0.83651394 201 193 210
-0.2403482 -0.11346526 -0.84508872 216 206 221
-0.24288203 -0.11489926 -0.84677845 216 209 225
-0.24343194 -0.11480346 -0.84747821 219 213 229
-0.24183045 -0.11306971 -0.84702557 225 218 231
-0.2410197 -0.11438839 -0.84506661 212 203 219
-0.24295172 -0.1141793 -0.84742457 221 215 230
-0.2418569 -0.11348258 -0.84673041 222 215 229
-0.2420689 -0.11509676 -0.84569985 211 203 220
-0.24362358 -0.11494157 -0.84758699 219 213 229
-0.24203746 -0.11230511 -0.84778279 226 220 231
-0.24140553 -0.11184125 -0.84744698 228 221 232
-0.24091507 -0.11166535 -0.84705919 229 222 233
-0.24204229 -0.11258331 -0.84759563 226 220 231
-0.24372409 -0.11455486 -0.84798694 220 215 230
-0.2392322 -0.11293069 -0.84433979 219 210 224
-0.23918274 -0.11295495 -0.84426981 219 210 224
-0.23985387 -0.11288984 -0.84502286 219 210 224
-0.23914328 -0.11257531 -0.84451109 221 213 226
-0.24113481 -0.11528642 -0.84455097 206 196 214
-0.24175858 -0.11573688 -0.84542805 206 197 215
-0.24246646 -0.11582896 -0.84626621 208 201 218
-0.2434447 -0.11556509 -0.84729087 213 207 224
-0.24324116 -0.11593561 -0.8475908 206 200 218
-0.24329706 -0.11571687 -0.84724116 211 205 222
-0.24061313 -0.10746092 -0.85882896 228 223 232
-0.24132693 -0.10781579 -0.85909259 207 202 210
-0.24098971 -0.1075833 -0.85770661 221 216 224
-0.24255015 -0.10839847 -0.8590492 173 168 175
-0.24117175 -0.10764087 -0.85713321 218 212 221
-0.24182792 -0.10807157 -0.8594082 192 187 195
-0.243635 -0.10911577 -0.85869998 153 149 155
-0.24313989 -0.10972391 -0.85599893 223 217 228
-0.24378195 -0.1092256 -0.85880065 151 146 153
-0.243587 -0.10962246 -0.85735703 188 182 192
-0.24365188 -0.10998951 -0.85663223 206 200 211
-0.24376605 -0.11032694 -0.85610163 219 213 225
-0.24816327 -0.11182298 -0.85888231 226 219 227
-0.24816537 -0.11329648 -0.85676265 223 217 224
-0.24902831 -0.11426866 -0.85632843 221 214 222
-0.24914271 -0.1129536 -0.85838544 221 214 222
-0.24878402 -0.11283886 -0.85811806 223 216 224
-0.24989797 -0.11455524 -0.85692579 218 210 219
-0.24985196 -0.11392126 -0.85781246 217 210 219
-0.25052997 -0.11522546 -0.8567009 214 207 216
-0.25017139 -0.11468996 -0.85705936 216 209 217
-0.25105709 -0.11431259 -0.85870212 210 202 212
-0.249698 -0.11263058 -0.85956365 219 211 220
-0.2497603 -0.1127017 -0.85953355 218 211 219
-0.24597302 -0.11186912 -0.85649765 224 218 229
-0.24802426 -0.11150454 -0.85918683 226 219 227
-0.24587937 -0.11142027 -0.85704529 225 219 230
-0.24611625 -0.11200103 -0.85645884 224 218 229
-0.24615875 -0.11143913 -0.85731286 225 219 230
-0.24736227 -0.1124836 -0.85707843 224 218 226
-0.24631816 -0.10965317 -0.86035341 182 176 183
-0.24479844 -0.10881755 -0.86045986 142 138 143
-0.24492238 -0.10912533 -0.86021155 146 141 147
-0.24535568 -0.10962471 -0.85992008 157 152 158
-0.24746464 -0.10907884 -0.86073709 171 166 172
-0.24556607 -0.10775958 -0.86137778 135 130 136
-0.24498788 -0.10796006 -0.86127883 140 136 141
-0.24608439 -0.10908291 -0.86073261 171 166 172
-0.24803668 -0.10780065 -0.86136216 135 131 136
-0.2432925 -0.10870411 -0.85985219 150 145 151
-0.24115646 -0.10743462 -0.86010027 210 205 213
-0.24331921 -0.10864716 -0.85992187 149 145 150
-0.23323344 -0.11206041 -0.83431476 212 203 217
-0.23327366 -0.11164882 -0.83423597 216 208 219
-0.234383 -0.11338607 -0.83627003 204 196 212
-0.23375805 -0.11215585 -0.83504325 213 205 218
-0.23326959 -0.11140551 -0.83415234 218 210 221
-0.23343773 -0.11371775 -0.83511931 197 187 206
-0.23253611 -0.11281048 -0.83370441 205 195 212
-0.23249026 -0.11324138 -0.83381671 202 192 210
-0.23282507 -0.11341061 -0.83427382 200 190 208
-0.23584886 -0.10789362 -0.84886348 204 199 207
-0.23628186 -0.1090545 -0.84811455 229 224 232
-0.22890465 -0.11107261 -0.85100228 136 133 139
-0.2286997 -0.11108323 -0.85078663 136 133 139
-0.24504764 -0.11464624 -0.85153419 220 215 224
-0.24449959 -0.11462839 -0.85018086 219 214 226
-0.24436504 -0.11490941 -0.84916067 219 214 228
-0.24294788 -0.11260872 -0.85119021 222 215 226
-0.24222417 -0.11206325 -0.85075665 224 217 227
-0.24259056 -0.11242893 -0.85168892 222 215 226
-0.24283211 -0.11237295 -0.84993827 224 217 227
-0.24176754 -0.11179602 -0.85109562 224 217 228
-0.24408035 -0.11478598 -0.84864354 219 214 228
-0.24279989 -0.11286534 -0.84858447 224 218 230
-0.24231166 -0.11222398 -0.84834117 226 219 230
-0.24386922 -0.11357974 -0.85079193 220 214 225
-0.24379194 -0.11349629 -0.85070962 221 214 225
-0.24262913 -0.11272312 -0.84830016 225 218 230
-0.24246909 -0.11222707 -0.84891385 225 219 229
-0.22886151 -0.11208805 -0.85130692 126 123 129
-0.22877261 -0.11263274 -0.85165018 119 117 122
-0.24476171 -0.1157576 -0.85014057 213 208 221
-0.24525721 -0.11564977 -0.8512367 215 210 220
-0.24496011 -0.11571956 -0.85058641 214 208 221
-0.24381556 -0.11569449 -0.84810823 210 205 222
-0.2386236 -0.11450706 -0.84263259 204 194 210
-0.23832577 -0.1138031 -0.84190691 209 200 215
-0.23782054 -0.11251773 -0.84061646 219 212 223
-0.23772106 -0.11320812 -0.84097773 213 205 218
-0.2387573 -0.1122487 -0.84127945 224 216 228
-0.23727205 -0.11364959 -0.8408637 208 200 214
-0.23850112 -0.1123244 -0.84109956 222 215 227
-0.23849523 -0.11195622 -0.842556 226 219 230
-0.23888645 -0.11259152 -0.84321159 221 213 226
-0.23838991 -0.11177331 -0.84228635 227 221 231
-0.23892747 -0.11268277 -0.84347343 221 213 225
-0.23947766 -0.1134235 -0.84319985 215 206 221
-0.23819238 -0.11140467 -0.84158045 230 224 233
-0.23707892 -0.11363415 -0.84066141 209 201 214
-0.24863149 -0.11449721 -0.85565448 221 215 222
-0.24874295 -0.11470066 -0.85554123 221 215 222
-0.24474072 -0.11383536 -0.85243875 221 215 224
-0.24444367 -0.11210877 -0.85463315 224 217 229
-0.24534185 -0.11440811 -0.8525362 222 216 225
-0.24603426 -0.11400761 -0.85388774 223 217 226
-0.24544503 -0.11315601 -0.85436612 223 217 227
-0.24551542 -0.11350521 -0.85397857 223 217 227
-0.2446789 -0.11230855 -0.85464114 224 217 229
-0.2462381 -0.11501353 -0.85277271 222 217 224
-0.24579741 -0.11354329 -0.85424286 223 217 227
-0.24567899 -0.11447938 -0.85286093 222 217 225
-0.24446937 -0.11157875 -0.85537565 224 218 230
-0.24754903 -0.11401497 -0.85532802 223 217 225
-0.2465387 -0.11350989 -0.85510015 223 218 227
-0.2462896 -0.11317861 -0.8552444 224 218 228
-0.2426406 -0.11184174 -0.85296947 223 216 228
-0.24373575 -0.11223247 -0.85351676 222 215 227
-0.24251221 -0.11210988 -0.85241759 223 216 227
-0.24254037 -0.1115431 -0.85332781 224 217 229
-0.24351929 -0.11186932 -0.85385275 223 216 228
-0.22899826 -0.11176971 -0.85271496 130 127 133
-0.22971621 -0.11164544 -0.85209519 132 129 135
-0.24930485 -0.11533801 -0.85549408 219 212 220
-0.24916741 -0.11578694 -0.85559136 214 207 216
0 0 0 1 0 0 0 1 0 0 0 1 0 0 0 0 0 152 1 0 0
