ply
format ascii 1.0
comment PCL generated
element vertex 294
property float x
property float y
property float z
property uchar red
property uchar green
property uchar blue
element camera 1
property float view_px
property float view_py
property float view_pz
property float x_axisx
property float x_axisy
property float x_axisz
property float y_axisx
property float y_axisy
property float y_axisz
property float z_axisx
property float z_axisy
property float z_axisz
property float focal
property float scalex
property float scaley
property float centerx
property float centery
property int viewportx
property int viewporty
property float k1
property float k2
end_header
-0.20461528 -0.16569452 -0.80781871 217 203 207
-0.20348665 -0.16541284 -0.80568361 202 183 188
-0.20403038 -0.16557196 -0.80668944 210 193 197
-0.20379919 -0.16522563 -0.80645007 205 186 191
-0.20358129 -0.16546939 -0.80583918 204 185 190
-0.20392951 -0.16551301 -0.80652273 208 191 195
-0.20538877 -0.16745548 -0.80892539 211 200 199
-0.20521359 -0.16729231 -0.80860764 217 205 205
-0.20519041 -0.16735895 -0.80855596 216 204 204
-0.20471443 -0.16726175 -0.80786377 218 205 208
-0.20458759 -0.1671996 -0.80769515 218 205 209
-0.20458351 -0.16724242 -0.80768192 218 205 209
-0.20457092 -0.16980661 -0.80721968 205 191 191
-0.20360748 -0.16662982 -0.80563545 209 191 196
-0.20315833 -0.16917837 -0.8051334 207 190 198
-0.20468934 -0.16672131 -0.80790442 220 207 211
-0.2036691 -0.1668727 -0.80580509 209 193 197
-0.20452082 -0.16632389 -0.80748576 218 204 208
-0.20493758 -0.17039192 -0.80764949 199 187 184
-0.20841116 -0.16208598 -0.81840301 194 171 187
-0.20943557 -0.16306525 -0.82031685 208 191 205
-0.20961609 -0.16372855 -0.82026458 212 196 208
-0.2092417 -0.16396807 -0.81967044 213 197 208
-0.20935072 -0.16411033 -0.81977534 213 198 209
-0.20931512 -0.16303298 -0.82000542 208 191 205
-0.20867935 -0.16304755 -0.8191905 202 182 198
-0.20887788 -0.16581738 -0.81872892 220 206 213
-0.20857976 -0.16335766 -0.81898618 202 182 197
-0.20872931 -0.16526552 -0.81868428 214 198 207
-0.20805778 -0.16358392 -0.81787455 195 172 187
-0.20820312 -0.16330254 -0.8181659 196 174 189
-0.20845765 -0.16214316 -0.81850439 195 173 189
-0.20810822 -0.16223416 -0.81765324 191 166 181
-0.21025199 -0.1674207 -0.82052529 220 207 214
-0.20965962 -0.16732635 -0.8197524 219 206 212
-0.20981127 -0.16699892 -0.81993276 221 208 214
-0.20957096 -0.16777198 -0.8196584 217 204 211
-0.20947149 -0.16953391 -0.81905919 214 199 210
-0.20915413 -0.16810158 -0.81870788 218 204 213
-0.20988855 -0.16970928 -0.81989849 212 198 207
-0.20926388 -0.16713037 -0.81915373 219 206 213
-0.20733762 -0.1666123 -0.81699133 187 165 176
-0.20746253 -0.16674769 -0.81685871 194 172 184
-0.20674397 -0.16799459 -0.8181051 136 120 129
-0.20786946 -0.1688747 -0.81682903 204 185 199
-0.20604046 -0.16880919 -0.81922841 82 72 78
-0.20599294 -0.16858295 -0.81923717 81 70 76
-0.20721292 -0.16930668 -0.81779903 156 142 153
-0.20736016 -0.16988786 -0.81769496 162 149 161
-0.20863432 -0.16626538 -0.81883687 207 194 200
-0.20644775 -0.16750157 -0.81839716 120 104 112
-0.2072898 -0.16740038 -0.81926417 138 128 133
-0.20658198 -0.16789757 -0.81930232 106 96 101
-0.20600599 -0.16862613 -0.81993639 68 61 64
-0.2085975 -0.16710855 -0.81883639 200 188 195
-0.20791309 -0.16923288 -0.81883931 160 148 158
-0.20649718 -0.16859043 -0.81995976 87 80 84
-0.2075797 -0.16755974 -0.81943977 146 136 141
-0.20827931 -0.16885282 -0.81867039 180 167 177
-0.20851527 -0.16970873 -0.81831801 191 177 189
-0.2098527 -0.17094451 -0.81994742 214 199 211
-0.21016349 -0.17046231 -0.82052094 212 198 207
-0.2100735 -0.17057562 -0.82035047 213 198 208
-0.21016312 -0.17051847 -0.82052958 212 198 207
-0.20924534 -0.17296305 -0.81887281 217 202 216
-0.20920418 -0.17366838 -0.8188467 217 202 216
-0.20920016 -0.17192136 -0.81866056 217 201 215
-0.20535071 -0.17177838 -0.81909364 64 56 57
-0.2059563 -0.17138942 -0.8190465 78 71 74
-0.2056428 -0.17357033 -0.81789666 110 96 97
-0.20542309 -0.17212431 -0.81885523 73 64 65
-0.20530355 -0.17276484 -0.8185302 82 71 71
-0.20611523 -0.17131411 -0.81894642 85 77 81
-0.20708843 -0.17279251 -0.81763822 149 136 142
-0.20796098 -0.17016862 -0.81691217 202 185 200
-0.20598191 -0.1711721 -0.8191188 76 69 73
-0.20710388 -0.17117329 -0.81780332 148 136 144
-0.20720506 -0.17017348 -0.81779784 153 141 152
-0.20798267 -0.17319758 -0.81982285 161 150 160
-0.20717818 -0.17237692 -0.82054102 116 108 116
-0.20692109 -0.17197543 -0.82056147 102 95 101
-0.20780654 -0.17285712 -0.81973869 151 141 150
-0.20864166 -0.17236441 -0.81847203 196 183 195
-0.20810369 -0.17248718 -0.81892145 166 155 165
-0.20831402 -0.17100188 -0.81860042 178 165 177
-0.20730956 -0.17084925 -0.81940085 122 114 121
-0.20852265 -0.17278054 -0.81861079 190 177 189
-0.20415325 -0.17307295 -0.81752616 80 68 67
-0.2045421 -0.17255715 -0.81822091 70 59 59
-0.20382439 -0.17254493 -0.81688493 99 86 87
-0.20434435 -0.17161709 -0.81828439 65 56 57
-0.20383577 -0.1718415 -0.81702346 98 87 89
-0.20401196 -0.17060953 -0.81764263 87 78 82
-0.20387906 -0.17286208 -0.81696659 95 82 83
-0.20963556 -0.17570753 -0.81977415 143 135 142
-0.20930934 -0.17435041 -0.81908131 196 183 195
-0.2095886 -0.17557327 -0.81967086 149 139 147
-0.20967826 -0.17571799 -0.81987458 143 134 142
-0.20923844 -0.1748471 -0.81890887 174 163 173
-0.20903933 -0.17427613 -0.81850159 194 181 193
-0.2091898 -0.17658116 -0.81911016 75 71 75
-0.20745528 -0.17650844 -0.81956059 29 28 29
-0.20849219 -0.17494421 -0.81877482 142 132 141
-0.20793857 -0.17573971 -0.819188 84 78 84
-0.20711055 -0.17632587 -0.81970906 31 29 31
-0.20846248 -0.17711744 -0.819139 21 19 21
-0.20786719 -0.17709924 -0.81944305 7 7 7
-0.20785961 -0.17417553 -0.81992406 154 144 154
-0.20697331 -0.17466941 -0.82044739 105 98 105
-0.20632687 -0.17521736 -0.82021141 69 64 69
-0.20733397 -0.17703792 -0.81950289 1 1 0
-0.20755455 -0.17720556 -0.81907457 4 2 1
-0.20663044 -0.17683436 -0.81928438 6 3 2
-0.20816234 -0.17766957 -0.81788427 12 7 5
-0.20554286 -0.17429462 -0.81837296 91 79 80
-0.20546009 -0.17453143 -0.81870693 78 67 68
-0.20536977 -0.17549939 -0.81995839 32 28 29
-0.20688944 -0.17428766 -0.81774634 140 127 132
-0.20675009 -0.17625302 -0.81821591 50 43 43
-0.20601033 -0.17539319 -0.8193171 60 54 56
-0.20544322 -0.17604297 -0.82015979 11 9 9
-0.20733503 -0.17563345 -0.81734669 99 87 89
-0.20606385 -0.17549866 -0.81923741 57 51 53
-0.2067498 -0.17568144 -0.81821698 75 66 68
-0.210022 -0.17806113 -0.82042956 72 66 68
-0.2105135 -0.18078481 -0.82023698 110 103 109
-0.20699356 -0.16573924 -0.81327635 217 202 211
-0.20706606 -0.16564675 -0.81381458 214 197 206
-0.20729677 -0.16540839 -0.81557697 201 180 191
-0.20742258 -0.16536838 -0.81661707 194 170 182
-0.20739871 -0.16473544 -0.81585652 198 175 187
-0.20691699 -0.16378278 -0.81385916 203 183 195
-0.20685357 -0.16381167 -0.81368423 203 184 195
-0.20652772 -0.16240934 -0.81346291 194 172 185
-0.20680635 -0.16526583 -0.8129279 215 200 209
-0.20675074 -0.16467957 -0.81304175 211 194 204
-0.20716375 -0.1641501 -0.81433028 205 185 196
-0.20769668 -0.16904804 -0.81624472 205 186 199
-0.2072081 -0.16903256 -0.81506985 201 181 193
-0.20707129 -0.16770108 -0.81532097 197 175 186
-0.20752695 -0.16699193 -0.81673306 198 176 188
-0.20730571 -0.16734178 -0.81604505 197 175 187
-0.20738675 -0.16796599 -0.81596816 200 179 191
-0.20693989 -0.16681586 -0.81385207 210 192 201
-0.20652334 -0.16951819 -0.81296474 200 181 190
-0.20655011 -0.1693164 -0.81299382 201 182 191
-0.20713815 -0.16659997 -0.81533301 201 180 190
-0.206572 -0.1693676 -0.81323159 199 179 189
-0.20698339 -0.1663527 -0.81376594 213 196 205
-0.2012673 -0.16945109 -0.81503475 84 73 68
-0.20142579 -0.16951628 -0.81511384 87 76 72
-0.20303984 -0.16981275 -0.81635725 107 96 100
-0.20786935 -0.17158166 -0.81652403 199 182 194
-0.20782657 -0.17205498 -0.81653887 197 180 191
-0.20760508 -0.17286749 -0.81580842 189 171 181
-0.20762824 -0.17281722 -0.81590182 190 172 182
-0.20706934 -0.17166993 -0.81383348 187 168 178
-0.20771839 -0.16995333 -0.81590599 207 189 203
-0.20724741 -0.17224126 -0.81409681 183 165 175
-0.20731457 -0.17218083 -0.81427693 184 166 177
-0.207173 -0.17104167 -0.81426823 193 175 186
-0.20745541 -0.17098238 -0.81496859 196 178 190
-0.20357455 -0.17205995 -0.81661737 103 90 91
-0.20246035 -0.17074001 -0.81560063 102 91 90
-0.20297609 -0.17206952 -0.81602466 99 86 85
-0.20194019 -0.17091611 -0.81507456 98 86 83
-0.20229611 -0.17243984 -0.81536859 97 85 82
-0.20197359 -0.17204717 -0.81507838 98 86 83
-0.20202105 -0.17224878 -0.81511831 98 86 83
-0.20161918 -0.17129339 -0.81476551 98 87 83
-0.20123154 -0.17146204 -0.81440437 99 88 84
-0.20768833 -0.176752 -0.81673503 65 55 53
-0.20748086 -0.1771137 -0.81590247 62 51 50
-0.20324691 -0.16729769 -0.80495781 206 188 193
-0.20278831 -0.16974209 -0.80414724 204 188 194
-0.20306793 -0.16888884 -0.80480433 206 189 196
-0.20261922 -0.1694613 -0.80354631 202 186 191
-0.20284598 -0.17035012 -0.80436653 201 185 191
-0.20903735 -0.1574394 -0.8240999 97 65 66
-0.20885953 -0.15754196 -0.82388544 99 67 69
-0.20898896 -0.16193451 -0.82306862 123 94 92
-0.20944163 -0.158986 -0.8244952 67 35 34
-0.20902686 -0.16123246 -0.82449031 76 42 33
-0.2090313 -0.16473286 -0.82213569 147 133 137
-0.20900925 -0.16462 -0.82241082 139 123 124
-0.20912486 -0.16306278 -0.82187808 162 142 149
-0.20908207 -0.16258982 -0.82251942 142 118 120
-0.20947739 -0.16374648 -0.82097566 197 181 193
-0.20930786 -0.16524804 -0.82155824 171 160 166
-0.20937723 -0.16473837 -0.82134932 180 168 176
-0.2093378 -0.16834515 -0.82287252 98 93 95
-0.20947918 -0.16745351 -0.82230788 131 124 127
-0.2092586 -0.16983336 -0.82329232 71 66 68
-0.21004148 -0.16925894 -0.82139409 176 164 171
-0.21026976 -0.16775461 -0.82096869 204 193 199
-0.20949523 -0.16935867 -0.82274747 102 96 99
-0.21028994 -0.16761716 -0.82093149 207 195 201
-0.20927519 -0.17240876 -0.8217833 156 145 154
-0.20902574 -0.17312299 -0.82198662 146 136 145
-0.20912972 -0.17196703 -0.82240546 121 113 120
-0.20985493 -0.17078474 -0.82128978 180 168 176
-0.20954746 -0.17055145 -0.8221938 131 122 128
-0.20966506 -0.17361221 -0.82102913 201 187 200
-0.20972343 -0.17169636 -0.82112104 191 178 187
-0.20895678 -0.17082046 -0.82341456 63 59 63
-0.20870294 -0.17137763 -0.82283378 82 77 81
-0.20690456 -0.17173259 -0.8208881 90 84 90
-0.20776583 -0.17296563 -0.8209821 134 125 134
-0.20730543 -0.17141418 -0.82146376 80 75 80
-0.20801638 -0.17047949 -0.82270527 50 47 49
-0.20735581 -0.17244844 -0.82089573 116 108 115
-0.20635067 -0.17083974 -0.82088715 59 55 58
-0.20811778 -0.17054556 -0.8227635 53 49 52
-0.20925964 -0.17490014 -0.82251447 117 109 117
-0.2093405 -0.17493822 -0.82247484 120 111 119
-0.21010329 -0.17594159 -0.82292122 95 88 95
-0.21001765 -0.17583986 -0.822878 97 90 97
-0.20974723 -0.17665437 -0.82398534 35 32 35
-0.21031117 -0.17731036 -0.82326764 39 36 38
-0.21005949 -0.17664814 -0.82078922 106 100 105
-0.2102873 -0.17658098 -0.82320499 69 64 68
-0.21010832 -0.17682309 -0.82125807 92 86 90
-0.21040232 -0.17752199 -0.82417244 15 14 15
-0.21015164 -0.17684448 -0.82170844 83 78 82
-0.20708153 -0.17485443 -0.82116783 86 80 86
-0.20859727 -0.17476749 -0.82232946 105 98 105
-0.208068 -0.1760342 -0.82320267 27 25 27
-0.20592283 -0.17595305 -0.82135975 10 9 10
-0.20707855 -0.17603301 -0.82239002 17 16 17
-0.20752965 -0.17580083 -0.82252038 35 33 35
-0.20874822 -0.17584608 -0.82356638 45 42 45
-0.2067809 -0.17510508 -0.82118833 68 63 68
-0.2057478 -0.17605047 -0.82304317 0 0 0
-0.20689876 -0.17626226 -0.82385194 0 0 0
-0.20511764 -0.17594866 -0.82216501 0 0 0
-0.20825854 -0.17653665 -0.82406384 0 0 0
-0.20671959 -0.1762301 -0.82370132 0 0 0
-0.21041366 -0.17976274 -0.82447654 4 3 4
-0.21045493 -0.18020689 -0.82410944 15 14 15
-0.21062961 -0.18078974 -0.82279581 54 52 56
-0.21053496 -0.1794955 -0.82368904 27 26 28
-0.21043922 -0.1814698 -0.82398367 18 18 19
-0.2103869 -0.17826931 -0.82275504 38 36 37
-0.21073815 -0.18047494 -0.82150817 88 85 90
-0.21019574 -0.17811064 -0.82109827 63 60 62
-0.21075895 -0.18092522 -0.82071751 108 104 110
-0.21037617 -0.17854266 -0.82202935 53 51 53
-0.20508303 -0.16114491 -0.81085449 196 179 188
-0.20542504 -0.16185027 -0.81130862 197 178 189
-0.2048085 -0.16161978 -0.81029844 194 175 185
-0.205208 -0.16572127 -0.80904406 214 204 207
-0.20597129 -0.16274744 -0.81201446 197 178 189
-0.20577155 -0.16293481 -0.81152135 199 181 191
-0.20544456 -0.16308269 -0.81079078 202 185 194
-0.20615274 -0.16524187 -0.81140339 212 198 205
-0.20660485 -0.16491538 -0.81259298 212 196 205
-0.20651963 -0.16403238 -0.81274641 206 189 199
-0.20558335 -0.16517843 -0.81009501 209 197 202
-0.20643969 -0.16405182 -0.81255138 206 189 199
-0.20616648 -0.16278848 -0.81241661 197 177 189
-0.2063317 -0.16950703 -0.81196058 202 185 189
-0.20669618 -0.16686434 -0.81225675 216 203 208
-0.20660764 -0.16701645 -0.81189865 216 203 207
-0.20645364 -0.16797587 -0.81168175 210 196 200
-0.20613654 -0.16960639 -0.81103349 202 187 188
-0.20600659 -0.16978045 -0.81047916 201 188 186
-0.20550162 -0.16675043 -0.80937403 212 202 202
-0.20563185 -0.16900724 -0.80908084 204 194 189
-0.20614061 -0.16807652 -0.81051922 210 198 197
-0.20595081 -0.16788854 -0.81012452 210 199 198
-0.20646042 -0.16746853 -0.8114295 213 201 203
-0.20584218 -0.16853365 -0.80969906 207 196 193
-0.20647261 -0.17064433 -0.81258756 192 173 182
-0.20935544 -0.15963911 -0.82462698 67 34 31
-0.20927903 -0.15920369 -0.82489216 69 33 33
-0.20681326 -0.1777126 -0.82610267 0 0 0
-0.20623487 -0.17711429 -0.82562369 0 0 0
-0.20614032 -0.17686091 -0.82538968 0 0 0
-0.20795405 -0.17733873 -0.82549262 0 0 0
-0.20767416 -0.17666596 -0.82487714 0 0 0
-0.2055752 -0.17599037 -0.82463557 0 0 0
-0.20971222 -0.1779564 -0.82540268 0 0 0
-0.20963325 -0.17871535 -0.82633913 0 0 0
-0.21034767 -0.1782248 -0.82524902 0 0 0
-0.21047243 -0.1810994 -0.82846689 0 0 0
-0.21074083 -0.18060416 -0.82769829 0 0 0
-0.21031307 -0.17941453 -0.82664454 0 0 0
-0.21036756 -0.1806743 -0.82805485 0 0 0
-0.21063012 -0.17996252 -0.82564837 0 0 0
-0.21052738 -0.17974328 -0.82517982 0 0 0
-0.21112704 -0.18123467 -0.82793868 0 0 0
-0.21090694 -0.18155867 -0.82702702 0 0 0
-0.21062265 -0.17899987 -0.82550454 0 0 0
-0.21120627 -0.18162417 -0.82832551 0 0 0
0 0 0 1 0 0 0 1 0 0 0 1 0 0 0 0 0 294 1 0 0
