ply
format ascii 1.0
comment PCL generated
element vertex 329
property float x
property float y
property float z
property uchar red
property uchar green
property uchar blue
element camera 1
property float view_px
property float view_py
property float view_pz
property float x_axisx
property float x_axisy
property float x_axisz
property float y_axisx
property float y_axisy
property float y_axisz
property float z_axisx
property float z_axisy
property float z_axisz
property float focal
property float scalex
property float scaley
property float centerx
property float centery
property int viewportx
property int viewporty
property float k1
property float k2
end_header
-0.058769446 -0.48611987 -0.68820685 159 134 160
-0.058527324 -0.48628151 -0.68826574 153 124 156
-0.058485381 -0.48542809 -0.68799728 158 134 160
-0.053326655 -0.4856945 -0.68854159 183 168 173
-0.05528862 -0.4861576 -0.68845236 146 112 153
-0.05468408 -0.48545739 -0.68828207 153 124 156
-0.053565904 -0.48594907 -0.68860102 180 163 172
-0.056483928 -0.48521149 -0.68799865 135 99 147
-0.056120008 -0.48578259 -0.68821859 130 89 143
-0.052178741 -0.48369792 -0.68798733 171 155 161
-0.051717542 -0.48365253 -0.68803561 164 144 153
-0.058659069 -0.48946834 -0.68947989 144 107 145
-0.057034966 -0.48730791 -0.68871278 123 77 137
-0.056649569 -0.48891455 -0.68940812 114 57 126
-0.058568072 -0.49003455 -0.68972147 142 101 142
-0.057427932 -0.48833436 -0.68910694 127 81 137
-0.059523474 -0.48676974 -0.68841189 168 147 164
-0.058509693 -0.48681128 -0.68845803 150 119 154
-0.059816416 -0.48737687 -0.68862522 171 151 165
-0.059884451 -0.48756045 -0.68869036 171 151 165
-0.057122286 -0.48640978 -0.68835324 128 85 142
-0.059207506 -0.48736382 -0.68863899 160 134 159
-0.056308977 -0.49011809 -0.68994808 115 57 124
-0.056392096 -0.49001694 -0.68989706 116 57 124
-0.052959133 -0.48690677 -0.68905056 190 178 177
-0.053388555 -0.48704094 -0.68905306 184 167 172
-0.055161115 -0.48712674 -0.68885994 148 113 151
-0.05632684 -0.48669687 -0.68853128 125 80 140
-0.056243554 -0.48932767 -0.68963116 121 66 129
-0.055402435 -0.48731706 -0.68890756 143 104 148
-0.056495111 -0.4890759 -0.68949443 116 60 127
-0.051660474 -0.4863587 -0.68902481 186 175 170
-0.057464782 -0.49036479 -0.68994033 123 69 129
-0.070198275 -0.45308325 -0.68045312 150 125 133
-0.060900755 -0.45447633 -0.68011469 146 138 155
-0.0622596 -0.45417586 -0.68013096 136 115 139
-0.062820293 -0.45446786 -0.68021321 129 102 132
-0.063422777 -0.45388162 -0.68013752 128 96 125
-0.057061393 -0.45395371 -0.68013585 154 140 143
-0.059974972 -0.45503002 -0.68021458 154 150 158
-0.059502292 -0.45456025 -0.68014419 151 145 155
-0.061543167 -0.45804012 -0.68082714 132 111 135
-0.060571913 -0.45716396 -0.68064296 128 110 142
-0.060630541 -0.4558982 -0.68037081 143 135 153
-0.061843719 -0.45806307 -0.6808309 136 116 135
-0.061867997 -0.45888743 -0.68100786 127 101 128
-0.060987111 -0.45522898 -0.68024266 149 143 156
-0.062813967 -0.45558125 -0.68039769 134 112 135
-0.061315969 -0.45545027 -0.68029511 148 141 153
-0.063060939 -0.45675331 -0.68059391 147 131 137
-0.06290219 -0.45731235 -0.68067241 156 146 142
-0.058813691 -0.45825642 -0.68093246 134 110 138
-0.058775898 -0.4578155 -0.68085408 136 112 137
-0.058987152 -0.45743981 -0.68078321 133 108 134
-0.058125459 -0.45698252 -0.68071562 147 126 140
-0.057289489 -0.45654881 -0.68065178 160 143 145
-0.059994187 -0.45694295 -0.68062443 133 115 142
-0.059945829 -0.45671114 -0.68057716 136 119 144
-0.058993556 -0.45562842 -0.68039435 153 142 150
-0.060324814 -0.45802578 -0.68083978 119 93 133
-0.057545412 -0.4553799 -0.68041664 163 150 146
-0.059059836 -0.45660505 -0.6806007 142 123 141
-0.055233665 -0.45788631 -0.68090624 143 125 138
-0.05468788 -0.45877856 -0.68107367 144 119 139
-0.053662136 -0.45868915 -0.68106383 133 101 127
-0.056035902 -0.45650825 -0.68065637 158 143 143
-0.056006398 -0.4559581 -0.68055785 158 143 140
-0.056514889 -0.45571893 -0.6805141 168 154 146
-0.056071285 -0.45745751 -0.68082649 157 143 147
-0.057882633 -0.4604958 -0.68133968 155 140 148
-0.057596322 -0.46241939 -0.68165636 152 134 140
-0.057380918 -0.46142554 -0.68149477 155 139 145
-0.056799024 -0.4619371 -0.68158185 157 140 145
-0.05753148 -0.46093449 -0.68141347 156 140 147
-0.058220353 -0.46033189 -0.68130833 152 135 146
-0.058776014 -0.46028835 -0.68129146 143 124 141
-0.059076656 -0.45989439 -0.68121761 136 114 138
-0.053497408 -0.46268982 -0.68175107 138 99 147
-0.055081621 -0.46225318 -0.68165231 146 118 140
-0.052739263 -0.46156317 -0.68156821 132 89 140
-0.053100888 -0.46183753 -0.68161011 134 94 141
-0.053814404 -0.4600901 -0.68129849 135 101 126
-0.054440334 -0.45979622 -0.6812461 141 112 133
-0.055655114 -0.46092618 -0.68142343 151 129 141
-0.053718023 -0.45916814 -0.68114787 136 103 129
-0.05643785 -0.46252769 -0.68168074 154 136 141
-0.054347884 -0.460567 -0.68137294 139 108 129
-0.050383214 -0.46087587 -0.68160951 129 95 137
-0.051197559 -0.46277556 -0.68188858 142 111 158
-0.051657774 -0.46255866 -0.68181634 137 101 153
-0.052727968 -0.46037993 -0.68136483 129 88 131
-0.051843107 -0.45905033 -0.68119514 125 87 120
-0.052100409 -0.46119368 -0.68154711 130 89 137
-0.052440524 -0.45960847 -0.68125123 127 87 125
-0.051475707 -0.46059623 -0.68148613 128 89 133
-0.052731588 -0.46052977 -0.68139046 130 88 132
-0.065595202 -0.46448666 -0.68198305 140 118 145
-0.065579034 -0.46582547 -0.68225503 148 133 155
-0.063942492 -0.46661931 -0.68238777 143 127 150
-0.064044207 -0.46657753 -0.68237919 142 127 149
-0.063072845 -0.46679026 -0.68242669 150 133 155
-0.061601412 -0.46496961 -0.68209761 145 126 142
-0.060929354 -0.46556401 -0.6822142 153 133 152
-0.062560841 -0.46484053 -0.68206477 138 120 137
-0.057027254 -0.46474904 -0.68211091 173 159 159
-0.059256379 -0.46580818 -0.68227565 165 146 161
-0.058111474 -0.46535957 -0.68221056 170 154 161
-0.057053261 -0.46530813 -0.68222493 179 166 165
-0.059245236 -0.4666017 -0.68243861 174 157 169
-0.060312025 -0.46666843 -0.68242723 165 146 166
-0.058955178 -0.46485072 -0.68209273 158 139 153
-0.057875782 -0.46323672 -0.68179673 152 133 140
-0.058179896 -0.46333018 -0.68181252 151 132 140
-0.060103521 -0.46520442 -0.68215245 155 135 151
-0.058713946 -0.46425059 -0.68198174 155 136 147
-0.059522908 -0.46562186 -0.68223387 161 142 158
-0.05502836 -0.46543527 -0.68229651 173 152 168
-0.055879585 -0.46667665 -0.68255681 189 177 175
-0.053271938 -0.46534514 -0.68238258 152 120 152
-0.053832274 -0.46449783 -0.68213421 155 123 159
-0.053255729 -0.46474177 -0.68223143 149 115 153
-0.053630944 -0.46375474 -0.68196082 149 113 157
-0.05458536 -0.46411759 -0.68202108 158 130 159
-0.054699946 -0.4637391 -0.68194175 154 126 155
-0.055938233 -0.46392328 -0.68196112 163 143 154
-0.056305341 -0.46298182 -0.68176258 155 135 143
-0.054517709 -0.46459818 -0.68212062 163 136 164
-0.051846236 -0.46593136 -0.68262887 153 128 152
-0.050943952 -0.46558669 -0.68261749 154 133 154
-0.050861239 -0.4656249 -0.68263525 154 134 154
-0.051002458 -0.4643389 -0.68228847 151 128 159
-0.05210134 -0.46313569 -0.68190491 139 102 154
-0.050437301 -0.46295691 -0.68198121 148 125 165
-0.052297425 -0.46388167 -0.68207866 141 105 152
-0.051029999 -0.463045 -0.68196017 145 117 161
-0.051010851 -0.46299726 -0.68194956 145 117 161
-0.063914679 -0.47029766 -0.68317187 148 126 160
-0.062094517 -0.47062689 -0.68330723 150 122 169
-0.060899228 -0.46941534 -0.68305767 156 128 171
-0.060667753 -0.46838549 -0.6828208 159 134 170
-0.061645485 -0.4690097 -0.68293798 156 132 167
-0.063812047 -0.468532 -0.68279254 147 129 156
-0.064019151 -0.4680742 -0.68269318 145 128 154
-0.061522946 -0.46701056 -0.68248588 159 140 163
-0.063875377 -0.46908486 -0.68291008 147 128 157
-0.064060919 -0.46686891 -0.68243545 144 128 151
-0.059300136 -0.47039694 -0.68335271 163 140 178
-0.058980357 -0.46997416 -0.68325758 167 146 179
-0.059190758 -0.4696314 -0.68315852 167 144 178
-0.058330387 -0.47048956 -0.68342227 169 155 180
-0.057563066 -0.46920893 -0.68312478 181 170 181
-0.059006762 -0.46974504 -0.68319672 168 146 178
-0.059340984 -0.46897125 -0.68299186 168 145 176
-0.058746953 -0.46854827 -0.68290555 175 155 177
-0.059297025 -0.46733558 -0.68260509 174 156 173
-0.057654846 -0.46692368 -0.6825462 189 178 178
-0.059811078 -0.46808973 -0.6827718 167 145 172
-0.060209323 -0.47006577 -0.68323088 157 128 175
-0.053518239 -0.46852082 -0.68316442 150 120 150
-0.05472143 -0.46987262 -0.68343908 158 136 161
-0.054002021 -0.46823785 -0.68307531 160 139 158
-0.054943759 -0.46988517 -0.68343252 161 142 164
-0.052978233 -0.46744391 -0.68292767 150 120 146
-0.055372119 -0.4685061 -0.68306357 175 164 171
-0.05354454 -0.46703768 -0.68279445 160 136 153
-0.053854603 -0.46744809 -0.68288207 162 140 156
-0.055115048 -0.46913689 -0.68324375 169 158 169
-0.055028226 -0.46806061 -0.68296891 173 159 168
-0.051416676 -0.46861157 -0.68333912 141 103 139
-0.051649757 -0.46718535 -0.68297374 151 123 144
-0.05142463 -0.4683325 -0.68327099 143 107 140
-0.05221802 -0.46796584 -0.68311077 144 108 141
-0.064506248 -0.47124696 -0.68342268 144 123 156
-0.064443395 -0.47274926 -0.68388486 137 115 149
-0.062747695 -0.47171614 -0.68359756 149 128 162
-0.062278479 -0.47217074 -0.68374741 149 128 162
-0.061784483 -0.47173208 -0.68363053 151 128 166
-0.061027825 -0.47147116 -0.68357944 152 125 170
-0.060673494 -0.47145301 -0.68358541 153 125 172
-0.05906532 -0.47146386 -0.68366301 158 136 174
-0.058814127 -0.47184327 -0.68378389 159 140 172
-0.059580904 -0.47247615 -0.6839292 157 138 169
-0.060098637 -0.4707866 -0.68341917 155 125 176
-0.059076842 -0.47081378 -0.6834749 162 141 178
-0.056168176 -0.47177947 -0.68389237 165 154 171
-0.056417502 -0.47157413 -0.68382025 170 162 175
-0.066133015 -0.44960672 -0.67960936 144 109 129
-0.067134105 -0.45049605 -0.67976916 150 124 133
-0.06594146 -0.45014909 -0.67966121 145 112 127
-0.066245243 -0.44966549 -0.67962253 145 110 129
-0.064617768 -0.44838437 -0.67938179 135 88 121
-0.067359217 -0.44936258 -0.67966902 145 117 134
-0.06688334 -0.44907683 -0.67960459 143 111 132
-0.066607088 -0.44923249 -0.67959726 145 110 131
-0.063386418 -0.45092118 -0.67962319 140 112 127
-0.064347371 -0.45038459 -0.67959678 139 103 119
-0.063595921 -0.44948554 -0.67944217 136 103 125
-0.064317517 -0.44874999 -0.67940563 135 90 121
-0.06432192 -0.44744647 -0.67925507 133 80 122
-0.064296477 -0.44984296 -0.67953068 138 99 120
-0.056710146 -0.45105219 -0.67955303 112 96 128
-0.057658695 -0.45098892 -0.67954206 120 103 135
-0.056837063 -0.45013437 -0.6794005 119 101 130
-0.065695599 -0.45271748 -0.68004298 135 101 121
-0.064610846 -0.45135087 -0.67973673 140 107 118
-0.065584652 -0.45231441 -0.6799686 136 103 121
-0.064567797 -0.45183459 -0.67982286 136 101 117
-0.062433682 -0.45349985 -0.6800164 140 119 138
-0.062277328 -0.4534314 -0.67999572 142 123 140
-0.062626228 -0.45325711 -0.67998195 140 118 136
-0.061292153 -0.45333013 -0.67993659 147 135 151
-0.062843367 -0.45154589 -0.67970312 142 117 134
-0.061139908 -0.45320082 -0.67991126 146 135 152
-0.061790522 -0.45246223 -0.67981493 144 127 145
-0.062075395 -0.45123056 -0.67962879 141 119 141
-0.059438411 -0.45297477 -0.67989218 146 135 153
-0.057391994 -0.45358148 -0.68005389 150 136 144
-0.059955303 -0.45425043 -0.68007773 150 143 157
-0.058674734 -0.45304337 -0.67992753 147 134 149
-0.058155261 -0.45362371 -0.68003613 149 137 148
-0.057134107 -0.45273325 -0.67989993 140 125 139
-0.057282951 -0.45166928 -0.67967683 124 108 135
-0.05763083 -0.45232394 -0.67981386 137 122 141
-0.058915038 -0.45193633 -0.67973197 141 125 148
-0.068457983 -0.47442839 -0.68448567 167 173 163
-0.067426071 -0.47446531 -0.68446541 158 159 158
-0.066959761 -0.4743633 -0.68442506 154 152 155
-0.065636031 -0.47382152 -0.68423462 144 131 150
-0.068325855 -0.47391942 -0.68434298 169 173 167
-0.067000918 -0.47360256 -0.68421316 158 153 161
-0.067336306 -0.47331008 -0.68414664 162 157 165
-0.061370287 -0.47328088 -0.68410403 148 128 160
-0.063797869 -0.4743562 -0.68438256 133 109 143
-0.061032277 -0.47375232 -0.68424338 150 131 159
-0.064203523 -0.47412628 -0.68430644 132 109 142
-0.062504977 -0.47300392 -0.68400055 144 123 157
-0.064164437 -0.4740302 -0.68427825 133 109 143
-0.058702856 -0.47441292 -0.68453205 148 132 157
-0.05726039 -0.47454843 -0.68464553 143 123 154
-0.056888048 -0.47405311 -0.68451965 147 129 158
-0.058814805 -0.47370145 -0.68431801 156 144 162
-0.059476636 -0.47305101 -0.68409908 157 141 166
-0.06042026 -0.4729217 -0.68401718 154 135 166
-0.058764722 -0.47305459 -0.68413389 159 146 166
-0.054848075 -0.47198817 -0.68402064 147 121 155
-0.056562494 -0.47424555 -0.68459266 143 123 156
-0.068797 -0.47619611 -0.68503112 144 136 143
-0.069444239 -0.47705775 -0.68531364 134 118 135
-0.070041068 -0.47712958 -0.68534952 136 121 138
-0.069406629 -0.47694987 -0.68527919 135 121 136
-0.065225638 -0.47817379 -0.68561357 135 104 138
-0.064638063 -0.47602859 -0.68491089 133 106 140
-0.065277033 -0.47767559 -0.68545133 133 102 137
-0.065667741 -0.4754734 -0.68474078 128 103 134
-0.067139558 -0.47529328 -0.68471533 144 135 146
-0.06656722 -0.47564745 -0.6848135 134 115 137
-0.062397249 -0.4768227 -0.68519509 147 125 152
-0.061691213 -0.47738206 -0.68538976 144 126 156
-0.062899336 -0.47754225 -0.68542421 145 122 152
-0.061044343 -0.47566381 -0.68483436 149 133 156
-0.061939459 -0.47653678 -0.68510801 147 128 154
-0.062760361 -0.47575071 -0.68484008 143 121 149
-0.063653007 -0.47489408 -0.68454975 135 112 143
-0.061369963 -0.4750897 -0.68464166 149 132 154
-0.061675452 -0.4746201 -0.68448472 145 128 151
-0.063235603 -0.47581586 -0.68485546 141 118 147
-0.062605821 -0.4757725 -0.68484908 144 123 149
-0.058976591 -0.47806346 -0.68569529 149 134 160
-0.058601841 -0.47695872 -0.68536174 143 127 159
-0.057659891 -0.47747743 -0.68555927 156 138 157
-0.057169117 -0.4771854 -0.68548548 158 139 155
-0.059217706 -0.47748002 -0.68550301 142 127 160
-0.058300778 -0.47500017 -0.68473864 144 126 155
-0.059194721 -0.47598231 -0.68501592 143 127 158
-0.060253054 -0.47509506 -0.68466991 149 135 157
-0.059007972 -0.47584277 -0.68497962 143 127 158
-0.059951089 -0.47537553 -0.68477762 147 133 157
-0.058439486 -0.47604087 -0.68507379 141 124 157
-0.054596007 -0.47709656 -0.68561876 163 150 158
-0.054416023 -0.47806939 -0.68592155 164 146 161
-0.054787256 -0.47648016 -0.6854198 162 150 156
-0.056217577 -0.4764311 -0.68529892 157 139 154
-0.055748869 -0.47614375 -0.68524313 156 139 155
-0.056234486 -0.47475806 -0.68477184 143 123 154
-0.054877006 -0.4766494 -0.68546635 163 151 156
-0.055971269 -0.47631937 -0.68528199 157 139 155
-0.064644225 -0.47910655 -0.68589991 151 125 152
-0.064563774 -0.47885543 -0.68582386 148 120 150
-0.060894206 -0.47915849 -0.68597507 143 129 164
-0.061087135 -0.4804768 -0.68639141 139 116 157
-0.061304022 -0.47875386 -0.68584102 144 130 163
-0.057705268 -0.48084193 -0.68661219 156 133 154
-0.058103856 -0.48026049 -0.68642437 151 122 148
-0.058172643 -0.48063478 -0.68653768 150 121 149
-0.056810435 -0.48182151 -0.68693376 168 157 167
-0.058146682 -0.48071533 -0.68656301 150 122 149
-0.058381397 -0.47908041 -0.68604004 155 134 154
-0.060108334 -0.47953528 -0.68612248 137 115 155
-0.058732472 -0.47921541 -0.68607038 151 129 154
-0.057733327 -0.47904062 -0.68605101 160 139 153
-0.057915971 -0.47876853 -0.68595719 161 142 155
-0.059843644 -0.47853389 -0.68581152 146 132 162
-0.053824298 -0.48229218 -0.68732029 169 157 166
-0.054266848 -0.48102042 -0.68685871 166 152 168
-0.053568728 -0.48237461 -0.68736964 170 157 165
-0.054085717 -0.48144814 -0.68701673 167 153 167
-0.05524468 -0.47997835 -0.68645513 167 151 166
-0.056383383 -0.48102471 -0.68670839 171 159 166
-0.055166826 -0.4790349 -0.68617016 167 149 162
-0.055743609 -0.47908863 -0.68615228 170 152 160
-0.056524236 -0.47881484 -0.68602169 173 155 156
-0.052175134 -0.4816744 -0.6872856 164 146 161
-0.05192342 -0.48114353 -0.68714368 160 142 159
-0.060721375 -0.48523313 -0.68788302 167 149 166
-0.061350331 -0.48404807 -0.68750048 162 141 164
-0.059023701 -0.48475191 -0.68777776 148 120 154
-0.057494227 -0.48486558 -0.68785125 141 110 151
-0.060042042 -0.48448169 -0.68766975 149 121 154
-0.060455345 -0.48343903 -0.68734241 132 95 144
-0.057417221 -0.48278537 -0.68721557 154 135 161
-0.057698283 -0.48276985 -0.68720424 150 128 158
-0.058824807 -0.48292044 -0.68722421 132 97 146
-0.059778687 -0.48278734 -0.68716109 120 77 138
-0.056361254 -0.48354602 -0.68749547 157 139 162
-0.055614565 -0.48293555 -0.68738306 170 159 169
-0.054961864 -0.48329693 -0.68755984 170 157 167
-0.054409947 -0.48321733 -0.6875909 174 163 169
-0.056520592 -0.48245218 -0.68714303 171 163 171
-0.052416023 -0.4828569 -0.68765575 168 153 160
0 0 0 1 0 0 0 1 0 0 0 1 0 0 0 0 0 329 1 0 0
