ply
format ascii 1.0
comment PCL generated
element vertex 172
property float x
property float y
property float z
property uchar red
property uchar green
property uchar blue
element camera 1
property float view_px
property float view_py
property float view_pz
property float x_axisx
property float x_axisy
property float x_axisz
property float y_axisx
property float y_axisy
property float y_axisz
property float z_axisx
property float z_axisy
property float z_axisz
property float focal
property float scalex
property float scaley
property float centerx
property float centery
property int viewportx
property int viewporty
property float k1
property float k2
end_header
-0.23778826 -0.020245224 -0.78882235 215 200 213
-0.23776722 -0.021042014 -0.78861278 214 200 212
-0.2376231 -0.021064339 -0.78838098 215 203 214
-0.23761594 -0.022310432 -0.78808659 213 201 213
-0.23770462 -0.023986675 -0.78790963 208 194 209
-0.23866752 -0.025096359 -0.78913265 196 173 195
-0.23760021 -0.023903333 -0.78777355 210 197 211
-0.23833069 -0.026016481 -0.78858435 200 180 200
-0.23744172 -0.027814135 -0.78719425 212 198 211
-0.2466857 -0.0086910753 -0.80732858 176 152 159
-0.24654782 -0.0093727009 -0.80666673 184 160 168
-0.24713044 -0.0084865019 -0.80869943 182 163 168
-0.24668573 -0.0085306494 -0.80739009 174 149 155
-0.24721681 -0.012215865 -0.80795717 176 150 152
-0.24723773 -0.010543311 -0.80838299 197 182 188
-0.24732234 -0.011912374 -0.80830872 180 154 157
-0.24647446 -0.012596101 -0.80585009 173 148 148
-0.2463281 -0.010409066 -0.80577469 182 157 163
-0.24635859 -0.010303983 -0.80588007 183 158 165
-0.24644864 -0.010885358 -0.80604881 181 158 163
-0.24671936 -0.011848079 -0.80668157 182 161 162
-0.24403292 -0.0083716614 -0.80093271 159 145 152
-0.24300942 -0.0090973331 -0.79914987 178 169 173
-0.2433809 -0.0073896288 -0.80017143 156 140 144
-0.2435133 -0.0077380147 -0.80028349 158 143 148
-0.24378368 -0.0080830902 -0.80061018 159 144 150
-0.24227357 -0.0092675155 -0.79795456 188 181 183
-0.24209754 -0.0070035364 -0.79766846 165 140 155
-0.24302976 -0.0073464401 -0.79962265 159 144 148
-0.24231243 -0.0062074065 -0.79812503 154 125 142
-0.24434711 -0.010580116 -0.80110973 180 168 176
-0.24424256 -0.012108303 -0.80084485 191 181 187
-0.24361745 -0.01143719 -0.79979283 187 178 184
-0.24410306 -0.012551576 -0.800556 195 186 191
-0.24378741 -0.012432598 -0.80001855 195 185 190
-0.24404386 -0.010676152 -0.80058187 182 173 179
-0.2429003 -0.013655785 -0.79840153 203 193 198
-0.24215475 -0.012393449 -0.79729539 201 193 196
-0.24305499 -0.011515479 -0.79884726 190 181 186
-0.24242401 -0.012235646 -0.79774547 198 190 194
-0.24316108 -0.011747756 -0.79898512 190 180 186
-0.24215408 -0.010463958 -0.79755318 197 191 193
-0.24287903 -0.011756256 -0.79853463 193 184 189
-0.24439414 -0.015016473 -0.80084217 190 167 182
-0.24429464 -0.014723819 -0.80068725 193 173 186
-0.24414434 -0.01488582 -0.80028427 191 170 181
-0.24388865 -0.015089102 -0.79978973 193 173 181
-0.2440386 -0.015249281 -0.80001658 189 166 177
-0.2426724 -0.015223156 -0.79765159 196 179 183
-0.24257775 -0.013841084 -0.79780418 203 192 196
-0.24278256 -0.016367292 -0.79758024 190 169 171
-0.24255197 -0.01486959 -0.79752433 198 182 186
-0.2430824 -0.015794471 -0.79822958 193 174 177
-0.24373206 -0.014647559 -0.79961497 199 185 189
-0.24036917 -0.007584027 -0.79325938 151 99 142
-0.23900531 -0.0095040416 -0.79110765 158 137 143
-0.23989792 -0.0087866597 -0.79240119 147 117 133
-0.23887612 -0.0082977405 -0.79108852 170 124 162
-0.23986897 -0.0089127244 -0.79234606 147 119 132
-0.23921631 -0.0090558315 -0.79144919 158 129 144
-0.24033983 -0.012193996 -0.79317379 178 176 170
-0.24025162 -0.013234466 -0.79313463 198 200 197
-0.23956312 -0.013288688 -0.79213637 202 200 201
-0.24000871 -0.010343526 -0.79246342 145 137 126
-0.24016804 -0.010811163 -0.79274583 153 147 138
-0.23912878 -0.012902994 -0.79146314 196 191 192
-0.23888333 -0.012845323 -0.79110014 196 190 192
-0.2408414 -0.019288894 -0.79322839 201 186 196
-0.24032369 -0.019000812 -0.79235947 209 198 210
-0.24062824 -0.01925684 -0.79282159 205 191 203
-0.24033868 -0.020544281 -0.79188722 195 176 193
-0.24014167 -0.019195966 -0.79203963 209 197 211
-0.23967902 -0.02077133 -0.79104823 200 182 198
-0.2397863 -0.019083448 -0.79170579 214 204 216
-0.23917285 -0.020897109 -0.79048026 204 187 202
-0.23886983 -0.020232731 -0.79034203 213 199 212
-0.23851949 -0.020923557 -0.78974569 210 194 208
-0.24113511 -0.023266548 -0.79304355 191 176 183
-0.24118732 -0.02236747 -0.79311925 185 165 175
-0.24039355 -0.02337276 -0.79161483 191 173 189
-0.24024768 -0.021887343 -0.79140019 187 166 185
-0.2400077 -0.023457712 -0.79098284 189 168 188
-0.23958571 -0.024533134 -0.79036963 191 169 190
-0.23931836 -0.024414144 -0.79002953 191 167 190
-0.23853865 -0.021495121 -0.78962815 206 187 203
-0.23891547 -0.025068782 -0.78949565 193 169 192
-0.23989299 -0.02172544 -0.79100525 190 168 188
-0.23887642 -0.024936944 -0.78947431 194 170 193
-0.2442627 -0.007998677 -0.80137944 156 138 145
-0.24579267 -0.0089601744 -0.80459458 173 148 156
-0.24566697 -0.0095123313 -0.80422306 177 152 161
-0.24561681 -0.0083297836 -0.80428064 168 145 152
-0.24587892 -0.0091072274 -0.80477232 174 149 156
-0.24529234 -0.0091902073 -0.80340445 173 153 160
-0.2454039 -0.0079378467 -0.803846 165 144 150
-0.24551833 -0.012104649 -0.80363601 183 161 166
-0.24612448 -0.011978232 -0.80496871 171 143 146
-0.24569231 -0.011825513 -0.80404758 181 157 161
-0.24520032 -0.013363224 -0.80279428 186 167 169
-0.24462336 -0.01353946 -0.8015191 198 183 188
-0.24570306 -0.011615508 -0.8040961 181 157 162
-0.2458301 -0.010008202 -0.80454743 180 154 163
-0.24452749 -0.010534884 -0.801503 180 166 174
-0.24443322 -0.011572134 -0.80121887 187 173 181
-0.24507183 -0.010281019 -0.80277735 180 161 169
-0.24481171 -0.012571932 -0.80202979 194 178 184
-0.24497309 -0.014371334 -0.802154 185 162 170
-0.24488956 -0.014331231 -0.80197877 187 165 173
-0.24480292 -0.014140982 -0.80182016 190 170 177
-0.24038514 -0.0030283739 -0.79456681 153 125 143
-0.24063894 -0.0041556489 -0.79463363 162 113 159
-0.24118826 -0.0041066641 -0.7958715 162 127 159
-0.24090087 -0.005675084 -0.79485083 162 97 158
-0.24143808 -0.0053868713 -0.79622495 159 115 151
-0.24096081 -0.004137326 -0.79530817 164 121 162
-0.24118836 -0.0043640612 -0.79581976 162 123 158
-0.24105154 -0.009193169 -0.79475772 151 140 134
-0.24150479 -0.0097137168 -0.79607224 178 172 169
-0.24135371 -0.007777595 -0.79565114 150 128 134
-0.24115713 -0.0084790085 -0.79507208 148 132 131
-0.2412848 -0.0095201656 -0.79543364 165 157 153
-0.24065922 -0.0087524289 -0.7937392 141 119 124
-0.24158724 -0.0060251923 -0.7964673 155 113 145
-0.24127245 -0.006760919 -0.79557347 152 113 140
-0.24129234 -0.0069909813 -0.79558378 150 116 137
-0.24043863 -0.0075656148 -0.79339677 152 100 143
-0.24134248 -0.0075004101 -0.79562169 146 123 130
-0.24161422 -0.013129713 -0.79605597 203 197 200
-0.24163458 -0.012203981 -0.7962597 202 196 198
-0.24088034 -0.012650408 -0.79461932 203 202 202
-0.24163964 -0.010971954 -0.79648513 200 195 197
-0.24193928 -0.013056875 -0.79674208 203 195 198
-0.24101993 -0.013399204 -0.79477787 204 202 202
-0.24053173 -0.012982566 -0.79375434 199 199 197
-0.24065104 -0.010459417 -0.7936973 153 147 136
-0.24046113 -0.012559554 -0.79348099 187 186 182
-0.24145955 -0.010577193 -0.79607004 193 189 189
-0.24058753 -0.011015981 -0.79360157 161 157 147
-0.24118403 -0.009858055 -0.79515266 165 159 152
-0.24205385 -0.015918856 -0.79639584 200 184 188
-0.24231943 -0.016487904 -0.79673541 194 174 178
-0.24111035 -0.016752569 -0.79451483 211 200 207
-0.24253288 -0.017527223 -0.79687083 188 163 166
-0.24229307 -0.015884152 -0.79683101 196 179 182
-0.24196215 -0.015768064 -0.79626775 201 187 191
-0.24169102 -0.015513121 -0.79584408 206 194 200
-0.24114786 -0.015925016 -0.79473954 211 202 208
-0.24130982 -0.014938928 -0.79518694 208 200 205
-0.24101654 -0.015470102 -0.79451913 210 203 208
-0.24070613 -0.016017903 -0.79381394 212 205 211
-0.24094276 -0.014896163 -0.79443145 208 203 206
-0.24085183 -0.01478966 -0.79425514 208 204 207
-0.2416729 -0.019229488 -0.79475111 189 167 175
-0.24228354 -0.01881822 -0.79598367 183 157 162
-0.24158901 -0.018011048 -0.79502398 199 180 186
-0.24191195 -0.018328514 -0.79549026 192 170 176
-0.24148251 -0.018350111 -0.79471636 198 179 186
-0.24114625 -0.019629994 -0.79367226 194 175 185
-0.24112712 -0.017617937 -0.7943359 208 194 201
-0.24186978 -0.02400133 -0.79432845 189 173 179
-0.24199852 -0.024083292 -0.79455036 188 172 178
-0.24234201 -0.025750576 -0.79482895 189 168 176
-0.24828532 -0.0093853176 -0.81099278 193 183 188
-0.24826244 -0.0090611754 -0.81101286 189 177 182
-0.24724336 -0.008491341 -0.80901182 184 167 172
-0.24893777 -0.010942999 -0.81207293 187 172 177
-0.24872611 -0.010585286 -0.81168461 191 177 183
-0.24842487 -0.010222685 -0.81107807 197 185 191
-0.24854235 -0.010340064 -0.81132346 195 182 188
-0.24838276 -0.011637688 -0.8106212 185 163 169
-0.24868247 -0.011936697 -0.81118226 184 163 168
-0.24792637 -0.010370754 -0.80996877 196 182 188
0 0 0 1 0 0 0 1 0 0 0 1 0 0 0 0 0 172 1 0 0
