ply
format ascii 1.0
comment PCL generated
element vertex 776
property float x
property float y
property float z
property uchar red
property uchar green
property uchar blue
element camera 1
property float view_px
property float view_py
property float view_pz
property float x_axisx
property float x_axisy
property float x_axisz
property float y_axisx
property float y_axisy
property float y_axisz
property float z_axisx
property float z_axisy
property float z_axisz
property float focal
property float scalex
property float scaley
property float centerx
property float centery
property int viewportx
property int viewporty
property float k1
property float k2
end_header
-0.053067531 -0.33315006 -0.67532021 211 206 217
-0.053406578 -0.33101985 -0.6757983 207 195 213
-0.053877238 -0.33037817 -0.67595023 199 186 207
-0.050230246 -0.33158123 -0.67593795 216 210 223
-0.049333349 -0.33320796 -0.6756171 212 207 217
-0.04908669 -0.33266002 -0.67578185 214 210 221
-0.049641017 -0.33301121 -0.67563552 212 207 217
-0.049087681 -0.33389252 -0.67547178 211 207 215
-0.052270003 -0.33080745 -0.67593044 215 209 221
-0.051681016 -0.33376938 -0.67528427 213 213 220
-0.050301272 -0.33374381 -0.67540544 212 209 217
-0.050887663 -0.33248317 -0.67565244 213 209 219
-0.051140826 -0.33278486 -0.67556047 213 210 219
-0.045399737 -0.33381057 -0.67601722 211 201 215
-0.047573313 -0.33330151 -0.67582893 213 206 218
-0.046916913 -0.33361319 -0.67584556 212 204 217
-0.047380425 -0.33384576 -0.67571878 211 204 215
-0.046554215 -0.33262157 -0.67615229 215 206 220
-0.054777279 -0.33699262 -0.67442232 211 199 212
-0.054423377 -0.33712158 -0.67443436 215 206 217
-0.05313535 -0.33520451 -0.67489409 217 216 223
-0.052782048 -0.33609483 -0.67477334 224 226 232
-0.053917188 -0.33766472 -0.67438906 222 217 226
-0.053669307 -0.3343322 -0.67501336 206 198 211
-0.049889233 -0.33633846 -0.67493725 219 217 226
-0.049917329 -0.33666089 -0.67487061 220 217 227
-0.050192874 -0.33625245 -0.67493773 220 218 227
-0.049019579 -0.33718568 -0.67481476 218 213 226
-0.048856243 -0.33466589 -0.67533278 212 208 217
-0.050839089 -0.33654115 -0.67484337 223 223 230
-0.052681349 -0.3358905 -0.6748181 224 226 231
-0.050673947 -0.33535513 -0.67507899 219 218 225
-0.051383387 -0.33584413 -0.67493451 222 222 229
-0.051005393 -0.33425781 -0.67524254 214 213 220
-0.050973792 -0.3348164 -0.67514783 217 216 223
-0.046333879 -0.33724773 -0.67519075 204 190 207
-0.045513876 -0.33585715 -0.67558736 205 192 208
-0.046509255 -0.33735433 -0.67514312 205 191 208
-0.045646407 -0.33711368 -0.67532229 200 183 202
-0.045797907 -0.33543828 -0.67562538 209 198 214
-0.047958653 -0.33579466 -0.67523342 214 208 221
-0.048343655 -0.3344152 -0.67545569 211 206 216
-0.047094233 -0.33422232 -0.67567736 211 204 215
-0.046755053 -0.33482856 -0.67560446 212 204 217
-0.046624765 -0.33478627 -0.67563206 212 204 217
-0.042369939 -0.33609894 -0.67606544 202 197 210
-0.041895736 -0.33684337 -0.67600143 199 196 208
-0.043948047 -0.3354094 -0.67593122 204 195 209
-0.043534856 -0.33627346 -0.67583323 201 190 206
-0.043415837 -0.33662573 -0.67578489 199 188 204
-0.044143155 -0.33500934 -0.67597586 206 196 211
-0.044282891 -0.33628476 -0.6757037 200 186 202
-0.040698234 -0.33705881 -0.67615002 199 198 209
-0.063057825 -0.3416968 -0.67334658 227 211 229
-0.062925115 -0.34151065 -0.67337394 227 211 228
-0.06154843 -0.34151158 -0.67334765 231 223 235
-0.062796183 -0.34146768 -0.67337835 227 211 228
-0.064114764 -0.34156924 -0.67338705 223 200 223
-0.058283374 -0.34083161 -0.67354113 230 219 229
-0.057758741 -0.34111926 -0.67351979 236 224 231
-0.058292478 -0.34146544 -0.6734401 238 229 236
-0.059399419 -0.34158313 -0.67337012 236 231 239
-0.058080066 -0.34166679 -0.67341799 241 232 238
-0.060429204 -0.34089303 -0.67343313 231 227 233
-0.059141792 -0.34007564 -0.67362183 221 211 222
-0.0585141 -0.33940253 -0.67375779 215 201 214
-0.05399758 -0.34046802 -0.67392099 234 230 234
-0.053483773 -0.34084606 -0.67390305 229 227 231
-0.055906706 -0.34110311 -0.67364538 245 234 238
-0.053701632 -0.34086359 -0.67388082 230 228 231
-0.055106595 -0.34099767 -0.67373395 240 232 236
-0.05550433 -0.33905602 -0.67400992 223 210 221
-0.055482585 -0.33890849 -0.67403543 222 208 220
-0.053709239 -0.33792356 -0.67436475 225 222 230
-0.055890005 -0.34040061 -0.67375886 237 224 231
-0.05474741 -0.33986747 -0.6739549 240 234 239
-0.055865843 -0.34008944 -0.67381066 233 220 228
-0.049786743 -0.34062159 -0.67427003 214 210 216
-0.050594449 -0.34172249 -0.67405665 214 211 214
-0.050004955 -0.33912423 -0.67441362 219 215 226
-0.050155096 -0.3402032 -0.67427588 217 213 220
-0.051476609 -0.34096557 -0.67404324 219 218 222
-0.049505524 -0.33961946 -0.67441368 216 211 221
-0.050902493 -0.33938545 -0.67431659 221 220 228
-0.052129533 -0.34020087 -0.67411143 223 224 229
-0.051901679 -0.34050736 -0.67407274 222 221 226
-0.049832262 -0.33839846 -0.67454183 221 217 229
-0.052602153 -0.33790451 -0.67447007 233 236 241
-0.047944251 -0.34143057 -0.67440283 205 198 203
-0.045881152 -0.34173125 -0.67459953 200 192 204
-0.045216233 -0.33937052 -0.67502785 194 178 195
-0.046997968 -0.34120885 -0.67454642 202 193 202
-0.047083143 -0.34078246 -0.67459983 202 191 200
-0.046977419 -0.33870682 -0.67487532 203 190 205
-0.048806112 -0.3395139 -0.67450434 214 208 218
-0.048199363 -0.34020337 -0.67452008 208 200 208
-0.047902774 -0.33926213 -0.67467111 208 199 210
-0.048617687 -0.3397488 -0.6745069 212 205 215
-0.042179253 -0.34007335 -0.67539859 196 190 205
-0.041592419 -0.34020773 -0.67545992 196 190 205
-0.043069974 -0.34063131 -0.67517269 197 190 204
-0.042805672 -0.34000358 -0.67532027 196 191 205
-0.041588798 -0.3414084 -0.67525107 196 188 205
-0.042784348 -0.34128377 -0.67510015 196 189 205
-0.04219427 -0.3386108 -0.67563951 195 190 203
-0.044627242 -0.33815783 -0.67529255 191 173 192
-0.043538921 -0.33812979 -0.67548198 193 179 196
-0.042654444 -0.33845234 -0.67558467 194 186 201
-0.04405633 -0.33959821 -0.67517585 195 184 199
-0.0421644 -0.3389599 -0.67559278 196 192 205
-0.038097084 -0.33979997 -0.67607003 212 210 218
-0.037451215 -0.34144279 -0.6759187 219 220 225
-0.039324675 -0.33821106 -0.67613322 203 199 210
-0.040283684 -0.33816859 -0.67600727 199 197 208
-0.040497322 -0.33918455 -0.67580748 199 196 208
-0.040429384 -0.34073502 -0.67554849 199 194 209
-0.03865632 -0.34063008 -0.67586076 211 210 218
-0.03936433 -0.33986318 -0.67587709 206 205 214
-0.038455397 -0.34072769 -0.67587709 213 212 219
-0.037023149 -0.34132975 -0.67599124 220 220 225
-0.069264889 -0.34291732 -0.67349935 222 211 221
-0.069022924 -0.34483364 -0.67336303 238 231 238
-0.068695739 -0.34313288 -0.67343587 224 212 223
-0.069858909 -0.34554359 -0.67339474 245 240 244
-0.070396259 -0.34425968 -0.67351943 234 227 232
-0.068932049 -0.34357533 -0.67343038 228 217 227
-0.070581369 -0.34327543 -0.67359018 221 212 224
-0.070012137 -0.34313083 -0.67355096 222 212 223
-0.070368633 -0.34311837 -0.67358106 220 210 223
-0.07066448 -0.3433097 -0.67359531 221 212 224
-0.064764664 -0.34219867 -0.67334235 226 203 226
-0.06601496 -0.34492919 -0.67320609 241 233 242
-0.064838253 -0.34241235 -0.67333072 227 205 227
-0.066240914 -0.34495699 -0.67321372 241 233 242
-0.065121152 -0.34334904 -0.67327768 232 215 233
-0.068260647 -0.34551921 -0.67325974 244 238 244
-0.066785157 -0.34268808 -0.67338061 224 207 224
-0.068338349 -0.34320498 -0.67340094 224 213 224
-0.06753888 -0.34306571 -0.67338288 226 211 225
-0.060875218 -0.34437045 -0.67308885 233 228 238
-0.060772952 -0.34531358 -0.6730113 232 225 235
-0.061993431 -0.34479687 -0.67308718 237 233 241
-0.062826417 -0.34509659 -0.67308736 239 236 244
-0.060634948 -0.343743 -0.67313153 233 229 238
-0.060991075 -0.34410155 -0.67311341 234 230 239
-0.062994123 -0.34409595 -0.67316979 240 238 245
-0.062765732 -0.3419365 -0.67331535 229 216 233
-0.064162508 -0.34331781 -0.67324597 233 218 235
-0.063124597 -0.3440682 -0.67317426 240 236 244
-0.063804679 -0.34214836 -0.67332035 227 208 229
-0.062556192 -0.34326476 -0.6732192 237 233 242
-0.056913465 -0.34434515 -0.67320138 224 216 229
-0.05807342 -0.3442612 -0.67318076 231 222 232
-0.058986306 -0.34447172 -0.67313671 234 224 234
-0.057819054 -0.34547311 -0.67306548 217 212 227
-0.05664441 -0.34226692 -0.67341679 243 230 236
-0.058112063 -0.34482226 -0.67312348 226 218 230
-0.059090119 -0.34397587 -0.67317814 237 227 236
-0.060316872 -0.34445158 -0.6730836 233 226 236
-0.060539767 -0.34232655 -0.67324144 235 233 241
-0.060524039 -0.34357917 -0.67314303 233 229 238
-0.059687924 -0.34448054 -0.67311049 235 226 235
-0.054538429 -0.34537327 -0.67328 200 194 211
-0.054197263 -0.34534925 -0.67331058 198 192 209
-0.053141125 -0.34441122 -0.6734975 201 195 208
-0.0557875 -0.3450951 -0.67320704 209 205 222
-0.055492021 -0.34563759 -0.67317337 203 197 216
-0.054620054 -0.34344441 -0.67347765 217 215 224
-0.055980176 -0.34354958 -0.67334664 225 218 229
-0.054536816 -0.3425186 -0.67357796 226 222 227
-0.056284785 -0.34365833 -0.67330873 226 219 230
-0.055242915 -0.34287193 -0.67347991 227 221 229
-0.050668299 -0.34536451 -0.67358047 192 180 200
-0.049845591 -0.34342781 -0.67392963 201 192 202
-0.050147057 -0.34507915 -0.67365825 194 181 201
-0.04943436 -0.3456111 -0.67362416 193 178 203
-0.051330399 -0.34459281 -0.67365444 194 185 199
-0.052213743 -0.34337243 -0.67369974 206 201 210
-0.051732257 -0.3439343 -0.67369342 199 193 203
-0.05036708 -0.34249669 -0.67399889 207 202 207
-0.052373946 -0.34231323 -0.67379504 215 214 218
-0.052212995 -0.34420067 -0.67361146 199 192 204
-0.044984337 -0.34340903 -0.67446387 198 189 206
-0.045475338 -0.34474754 -0.67421055 198 187 208
-0.045256063 -0.34484464 -0.67422438 199 188 208
-0.048170529 -0.34536162 -0.67378193 194 179 205
-0.045699518 -0.34261918 -0.67448622 197 187 204
-0.046548918 -0.34366304 -0.67422968 196 184 204
-0.045481835 -0.34225991 -0.67456597 197 188 204
-0.048225936 -0.34290141 -0.67414719 203 193 204
-0.047686156 -0.34438813 -0.67398387 195 182 204
-0.047619518 -0.34296763 -0.67420805 201 191 204
-0.047867857 -0.34305233 -0.67416608 201 191 204
-0.043324217 -0.34548125 -0.67442542 207 196 214
-0.041537397 -0.34298611 -0.67503011 200 191 209
-0.041724153 -0.34418121 -0.67484629 207 197 213
-0.042463031 -0.34437361 -0.67470461 204 194 212
-0.043166094 -0.34473082 -0.67454731 203 192 211
-0.042522732 -0.34334373 -0.67482811 197 188 208
-0.042609211 -0.34266597 -0.67491186 197 188 206
-0.044376466 -0.34434527 -0.67441678 199 188 208
-0.043800551 -0.34194028 -0.67484349 197 189 204
-0.043965198 -0.34244862 -0.67474705 197 189 205
-0.042870078 -0.34181905 -0.67499518 196 188 205
-0.039236613 -0.34553835 -0.67502421 213 204 220
-0.039270174 -0.344174 -0.67524159 220 214 223
-0.038739964 -0.34410921 -0.67532229 218 212 223
-0.038720895 -0.34530842 -0.67512983 211 204 220
-0.037707459 -0.34283587 -0.67566592 219 217 225
-0.037742425 -0.34548625 -0.67523044 206 198 219
-0.040682875 -0.34310299 -0.67515278 206 197 213
-0.040713683 -0.34184372 -0.67531013 198 190 207
-0.039859869 -0.34448278 -0.67511117 220 213 223
-0.039171848 -0.34304851 -0.67541039 216 211 221
-0.039113205 -0.3428106 -0.6754508 215 210 220
-0.033914432 -0.34256026 -0.67613602 216 212 229
-0.034479842 -0.34234649 -0.67610765 218 215 229
-0.034702815 -0.34397846 -0.67585993 199 190 221
-0.034472365 -0.34325412 -0.67598337 208 201 225
-0.035366047 -0.34493256 -0.67562604 196 186 219
-0.03627545 -0.34379697 -0.67569494 207 202 222
-0.03505116 -0.34479991 -0.67568761 195 185 219
-0.035494316 -0.3442651 -0.67571819 200 192 220
-0.034048542 -0.34487048 -0.67580378 189 176 219
-0.031649858 -0.34478277 -0.67614532 187 174 201
-0.031498257 -0.34489346 -0.67615378 186 172 199
-0.032354381 -0.34562117 -0.67591983 179 163 206
-0.07229422 -0.34804699 -0.67366296 237 241 249
-0.074257165 -0.34938321 -0.67397106 229 229 248
-0.073075518 -0.34659386 -0.67373478 242 239 245
-0.07439106 -0.34813097 -0.67395765 234 230 245
-0.072283588 -0.34587643 -0.67360592 246 244 245
-0.074134611 -0.34753984 -0.6739074 237 233 244
-0.073893964 -0.34629792 -0.67386252 241 237 240
-0.073625818 -0.34608042 -0.67381853 242 239 240
-0.070133753 -0.34899783 -0.67349982 237 239 249
-0.069054261 -0.34895959 -0.67340696 240 240 249
-0.069138139 -0.34856731 -0.67340255 240 240 248
-0.069367774 -0.34906712 -0.67343676 239 240 249
-0.068804689 -0.34853277 -0.67337316 241 240 248
-0.071685724 -0.34861955 -0.67362213 234 239 250
-0.070494682 -0.34758925 -0.67348999 238 239 248
-0.072128817 -0.34846315 -0.67365754 235 240 249
-0.070384406 -0.34602857 -0.67344022 245 242 246
-0.069089748 -0.34641585 -0.67333513 243 239 247
-0.064477816 -0.34929684 -0.67307413 229 226 238
-0.065744407 -0.34901455 -0.67317116 234 233 242
-0.065257862 -0.34819058 -0.67313743 236 234 243
-0.065689802 -0.34856844 -0.67316872 236 234 243
-0.066143349 -0.34884301 -0.67320204 236 235 244
-0.066327125 -0.34633726 -0.67318428 244 241 248
-0.067758888 -0.34681597 -0.67325926 244 240 247
-0.067299083 -0.34771162 -0.67326611 243 241 248
-0.067264244 -0.34696749 -0.67324275 244 241 247
-0.06835261 -0.34923846 -0.67335582 241 240 248
-0.061165411 -0.34655392 -0.67298591 228 220 233
-0.062368348 -0.34835097 -0.67300695 221 215 230
-0.060851216 -0.3472448 -0.6729632 219 210 226
-0.061169416 -0.34668362 -0.67298412 227 219 232
-0.061944176 -0.34812933 -0.67299342 220 212 228
-0.06411539 -0.34858128 -0.67306525 231 228 238
-0.0635316 -0.34794688 -0.673051 231 227 238
-0.062501609 -0.34613559 -0.67302841 236 231 240
-0.061625268 -0.34578341 -0.67300457 234 228 237
-0.06305524 -0.346659 -0.67304224 235 231 240
-0.059344579 -0.3495312 -0.67293322 201 189 212
-0.058048479 -0.34794617 -0.67299289 205 197 217
-0.057280567 -0.34895095 -0.67297494 211 203 217
-0.058783188 -0.34934708 -0.67294526 204 193 214
-0.05778601 -0.34804386 -0.67299348 207 199 218
-0.058024459 -0.34742472 -0.67300749 204 197 218
-0.060447682 -0.34814906 -0.67294019 207 196 218
-0.059832428 -0.34585622 -0.67298967 225 218 231
-0.060123313 -0.34653851 -0.6729722 220 212 227
-0.058234874 -0.34607241 -0.6730265 214 208 225
-0.060217857 -0.34574857 -0.67298162 228 221 232
-0.059703305 -0.34614861 -0.67298853 222 214 229
-0.055620003 -0.34948149 -0.67303658 213 204 214
-0.053274564 -0.34936774 -0.67319298 209 197 207
-0.053253524 -0.34866098 -0.67322624 205 193 205
-0.05294764 -0.34838992 -0.67325819 203 191 204
-0.052738085 -0.34880817 -0.67325282 205 193 204
-0.054610014 -0.34839621 -0.67315066 206 196 208
-0.055144534 -0.347709 -0.67313999 204 196 210
-0.055294849 -0.34777337 -0.67312586 205 197 211
-0.054148942 -0.34690875 -0.6732437 197 188 204
-0.056632947 -0.34877899 -0.67298841 214 207 219
-0.055213656 -0.3475197 -0.67313945 204 196 210
-0.05368229 -0.34659597 -0.67329061 194 185 201
-0.050204813 -0.34709787 -0.67349678 199 184 205
-0.049908172 -0.34950575 -0.67343968 204 190 209
-0.051120516 -0.34909081 -0.67335939 205 191 207
-0.050511867 -0.34829891 -0.67343301 202 188 207
-0.049316797 -0.34714124 -0.67356426 197 182 206
-0.051970296 -0.34765762 -0.67335516 200 187 203
-0.050670743 -0.34680179 -0.67347926 197 183 203
-0.051140767 -0.34678233 -0.67344916 196 183 202
-0.051430494 -0.34762484 -0.67339218 200 187 204
-0.052277353 -0.34744102 -0.67334473 198 186 201
-0.045716751 -0.34730026 -0.67395216 206 197 217
-0.046007309 -0.34884515 -0.67380422 215 211 227
-0.045365937 -0.34957135 -0.67379606 225 227 238
-0.0454036 -0.34621987 -0.67406422 200 189 211
-0.047491334 -0.34926423 -0.6736533 208 199 218
-0.047297142 -0.3491888 -0.6736747 209 200 219
-0.045453034 -0.34588078 -0.67407095 199 187 210
-0.046444353 -0.34719905 -0.67390174 200 188 210
-0.047494568 -0.34578401 -0.67381597 196 181 207
-0.047758315 -0.34705541 -0.67374033 198 184 208
-0.04855822 -0.34910071 -0.67357105 201 187 209
-0.042478647 -0.34818277 -0.67430264 218 215 225
-0.043660667 -0.34929657 -0.67402732 220 222 232
-0.04259678 -0.34919453 -0.67417806 212 213 223
-0.042494323 -0.34812751 -0.67430651 218 215 226
-0.041364856 -0.34957558 -0.67429876 200 201 211
-0.041511953 -0.34941754 -0.6742965 203 203 213
-0.044099737 -0.34777346 -0.6741066 219 216 229
-0.044649649 -0.34858206 -0.67395419 222 222 234
-0.043744769 -0.34606853 -0.67430073 209 199 217
-0.042766221 -0.3469654 -0.67438298 220 214 227
-0.044518597 -0.34735292 -0.67407435 214 209 225
-0.041915424 -0.34622097 -0.67457783 220 210 223
-0.038351703 -0.34781441 -0.67493707 189 182 202
-0.037734479 -0.34707785 -0.67509121 191 184 205
-0.038065374 -0.34692875 -0.67503589 197 191 211
-0.038431469 -0.34716043 -0.67495477 198 193 212
-0.039270077 -0.34868062 -0.67471921 189 184 200
-0.039109573 -0.34680435 -0.67489558 205 199 216
-0.038152073 -0.3465201 -0.67505294 202 196 216
-0.039193049 -0.34587386 -0.67498487 211 202 219
-0.03864963 -0.34581882 -0.67506272 208 200 219
-0.039015405 -0.34638652 -0.67495304 207 200 217
-0.034830496 -0.3457225 -0.67556792 189 176 217
-0.035798404 -0.34628275 -0.67541665 187 175 209
-0.036187898 -0.34705773 -0.67532825 179 167 197
-0.036656167 -0.34658262 -0.67529249 188 178 205
-0.037022226 -0.34642279 -0.67525393 192 183 207
-0.077103414 -0.35083291 -0.67452091 215 213 236
-0.077311352 -0.35040212 -0.67452073 216 212 238
-0.072464116 -0.35237744 -0.67393005 195 190 217
-0.073369317 -0.35093144 -0.67396098 218 222 237
-0.075423144 -0.35129431 -0.67428011 214 212 231
-0.075225197 -0.35099551 -0.6742276 217 215 234
-0.074902065 -0.34996852 -0.67409682 225 223 244
-0.074697733 -0.35053471 -0.6741156 221 221 239
-0.073450565 -0.3497391 -0.67387515 228 232 248
-0.073626377 -0.3506068 -0.67397207 221 225 240
-0.068542615 -0.35191062 -0.67349845 203 192 226
-0.068421312 -0.35182977 -0.67348123 205 193 227
-0.072123848 -0.3534281 -0.67396319 181 170 204
-0.072223537 -0.35076293 -0.67377931 216 218 237
-0.072236791 -0.3514775 -0.67383236 206 205 228
-0.070636593 -0.35095513 -0.67365837 217 215 233
-0.071350172 -0.35125178 -0.67374063 211 210 230
-0.07159999 -0.34973881 -0.67365181 231 237 249
-0.069979936 -0.3501814 -0.67354631 229 229 243
-0.064976625 -0.35144684 -0.67320263 216 211 227
-0.064477779 -0.35190699 -0.67318928 218 217 226
-0.066790804 -0.35203797 -0.67336589 197 184 221
-0.064570807 -0.35246003 -0.67322409 215 214 224
-0.068110071 -0.35071853 -0.67340183 222 216 237
-0.067542151 -0.34992316 -0.67332029 233 230 243
-0.066266328 -0.35032824 -0.67324328 222 216 235
-0.067839861 -0.3499662 -0.67334497 233 231 243
-0.067480057 -0.35125268 -0.67337996 211 202 230
-0.061145488 -0.35142556 -0.67299533 205 197 216
-0.06056999 -0.35005787 -0.6729269 197 186 211
-0.062299505 -0.35210812 -0.6730898 208 202 217
-0.06275405 -0.35279009 -0.67313564 211 208 219
-0.061788268 -0.35136876 -0.6730389 204 196 215
-0.061482593 -0.34975609 -0.67296058 202 191 215
-0.062108245 -0.34979042 -0.67298716 207 198 220
-0.063790567 -0.35150158 -0.67314065 215 211 224
-0.061865184 -0.34962231 -0.67296904 206 196 219
-0.062337223 -0.35031211 -0.67302269 207 199 219
-0.063502595 -0.35098511 -0.67310303 214 210 224
-0.057288125 -0.35325262 -0.67307842 224 220 230
-0.0574264 -0.35097659 -0.67299241 218 212 221
-0.058322527 -0.35204777 -0.67300612 220 215 223
-0.059526645 -0.3534106 -0.67302167 222 218 226
-0.060421526 -0.35349375 -0.67299974 221 218 225
-0.059386577 -0.3529045 -0.67300731 220 216 225
-0.059901383 -0.35066259 -0.67294592 205 196 215
-0.060506687 -0.3529329 -0.67298537 217 212 222
-0.057099443 -0.34976238 -0.67296243 214 206 217
-0.058595885 -0.35051259 -0.67295921 211 203 217
-0.060503583 -0.35310909 -0.67298913 218 214 223
-0.052793082 -0.35236609 -0.67326361 213 202 221
-0.054836385 -0.35289118 -0.67317837 220 212 227
-0.054102201 -0.35180935 -0.67319304 216 207 220
-0.054583989 -0.3522265 -0.6731782 218 210 223
-0.053969014 -0.35106674 -0.67318588 215 205 216
-0.054959759 -0.35197446 -0.67315626 219 211 222
-0.056423709 -0.3507542 -0.67302036 218 211 221
-0.056552097 -0.35047206 -0.67300183 218 210 221
-0.056639425 -0.35346279 -0.67310423 225 221 232
-0.05614318 -0.35030976 -0.67302239 217 209 219
-0.055901695 -0.34999406 -0.67302656 215 207 217
-0.056591194 -0.35140598 -0.67303306 220 214 224
-0.049032249 -0.35272184 -0.67351454 218 215 228
-0.050803207 -0.35337222 -0.67340624 218 213 229
-0.049048074 -0.34984183 -0.67350692 202 189 211
-0.049872216 -0.35281801 -0.67346269 217 212 227
-0.050035033 -0.35279155 -0.67345256 216 211 226
-0.050469801 -0.35021788 -0.67340362 206 193 211
-0.049879901 -0.35029209 -0.67345065 205 191 212
-0.052663527 -0.35044718 -0.6732375 210 198 211
-0.050034031 -0.34987456 -0.67343122 204 191 210
-0.052020542 -0.35228062 -0.67332017 211 200 221
-0.049782626 -0.34977123 -0.67344886 204 190 210
-0.046145886 -0.35348734 -0.67373842 204 200 214
-0.045185097 -0.35093251 -0.67380947 219 220 231
-0.047921866 -0.35271162 -0.67359853 223 224 234
-0.047564525 -0.35234651 -0.67362589 224 225 235
-0.045809329 -0.35118186 -0.67376119 221 223 233
-0.04802566 -0.35123473 -0.67358702 216 212 226
-0.048155274 -0.35082677 -0.67357588 213 206 222
-0.046715811 -0.34981048 -0.67368698 217 214 228
-0.047138423 -0.35165927 -0.67365801 224 226 235
-0.04816227 -0.35198995 -0.67357802 219 217 229
-0.045723457 -0.35034522 -0.67376649 227 230 239
-0.042475816 -0.35142866 -0.67414093 195 193 205
-0.042028215 -0.35040945 -0.67420936 199 198 209
-0.042526089 -0.35046872 -0.67414403 202 202 213
-0.041865814 -0.34975907 -0.67422962 203 203 214
-0.041636311 -0.35010624 -0.67426032 198 198 208
-0.04176506 -0.34988329 -0.67424309 201 201 211
-0.044407934 -0.3501097 -0.67389625 220 222 232
-0.064891383 -0.3553516 -0.67345208 192 184 208
-0.064878248 -0.35555047 -0.67346781 190 181 207
-0.065302856 -0.35488048 -0.67344022 195 191 207
-0.062352691 -0.35638648 -0.67334259 188 173 214
-0.061025027 -0.35586503 -0.67319107 195 184 222
-0.061268494 -0.35431451 -0.67311257 211 204 220
-0.0606145 -0.35583124 -0.67315239 196 185 225
-0.062171448 -0.3551771 -0.67324847 201 190 215
-0.060896013 -0.35364765 -0.67303234 218 215 223
-0.06404607 -0.35454938 -0.67332715 203 197 215
-0.062567823 -0.35519859 -0.67327863 200 189 214
-0.063985817 -0.35614347 -0.67345643 187 173 208
-0.063372657 -0.3560352 -0.67340463 190 175 209
-0.057758473 -0.35552719 -0.67319793 208 200 228
-0.059678614 -0.35666949 -0.67322379 189 176 227
-0.056923851 -0.3543762 -0.67314935 220 214 230
-0.05728922 -0.3559964 -0.67323434 209 202 226
-0.058087185 -0.35527605 -0.67317688 207 198 229
-0.059876576 -0.35657516 -0.67321306 189 176 227
-0.060020007 -0.35505411 -0.6731109 205 197 226
-0.058579028 -0.35437113 -0.67310709 214 208 229
-0.058378961 -0.35468397 -0.67313284 211 204 229
-0.059687451 -0.35500008 -0.67311674 206 198 227
-0.059509028 -0.35368893 -0.67303711 220 216 227
-0.053180527 -0.35615584 -0.67336202 203 200 215
-0.054356962 -0.35651222 -0.67334837 205 200 218
-0.053378876 -0.35709551 -0.67338789 199 198 211
-0.053131379 -0.35484076 -0.67332095 209 202 221
-0.052792065 -0.35648835 -0.67338091 200 198 212
-0.054912377 -0.35632464 -0.67333061 208 201 221
-0.055315599 -0.35493374 -0.67324835 215 208 226
-0.055372298 -0.35448053 -0.67321986 217 211 228
-0.05386731 -0.35356808 -0.6732375 217 209 228
-0.054953583 -0.35533661 -0.67328811 212 204 225
-0.055358212 -0.35477436 -0.67323726 216 209 227
-0.049595166 -0.35444456 -0.67351151 215 215 226
-0.052494347 -0.35412055 -0.67332113 212 204 224
-0.051864263 -0.35560617 -0.67340779 206 204 218
-0.05112322 -0.3553074 -0.67344415 209 209 220
-0.051138092 -0.35419402 -0.67340755 214 211 226
-0.051238723 -0.35463259 -0.67341536 212 209 223
-0.051143296 -0.35546613 -0.67344797 208 208 219
-0.046929199 -0.35353175 -0.6736778 209 207 219
-0.047185384 -0.35369372 -0.67366332 209 206 219
-0.046938643 -0.35411003 -0.67369664 201 195 212
-0.061413504 -0.35958374 -0.67354274 163 133 194
-0.06100985 -0.36067387 -0.67364162 158 109 180
-0.06218449 -0.36081892 -0.6737268 152 118 176
-0.061477903 -0.35979041 -0.6735698 161 130 191
-0.06157852 -0.3583639 -0.67341805 170 156 210
-0.062402405 -0.35749957 -0.67342019 176 158 213
-0.056715928 -0.35875741 -0.67342305 202 193 209
-0.056998719 -0.35962784 -0.67348963 196 182 199
-0.05773275 -0.35918647 -0.6734758 191 167 201
-0.058486991 -0.36082008 -0.67360598 177 142 183
-0.060145177 -0.36047581 -0.67360044 164 111 183
-0.058457691 -0.35781085 -0.67333549 192 176 218
-0.060071018 -0.3576555 -0.67328501 181 164 222
-0.059232868 -0.35997707 -0.67356312 173 129 189
-0.060439561 -0.35891259 -0.6734187 171 137 205
-0.059825867 -0.35861814 -0.6733982 177 148 208
-0.055955362 -0.35799873 -0.67338341 203 197 214
-0.055750828 -0.35763517 -0.67336261 204 199 216
-0.060913973 -0.36445528 -0.67403579 154 122 172
-0.061136801 -0.36271665 -0.67388934 151 99 166
-0.060560003 -0.36334014 -0.67388725 157 114 175
-0.06176661 -0.36167121 -0.67381084 149 100 166
-0.059987426 -0.36498648 -0.67403239 162 141 178
-0.060023502 -0.36260638 -0.67380172 162 118 176
-0.059915617 -0.36314464 -0.67385221 163 127 177
-0.059896581 -0.36169639 -0.67370945 162 111 174
-0.060511094 -0.36289641 -0.67384136 157 110 174
-0.059549734 -0.36304629 -0.6738342 167 134 178
-0.03880528 -0.32183096 -0.68013841 130 111 113
-0.037934285 -0.3219429 -0.68019193 116 97 97
-0.037262551 -0.3211731 -0.68045604 117 97 100
-0.037859809 -0.32012704 -0.68066162 133 114 122
-0.033886097 -0.32001349 -0.68098974 103 73 104
-0.034053773 -0.32071885 -0.68082786 97 66 90
-0.033952955 -0.32053342 -0.68087643 98 67 93
-0.034630701 -0.32044306 -0.68082356 103 76 100
-0.036697723 -0.32212025 -0.6802631 101 79 80
-0.03510949 -0.32078081 -0.68070418 103 78 97
-0.035679989 -0.32053915 -0.68070966 110 88 105
-0.0368503 -0.32086888 -0.6805647 117 97 104
-0.03381056 -0.32412905 -0.68007904 97 42 37
-0.035484914 -0.32298276 -0.68017769 99 66 65
-0.033421062 -0.32347098 -0.68028241 89 37 40
-0.030639222 -0.32592869 -0.68008268 90 37 17
-0.031557392 -0.32404986 -0.68040836 82 36 36
-0.031931225 -0.32427281 -0.68029833 86 35 33
-0.032136012 -0.32397205 -0.6803416 84 35 35
-0.03207127 -0.32303065 -0.6805802 79 37 45
-0.030413561 -0.32505202 -0.6803326 82 37 28
-0.029672612 -0.32435885 -0.68060654 81 43 36
-0.027124558 -0.3251124 -0.68076599 84 49 39
-0.028376769 -0.3254627 -0.68051898 85 44 27
-0.027010113 -0.32554799 -0.6806711 82 48 40
-0.028318349 -0.32594886 -0.68040431 83 42 28
-0.028836831 -0.32355317 -0.68091804 80 49 44
-0.028866926 -0.32323208 -0.68099123 80 50 47
-0.027789341 -0.32720962 -0.68013728 100 62 46
-0.029177152 -0.32674623 -0.68009782 97 54 34
-0.039485116 -0.32189268 -0.68005961 140 122 126
-0.037229326 -0.32392311 -0.67972732 127 109 94
-0.039069239 -0.32242882 -0.67996162 134 117 117
-0.037574448 -0.32467154 -0.67949319 142 125 105
-0.039154012 -0.32326752 -0.67972535 147 131 124
-0.038267434 -0.32331234 -0.67979735 134 117 109
-0.038414594 -0.32554334 -0.679151 158 141 118
-0.039957058 -0.32590449 -0.67883557 160 141 127
-0.039697338 -0.3236824 -0.67955709 159 144 135
-0.039618161 -0.32556945 -0.67898399 159 142 126
-0.038575154 -0.3248173 -0.67935437 158 142 123
-0.039260175 -0.32440263 -0.6793921 159 143 129
-0.034841619 -0.32560703 -0.6795758 120 69 46
-0.036541305 -0.32534379 -0.67942691 137 112 87
-0.035328705 -0.32563156 -0.67950606 126 82 58
-0.036659002 -0.32576641 -0.67929721 145 121 93
-0.035562545 -0.32413098 -0.67988229 109 67 54
-0.033970498 -0.32504225 -0.67983258 104 43 28
-0.033582568 -0.32529554 -0.67981231 104 38 22
-0.032395251 -0.32523304 -0.67999202 96 34 21
-0.031937338 -0.32527834 -0.68004972 93 35 22
-0.053110283 -0.32741284 -0.67691809 186 176 173
-0.05309096 -0.32913175 -0.67636013 202 192 203
-0.051137827 -0.32989982 -0.67628348 217 210 225
-0.051562753 -0.32829645 -0.67676109 202 194 196
-0.051738482 -0.32785073 -0.67688805 197 190 188
-0.04956542 -0.32952264 -0.6765663 216 211 224
-0.051693339 -0.32801506 -0.67683923 199 191 191
-0.052631326 -0.3287833 -0.67649394 204 196 201
-0.051130466 -0.32759237 -0.67702901 195 187 184
-0.050296009 -0.32721731 -0.67720371 189 173 171
-0.048887298 -0.3291592 -0.67673051 211 201 213
-0.048933312 -0.32956073 -0.67660731 216 209 223
-0.04575175 -0.32776579 -0.67756319 191 183 187
-0.045625623 -0.32879731 -0.67730248 203 196 198
-0.04628766 -0.32912928 -0.67711025 208 202 207
-0.046672303 -0.32990962 -0.67683893 218 212 219
-0.04555469 -0.32844681 -0.67740858 199 191 194
-0.045520149 -0.32990816 -0.67701691 216 210 211
-0.048820093 -0.32851726 -0.67692751 203 188 196
-0.043001436 -0.32949215 -0.67744964 210 202 199
-0.041546345 -0.32922196 -0.67769367 208 197 194
-0.04281443 -0.32982251 -0.67737824 216 208 205
-0.042519204 -0.32967699 -0.67745328 214 205 203
-0.044900954 -0.32831654 -0.67754412 197 188 188
-0.043418042 -0.32771787 -0.67789239 186 173 170
-0.043844614 -0.3274681 -0.67790681 184 172 170
-0.044410534 -0.32809436 -0.67766583 193 183 181
-0.044762235 -0.32985169 -0.67714447 214 208 206
-0.039341055 -0.32923067 -0.67797911 207 198 189
-0.03966232 -0.32887077 -0.67803347 201 191 179
-0.037399232 -0.32674527 -0.6789313 165 151 122
-0.039170422 -0.32865754 -0.67816025 197 187 174
-0.037740737 -0.32869002 -0.67834967 197 189 176
-0.039550409 -0.3299095 -0.67776364 218 212 208
-0.038878128 -0.32673422 -0.67873716 167 151 130
-0.037658811 -0.32627201 -0.67902827 158 142 112
-0.0402923 -0.32861671 -0.67802078 198 186 177
-0.039672129 -0.32854202 -0.67812371 196 184 172
-0.034835748 -0.32977125 -0.67844784 207 190 177
-0.035669249 -0.32949489 -0.67840838 201 184 175
-0.033860818 -0.32855797 -0.67890584 172 134 116
-0.033950742 -0.32930964 -0.6786921 193 165 148
-0.034102481 -0.32892627 -0.67877424 183 150 134
-0.035362754 -0.32965675 -0.67840672 205 189 178
-0.036404565 -0.32873368 -0.67851657 189 171 160
-0.0362431 -0.32722014 -0.67895329 162 136 114
-0.035506122 -0.32636896 -0.67928255 139 99 72
-0.035042103 -0.32661021 -0.67927635 137 91 67
-0.035393648 -0.32792032 -0.67887098 163 127 112
-0.029386811 -0.32929337 -0.67940587 154 121 99
-0.029324649 -0.32959634 -0.67933697 161 129 107
-0.030017938 -0.3276692 -0.67972904 122 77 55
-0.030013375 -0.32746434 -0.67978257 117 72 50
-0.031891998 -0.32656759 -0.67973065 108 45 22
-0.030179933 -0.3281841 -0.67957169 134 90 68
-0.031596281 -0.32811019 -0.6793738 143 90 68
-0.032849502 -0.32654396 -0.67959213 114 42 19
-0.030204404 -0.32977253 -0.67915201 173 141 119
-0.033117771 -0.32998425 -0.67862684 208 187 167
-0.032480866 -0.32874426 -0.67906159 169 128 107
-0.028477946 -0.32872841 -0.67965186 135 98 75
-0.029086849 -0.32948989 -0.67939079 157 124 102
-0.026749544 -0.32893518 -0.67977691 128 87 62
-0.026205502 -0.3300333 -0.67954743 148 111 84
-0.028894603 -0.32790506 -0.67982304 120 81 59
-0.02848677 -0.32733092 -0.68001747 105 63 42
-0.026696907 -0.32892075 -0.67978722 127 87 62
-0.049623247 -0.33012778 -0.67636746 221 216 233
-0.048932124 -0.33102965 -0.67621166 220 215 230
-0.045721479 -0.33172336 -0.67651266 215 208 215
-0.047896273 -0.33116242 -0.67633045 219 213 225
-0.046982784 -0.33169368 -0.67632979 217 210 221
-0.045117803 -0.33152747 -0.67665499 215 207 212
-0.045530908 -0.33185008 -0.67650837 215 207 214
-0.048050698 -0.33072707 -0.67641795 220 215 227
-0.047862478 -0.33085179 -0.67641574 219 214 225
-0.043586385 -0.33374918 -0.67632663 210 204 215
-0.044460762 -0.33261111 -0.67647809 213 205 213
-0.04407195 -0.33265299 -0.67653149 213 206 213
-0.043739967 -0.33341029 -0.6763888 211 204 214
-0.043635208 -0.33345628 -0.6763941 211 204 214
-0.044539079 -0.33286002 -0.67640013 212 204 213
-0.041419555 -0.33229768 -0.67699915 214 212 214
-0.042900514 -0.3310411 -0.67709321 216 212 212
-0.041610468 -0.33301666 -0.6768254 211 211 215
-0.041866772 -0.33047059 -0.67733294 219 213 212
-0.043086085 -0.33062747 -0.67715907 218 212 211
-0.042326432 -0.33036122 -0.67730296 219 213 211
-0.037871428 -0.33201915 -0.67748457 211 211 218
-0.039191548 -0.33334643 -0.67702109 208 209 219
-0.039036218 -0.33233452 -0.67729694 212 213 216
-0.039415196 -0.33275878 -0.67715263 211 212 217
-0.037697613 -0.33342576 -0.67713672 204 204 222
-0.038820032 -0.33176669 -0.67746234 215 214 215
-0.040098455 -0.33084667 -0.67747915 218 214 213
-0.040829554 -0.33226568 -0.67707837 214 212 214
-0.039892115 -0.3318257 -0.67730123 215 213 215
-0.040747199 -0.3307786 -0.67740351 219 213 213
-0.034968771 -0.33196598 -0.67786008 206 196 197
-0.035075244 -0.33300179 -0.67758369 204 197 208
-0.034417454 -0.33258125 -0.67778355 205 196 202
-0.036371354 -0.33346248 -0.67728269 201 199 217
-0.034793857 -0.33218747 -0.67782915 206 196 199
-0.037078466 -0.33156583 -0.67767543 212 211 218
-0.035198566 -0.3306244 -0.67817491 213 202 195
-0.036068689 -0.33102861 -0.67795187 213 206 206
-0.035373639 -0.33016369 -0.67827022 216 206 196
-0.036766194 -0.33163127 -0.677701 211 208 215
-0.031536233 -0.33394057 -0.67785996 199 190 206
-0.029539092 -0.33217761 -0.67862242 183 165 164
-0.030426478 -0.33184946 -0.67857897 184 164 160
-0.030896263 -0.33337408 -0.67810464 194 182 193
-0.029998347 -0.3312771 -0.67879415 180 157 147
-0.030313483 -0.33105782 -0.67880547 180 156 143
-0.032350227 -0.33270207 -0.67806339 197 183 188
-0.03276699 -0.33264357 -0.67801112 202 189 193
-0.032623369 -0.3318564 -0.67823273 202 186 183
-0.031359736 -0.33157089 -0.67850792 190 169 163
-0.032706782 -0.33113173 -0.67840207 204 186 177
-0.028125221 -0.33348969 -0.67847806 186 172 182
-0.028178733 -0.33381608 -0.67840499 190 178 192
-0.027269844 -0.33345929 -0.6786325 185 168 178
-0.025972318 -0.33135056 -0.67927021 159 128 114
-0.026717564 -0.33376253 -0.6786691 188 172 184
-0.027024819 -0.33393312 -0.67858237 190 175 190
-0.02911018 -0.33148608 -0.67886114 178 155 147
-0.028126426 -0.3317315 -0.67889768 172 149 141
-0.028586218 -0.33078429 -0.67910182 170 143 126
-0.027010113 -0.33101499 -0.67920357 160 130 114
-0.027373105 -0.3317951 -0.67895871 167 142 134
-0.028178398 -0.33137158 -0.67898792 170 145 134
-0.025297577 -0.33394504 -0.67887765 189 169 183
-0.042534139 -0.33475333 -0.67629457 206 203 214
-0.043208286 -0.33399916 -0.67632687 209 204 215
-0.043927949 -0.3340371 -0.6762014 209 202 215
-0.039243106 -0.33743748 -0.67627561 203 200 210
-0.039544661 -0.3362644 -0.67645669 206 204 213
-0.039854024 -0.3352662 -0.67660415 208 208 215
-0.039790399 -0.33552322 -0.67656404 208 207 214
-0.040720157 -0.33530587 -0.67647934 205 205 214
-0.039252784 -0.33523846 -0.67666829 208 207 216
-0.037344519 -0.33619207 -0.67670351 206 202 217
-0.039318297 -0.33502337 -0.67669356 207 207 217
-0.03741521 -0.33418599 -0.67698872 201 201 223
-0.038730208 -0.33598021 -0.67660809 208 206 215
-0.038161606 -0.3362464 -0.6766212 208 204 215
-0.033335693 -0.33418083 -0.67755455 204 196 213
-0.033819616 -0.33549574 -0.67728269 207 198 214
-0.033804916 -0.33643991 -0.67713404 209 200 215
-0.033816166 -0.33662763 -0.67710268 210 201 216
-0.033880342 -0.33596036 -0.67720085 208 199 214
-0.034798495 -0.33537051 -0.67717391 205 198 213
-0.036551137 -0.33692908 -0.67669743 208 201 214
-0.036567468 -0.33721834 -0.67665303 208 201 213
-0.036597438 -0.33456472 -0.67703456 202 200 221
-0.036740385 -0.33410949 -0.67708033 200 200 223
-0.029849702 -0.33558592 -0.67780846 198 190 204
-0.030870227 -0.33683422 -0.67745209 204 195 209
-0.029612774 -0.33541909 -0.67786777 197 189 203
-0.030906163 -0.33600089 -0.67760682 202 193 208
-0.032619853 -0.33739394 -0.67714244 211 201 216
-0.031484183 -0.33541957 -0.67762709 202 194 209
-0.03287708 -0.33680022 -0.67720193 210 200 216
-0.032140747 -0.33450252 -0.67767668 202 194 210
-0.030933265 -0.33467233 -0.67782736 199 191 207
-0.032114256 -0.33554408 -0.67751449 204 196 212
-0.026677547 -0.33557737 -0.67833412 195 180 194
-0.026716582 -0.33580112 -0.67828786 196 182 195
-0.026847865 -0.33551893 -0.67831177 195 180 193
-0.026013391 -0.33487889 -0.67858201 193 176 190
-0.027227191 -0.33750546 -0.67789471 204 193 207
-0.026144171 -0.33594427 -0.6783722 198 183 198
-0.026436336 -0.33443019 -0.67858952 191 175 190
-0.02775134 -0.33463973 -0.67832124 193 181 195
-0.027724838 -0.33521312 -0.67821652 194 182 195
-0.027074464 -0.33527988 -0.67831665 194 180 193
-0.027609114 -0.33477655 -0.67831987 193 180 195
-0.024228092 -0.33761379 -0.67839658 199 186 202
-0.022627058 -0.33561334 -0.67898673 184 152 157
-0.023466876 -0.33618706 -0.67876214 191 164 173
-0.025138265 -0.33726606 -0.67832452 204 189 207
-0.025217194 -0.33658695 -0.6784305 201 186 203
-0.024546349 -0.33406129 -0.67896974 186 161 172
-0.025236286 -0.337522 -0.67826533 206 192 210
-0.023943769 -0.33516744 -0.67886847 189 162 171
-0.037208077 -0.33868718 -0.67635113 212 206 215
-0.037327047 -0.33896378 -0.67629564 212 208 216
-0.035091925 -0.34095496 -0.67624342 221 218 227
-0.034154318 -0.34104592 -0.67632461 222 219 229
-0.036848981 -0.34000641 -0.6762023 217 213 221
-0.036649354 -0.33881271 -0.67639267 213 207 217
-0.035922036 -0.33862087 -0.67650598 213 206 217
-0.035052698 -0.33894536 -0.67656225 215 208 220
-0.03533484 -0.33882922 -0.6765458 214 208 219
-0.034702297 -0.34027627 -0.67637998 219 215 225
-0.033550169 -0.34036073 -0.67651361 221 215 227
-0.032296538 -0.34094605 -0.67656326 220 216 227
-0.030983921 -0.34072962 -0.67674971 204 200 216
-0.031274855 -0.34029055 -0.6767928 211 206 219
-0.031711832 -0.34161726 -0.67651331 207 205 222
-0.033194542 -0.33991361 -0.67663562 220 213 226
-0.031686004 -0.33881101 -0.67699885 212 204 216
-0.032221176 -0.340139 -0.67670995 218 212 223
-0.032777987 -0.33805785 -0.67700082 213 203 218
-0.032898717 -0.34082559 -0.67651415 222 217 229
-0.032875225 -0.3387101 -0.67687815 215 207 220
-0.026543112 -0.3391718 -0.67773867 198 189 212
-0.025531383 -0.33916363 -0.67795151 201 188 214
-0.025673751 -0.33886278 -0.67796838 202 190 214
-0.028622523 -0.3379623 -0.6775493 203 194 206
-0.027472612 -0.3389467 -0.677598 197 190 209
-0.027357496 -0.33789253 -0.67780268 205 195 209
-0.025600199 -0.33808836 -0.67810392 207 195 215
-0.027968831 -0.3379721 -0.67767227 204 195 208
-0.024540419 -0.3415817 -0.67774951 188 172 206
-0.025034463 -0.34176815 -0.67763937 188 170 209
-0.024369683 -0.33898041 -0.67815775 195 182 206
-0.023905536 -0.33795917 -0.67838341 197 187 204
-0.02532856 -0.33934563 -0.67796177 201 186 213
-0.024399353 -0.33979112 -0.67802787 191 177 205
-0.033489496 -0.34228942 -0.67621642 220 216 231
-0.032075681 -0.34394675 -0.67619383 198 188 210
-0.031875663 -0.34333432 -0.67630905 205 196 210
-0.032380503 -0.34212375 -0.67637527 214 211 224
0 0 0 1 0 0 0 1 0 0 0 1 0 0 0 0 0 776 1 0 0
