ply
format ascii 1.0
comment PCL generated
element vertex 179
property float x
property float y
property float z
property uchar red
property uchar green
property uchar blue
element camera 1
property float view_px
property float view_py
property float view_pz
property float x_axisx
property float x_axisy
property float x_axisz
property float y_axisx
property float y_axisy
property float y_axisz
property float z_axisx
property float z_axisy
property float z_axisz
property float focal
property float scalex
property float scaley
property float centerx
property float centery
property int viewportx
property int viewporty
property float k1
property float k2
end_header
-0.056855813 -0.3609277 -0.67357624 193 179 188
-0.05667476 -0.36361304 -0.67380601 181 174 172
-0.057734396 -0.36353475 -0.67383176 177 165 177
-0.056676425 -0.3642416 -0.67386264 177 172 168
-0.05711339 -0.36503938 -0.67394817 171 165 166
-0.058232237 -0.36452511 -0.67393643 170 158 173
-0.054741248 -0.36417398 -0.67388678 154 145 158
-0.053937428 -0.36275917 -0.67375273 151 141 165
-0.054095872 -0.36456889 -0.67394847 146 133 149
-0.055760127 -0.36499631 -0.6739493 163 156 158
-0.055411227 -0.3650088 -0.67396039 159 151 155
-0.054686137 -0.36463824 -0.67393965 152 142 153
-0.054892059 -0.36218736 -0.67368942 166 157 173
-0.054984037 -0.36351171 -0.6738081 160 153 166
-0.056028318 -0.36242464 -0.67370236 179 171 176
-0.055325244 -0.36245939 -0.67371076 170 161 173
-0.055993944 -0.36151806 -0.67362088 184 173 181
-0.068577714 -0.36846909 -0.67539507 151 132 148
-0.068825781 -0.3683306 -0.67541897 149 131 146
-0.068575464 -0.36785412 -0.67531407 151 132 145
-0.060921509 -0.36828026 -0.67455435 155 140 162
-0.061368421 -0.36886075 -0.67468667 153 139 157
-0.060442451 -0.36904475 -0.67462182 157 145 160
-0.056690808 -0.36836907 -0.67441463 149 137 157
-0.05736452 -0.3661235 -0.6741029 168 162 162
-0.0576966 -0.36655632 -0.67417622 166 159 161
-0.060024448 -0.36881998 -0.6745767 157 146 160
-0.057767335 -0.36703038 -0.67424816 162 155 160
-0.059712112 -0.36715344 -0.67432469 160 147 166
-0.060257949 -0.36683562 -0.67429549 159 142 170
-0.059970614 -0.36638182 -0.67422074 160 143 171
-0.05836691 -0.36647847 -0.6741851 165 157 164
-0.059377544 -0.36650634 -0.67422044 162 148 168
-0.055821735 -0.36895648 -0.67452568 139 121 148
-0.05553199 -0.36864388 -0.67448765 138 119 147
-0.056496922 -0.3674747 -0.67428535 154 144 157
-0.056305379 -0.36838299 -0.67442459 145 132 154
-0.055646118 -0.36601701 -0.6740942 155 145 153
-0.056223545 -0.3675532 -0.67430454 150 139 155
-0.054146379 -0.36528811 -0.67402858 144 129 143
-0.055065051 -0.36608806 -0.6741209 148 135 149
-0.070147119 -0.3714076 -0.67599946 139 124 141
-0.06938123 -0.37225685 -0.67596245 142 127 145
-0.070377246 -0.37207714 -0.67608875 140 125 141
-0.068831496 -0.37141812 -0.67578155 145 129 149
-0.069980733 -0.37083361 -0.67591101 141 125 142
-0.06909138 -0.36982277 -0.67564672 147 129 148
-0.069922321 -0.36998418 -0.67580587 142 126 143
-0.068932675 -0.3692551 -0.67555612 149 130 150
-0.069375232 -0.371292 -0.67585969 143 127 145
-0.067214899 -0.37297347 -0.67574263 144 129 150
-0.066355161 -0.37176457 -0.67552835 143 126 148
-0.064713292 -0.3703973 -0.67520732 140 123 145
-0.064507172 -0.3714059 -0.67527759 142 124 146
-0.064776607 -0.37215671 -0.67537963 143 125 148
-0.064527132 -0.37107658 -0.6752491 141 124 146
-0.068103552 -0.37170273 -0.67570794 146 130 151
-0.067722313 -0.36983374 -0.67546058 148 130 151
-0.067726202 -0.37181753 -0.67568344 145 129 150
-0.065954447 -0.37058449 -0.67536962 141 124 146
-0.066968039 -0.37112924 -0.67553115 143 127 148
-0.062389683 -0.37126464 -0.67504334 150 135 153
-0.061909538 -0.37237632 -0.67513663 144 129 147
-0.063323662 -0.37265977 -0.67528629 145 128 148
-0.061583411 -0.37043402 -0.67487818 152 138 155
-0.06303297 -0.37175274 -0.67515421 148 132 152
-0.063631743 -0.37253508 -0.6752966 146 129 149
-0.060798921 -0.36925146 -0.67467642 156 143 159
-0.063807413 -0.36937645 -0.67501163 142 125 146
-0.062084168 -0.36944202 -0.67483252 150 136 154
-0.062836871 -0.37113914 -0.67507243 149 133 153
-0.064242817 -0.37118891 -0.6752283 143 125 147
-0.056818299 -0.37156767 -0.67488205 139 123 144
-0.059079733 -0.37255701 -0.67503071 139 124 142
-0.058720693 -0.3726458 -0.67504305 139 123 141
-0.057181332 -0.36968562 -0.67460757 143 129 154
-0.058774773 -0.37178573 -0.67491746 140 125 145
-0.060071994 -0.3701399 -0.67474455 151 138 154
-0.058223318 -0.36987355 -0.67465973 146 132 154
-0.05869507 -0.36979973 -0.67466444 147 134 155
-0.058227666 -0.36947554 -0.6746124 147 134 156
-0.058691882 -0.37070811 -0.67477274 144 129 150
-0.059637863 -0.37017426 -0.6747362 149 136 154
-0.055175204 -0.36926255 -0.67459279 135 112 141
-0.056260068 -0.3701663 -0.67468935 139 122 147
-0.05653568 -0.37181011 -0.67492068 138 121 142
-0.069365054 -0.37336078 -0.67606777 143 129 147
-0.067773141 -0.37542647 -0.67612076 147 132 151
-0.067218028 -0.37506428 -0.67600286 148 132 151
-0.065480366 -0.37675771 -0.67600095 151 134 150
-0.065924034 -0.37637696 -0.67600828 151 133 150
-0.066508673 -0.37475011 -0.67587066 148 132 150
-0.065427087 -0.37392631 -0.67564481 147 129 149
-0.066842116 -0.3739714 -0.67581654 147 131 150
-0.06664563 -0.37350765 -0.67573786 146 130 150
-0.064672574 -0.37458125 -0.67563468 148 130 149
-0.063541323 -0.37608132 -0.6757139 150 132 148
-0.061904427 -0.37527096 -0.67548382 148 134 146
-0.063878872 -0.3766464 -0.67580956 153 135 149
-0.061218105 -0.37486488 -0.67537922 147 134 145
-0.061619919 -0.37609285 -0.67556036 151 141 148
-0.063517027 -0.37635809 -0.67574549 152 134 148
-0.062253781 -0.37433848 -0.67539954 145 128 145
-0.063591711 -0.37519893 -0.67561227 148 130 148
-0.064344145 -0.37551984 -0.67571241 150 132 149
-0.06444364 -0.37581849 -0.67575628 151 132 149
-0.063441992 -0.37560225 -0.67564833 149 131 147
-0.057169378 -0.3766087 -0.67548907 161 147 130
-0.057406876 -0.37432009 -0.67524666 144 129 138
-0.057243016 -0.37403178 -0.6752131 142 127 138
-0.058023751 -0.37652436 -0.67549312 158 147 135
-0.056735735 -0.37608838 -0.67542642 158 143 129
-0.058691267 -0.37534505 -0.67537659 148 138 143
-0.058715563 -0.37359113 -0.67516762 140 125 141
-0.059508953 -0.37514919 -0.6753577 147 137 145
-0.060502268 -0.37529716 -0.67537743 149 140 146
-0.053646132 -0.37471381 -0.67521155 132 103 117
-0.053888801 -0.37618393 -0.67534125 139 118 129
-0.053841285 -0.37648356 -0.67536366 139 120 131
-0.055927671 -0.37626708 -0.67543256 156 137 122
-0.054771159 -0.3769044 -0.6754365 149 132 132
-0.056236096 -0.375267 -0.67533046 151 132 127
-0.055841163 -0.37391281 -0.67517877 139 117 128
-0.056401867 -0.37363511 -0.67515755 140 121 134
-0.055746797 -0.37553406 -0.67535168 150 129 123
-0.054740962 -0.37363005 -0.6751315 132 104 120
-0.058468007 -0.37713447 -0.67556018 161 151 137
-0.056432597 -0.37747952 -0.67552388 164 147 131
-0.055723924 -0.37773666 -0.67550164 159 141 135
-0.056516234 -0.37781131 -0.67553651 166 148 133
-0.072100118 -0.37155297 -0.67628956 136 122 134
-0.071199805 -0.37265825 -0.67625481 139 126 139
-0.084844165 -0.37693217 -0.67912358 135 113 119
-0.083558321 -0.37656102 -0.67881864 128 104 116
-0.072730102 -0.37483183 -0.67673057 140 124 137
-0.073262326 -0.37513614 -0.67684764 137 120 133
-0.073253036 -0.37681076 -0.67705506 142 122 138
-0.069709659 -0.37397674 -0.67619699 143 129 146
-0.069785014 -0.37459627 -0.67628795 143 129 146
-0.069120385 -0.37576535 -0.67634308 145 131 150
-0.072011568 -0.37469149 -0.67660892 142 128 141
-0.071353734 -0.37590921 -0.67667001 146 130 145
-0.072241746 -0.37582535 -0.67678207 146 129 144
-0.071993008 -0.37579432 -0.67674392 146 129 144
-0.070193239 -0.3756403 -0.67647636 144 130 147
-0.0677047 -0.37595138 -0.67618036 148 132 152
-0.081395663 -0.37966174 -0.67879009 137 119 130
-0.081954978 -0.38048986 -0.67899847 149 131 143
-0.080730796 -0.3800368 -0.67869687 134 115 132
-0.080482677 -0.38064793 -0.67871565 137 116 139
-0.080675043 -0.37951097 -0.6786257 130 110 125
-0.080991156 -0.38066417 -0.67882138 141 122 141
-0.083751574 -0.37733397 -0.67893851 134 110 121
-0.083053172 -0.37750313 -0.67883307 131 108 117
-0.082227305 -0.37840077 -0.67880213 134 115 120
-0.083255813 -0.3790459 -0.67907763 147 129 133
-0.078769244 -0.38036677 -0.67837143 138 118 141
-0.076855861 -0.37963289 -0.67795211 144 126 143
-0.076447271 -0.37994286 -0.67791957 150 133 150
-0.076176181 -0.38059801 -0.67795283 158 144 160
-0.080074988 -0.38022414 -0.67858428 130 109 132
-0.079047874 -0.37944379 -0.67830998 128 106 128
-0.079125479 -0.37905744 -0.67828006 125 103 122
-0.074116476 -0.37912077 -0.67746168 159 144 160
-0.074515775 -0.37952572 -0.67757046 160 146 161
-0.074078187 -0.3779566 -0.6773181 147 128 144
-0.073213942 -0.37778524 -0.67716867 151 133 149
-0.07529252 -0.37817156 -0.67752498 140 120 136
-0.071072191 -0.37710491 -0.67677778 151 134 151
-0.071662724 -0.37800249 -0.67695665 163 148 164
-0.080087468 -0.3830004 -0.67882192 154 132 156
-0.081361994 -0.38205603 -0.67903417 156 136 156
-0.076625787 -0.38144735 -0.678105 162 148 165
-0.079469047 -0.38319296 -0.67872953 159 139 161
-0.077241987 -0.38126951 -0.67819959 157 142 160
-0.078527614 -0.38142651 -0.678433 150 132 153
-0.079341516 -0.38202271 -0.67861855 150 130 153
-0.079212673 -0.38120347 -0.67853409 143 124 147
-0.080011576 -0.38209152 -0.67873925 146 125 149
0 0 0 1 0 0 0 1 0 0 0 1 0 0 0 0 0 179 1 0 0
