ply
format ascii 1.0
comment PCL generated
element vertex 251
property float x
property float y
property float z
property uchar red
property uchar green
property uchar blue
element camera 1
property float view_px
property float view_py
property float view_pz
property float x_axisx
property float x_axisy
property float x_axisz
property float y_axisx
property float y_axisy
property float y_axisz
property float z_axisx
property float z_axisy
property float z_axisz
property float focal
property float scalex
property float scaley
property float centerx
property float centery
property int viewportx
property int viewporty
property float k1
property float k2
end_header
-0.2716665 0.022701275 -0.8702935 96 66 50
-0.27219898 0.023527617 -0.86949325 98 64 51
-0.27261201 0.023748413 -0.87129313 101 65 55
-0.27314341 0.024427088 -0.87133563 104 65 57
-0.27271438 0.024035392 -0.87040138 101 64 54
-0.27269864 0.02385951 -0.86782879 110 79 68
-0.27231878 0.023680212 -0.86835843 101 68 56
-0.27344188 0.024493851 -0.86837137 117 86 78
-0.2733646 0.024568709 -0.86909902 112 77 70
-0.27032328 0.021656469 -0.87018389 89 61 48
-0.27061033 0.021910183 -0.87030488 90 61 48
-0.27028465 0.02165143 -0.8698138 89 60 47
-0.27135304 0.022402149 -0.87018478 94 65 49
-0.27129483 0.022695238 -0.8682853 93 62 46
-0.26807189 0.020290501 -0.86869282 89 56 51
-0.26902682 0.020934084 -0.87083882 90 60 55
-0.26759675 0.020273043 -0.86993939 92 58 62
-0.26825011 0.020673616 -0.87110364 92 60 63
-0.26991913 0.021399766 -0.86919999 89 60 47
-0.26991439 0.021333929 -0.87026548 89 60 48
-0.26973435 0.021363098 -0.86776078 89 59 46
-0.27267322 0.028248291 -0.87861657 93 57 61
-0.27399692 0.025573727 -0.87572747 107 76 62
-0.27346572 0.026764471 -0.8779797 100 68 63
-0.27366546 0.026288856 -0.87687331 103 71 62
-0.2739858 0.025673537 -0.87647152 107 76 63
-0.2737169 0.026331726 -0.87812769 103 71 64
-0.27368787 0.026373748 -0.87612289 101 69 59
-0.27361709 0.027204176 -0.87608981 89 57 51
-0.27373332 0.027131028 -0.87581676 88 56 49
-0.27557102 0.021623751 -0.8786419 106 73 71
-0.27455208 0.024566608 -0.8784827 107 77 67
-0.27425617 0.025145724 -0.87691629 108 78 64
-0.27450979 0.024785232 -0.87904578 107 78 68
-0.27474037 0.024118463 -0.87901866 107 77 69
-0.2747387 0.02392548 -0.87787431 108 76 67
-0.27526745 0.022298668 -0.87710148 100 71 65
-0.27520663 0.022307431 -0.87607306 96 69 62
-0.27504891 0.022680782 -0.87561345 96 70 61
-0.27514261 0.022488093 -0.87606996 97 70 62
-0.27507409 0.02279794 -0.87679899 101 72 64
-0.27308887 0.020443803 -0.87860096 101 68 64
-0.27198154 0.02007138 -0.87652814 88 61 50
-0.27306113 0.020463567 -0.87733978 95 65 57
-0.27277416 0.020345561 -0.87769556 96 65 58
-0.27359948 0.020625157 -0.87915659 105 71 68
-0.27446899 0.021013925 -0.87714696 97 68 62
-0.27462676 0.021104224 -0.87621844 93 66 60
-0.27382278 0.020800278 -0.87594891 90 63 56
-0.27315342 0.02051726 -0.87668341 92 64 55
-0.27388012 0.020792391 -0.8769145 94 66 59
-0.2737304 0.020740286 -0.87672037 93 65 58
-0.26384398 0.018789865 -0.85938323 90 59 48
-0.26547742 0.019154595 -0.85952383 100 68 60
-0.26388928 0.017923865 -0.85629225 96 66 46
-0.26448986 0.018450519 -0.85773063 97 66 51
-0.26436254 0.018516384 -0.85805279 96 65 51
-0.26511103 0.018241117 -0.85650945 102 68 57
-0.26772362 0.020011619 -0.86220652 102 63 57
-0.26486841 0.019694455 -0.86300397 95 58 47
-0.26423913 0.019441484 -0.86215872 93 59 47
-0.26433349 0.019392524 -0.86188 92 58 47
-0.26531261 0.019476356 -0.86174947 92 56 47
-0.26579291 0.019943114 -0.86367178 95 57 46
-0.2657654 0.019487765 -0.86136651 94 59 50
-0.26454821 0.019050272 -0.85985839 94 62 53
-0.26608083 0.019590352 -0.86167401 95 58 50
-0.27548811 0.025575593 -0.88410091 102 79 65
-0.27203503 0.026738245 -0.88458198 115 88 90
-0.27243084 0.026036886 -0.88503575 121 97 96
-0.27188286 0.027898803 -0.88366151 102 68 71
-0.27244008 0.026397938 -0.88473028 116 90 90
-0.27483329 0.025706897 -0.88450164 106 81 70
-0.2733202 0.026858997 -0.88404733 104 74 70
-0.27274168 0.027716558 -0.88345748 97 65 64
-0.27448159 0.026606804 -0.88365072 97 71 63
-0.27451298 0.026734577 -0.88346213 95 69 62
-0.27541205 0.021864278 -0.88457084 115 79 78
-0.27560782 0.024098229 -0.88406473 107 80 70
-0.27581149 0.022698484 -0.88345152 104 76 68
-0.27554929 0.022049261 -0.88419169 112 78 75
-0.27341986 0.021873046 -0.88590503 84 66 67
-0.2724506 0.021931281 -0.88658679 64 57 58
-0.27364537 0.022107773 -0.88564634 95 73 74
-0.27199873 0.024519499 -0.88587272 124 104 108
-0.27445269 0.022146372 -0.88504308 114 82 84
-0.27201921 0.02278786 -0.88655609 77 70 72
-0.27192599 0.024529783 -0.88592148 123 104 107
-0.27329111 0.02538069 -0.88528651 122 100 96
-0.27432746 0.02303056 -0.88496637 121 89 89
-0.2751466 0.024759592 -0.88466835 109 83 73
-0.27521527 0.022670837 -0.88467139 115 81 78
-0.27255207 0.024882218 -0.88554204 129 107 108
-0.27539772 0.018275511 -0.88336432 44 26 21
-0.27596194 0.018773533 -0.88549173 35 24 22
-0.27602413 0.019197157 -0.88545924 43 30 28
-0.27587768 0.020272214 -0.88408959 74 52 47
-0.27590734 0.019351656 -0.88485742 51 35 32
-0.27587554 0.018969996 -0.88623583 42 28 28
-0.2755332 0.020586921 -0.88537055 91 61 62
-0.27592519 0.020102954 -0.88470781 68 48 45
-0.27552512 0.021474853 -0.88423771 112 77 76
-0.27548042 0.017309362 -0.88559783 12 6 4
-0.25622186 0.02107987 -0.85147274 9 6 4
-0.25996375 0.013752068 -0.85128742 81 65 43
-0.25983307 0.015798833 -0.8517794 84 62 46
-0.26067653 0.016164795 -0.85193014 91 64 51
-0.26042694 0.015715383 -0.85180271 88 64 49
-0.26094404 0.015074065 -0.85168493 90 67 50
-0.26111135 0.014745775 -0.85161746 91 68 50
-0.25923771 0.014179471 -0.85158253 77 57 38
-0.2586582 0.014296174 -0.85183167 73 50 32
-0.25859991 0.012737917 -0.85068905 90 70 53
-0.2585676 0.012814435 -0.85078108 87 67 51
-0.25823507 0.013041988 -0.85113841 78 56 40
-0.25656492 0.013126854 -0.85182023 58 25 16
-0.27400208 0.025581719 -0.87405825 106 70 59
-0.27392834 0.025478084 -0.87211174 106 65 60
-0.2740168 0.025635844 -0.8745259 105 71 59
-0.27394769 0.02605712 -0.87391222 99 63 55
-0.27392992 0.025963388 -0.87328273 100 62 56
-0.27383518 0.026760465 -0.87295592 89 50 48
-0.27410772 0.027778763 -0.87303323 92 58 58
-0.27417088 0.028622193 -0.87359732 86 56 57
-0.2738145 0.027648011 -0.87365383 79 42 42
-0.27332217 0.022520229 -0.87304139 96 66 56
-0.27340475 0.02272935 -0.87296146 97 66 57
-0.27412531 0.021905871 -0.87415886 93 67 57
-0.27187961 0.021963641 -0.87222189 96 67 53
-0.27372223 0.022647206 -0.87328827 97 66 57
-0.27401799 0.024783283 -0.87200993 105 64 60
-0.27280152 0.023226015 -0.87209702 100 66 56
-0.2731075 0.023894085 -0.87187743 102 65 57
-0.27447575 0.024062049 -0.87371004 102 68 60
-0.27402362 0.025218442 -0.87270218 107 67 61
-0.27412456 0.025154017 -0.87450922 107 74 61
-0.27424452 0.024653453 -0.87319368 104 67 61
-0.27408168 0.025026321 -0.87247467 106 66 61
-0.27477446 0.02324729 -0.87396204 98 66 60
-0.27185163 0.022628225 -0.87158561 97 67 53
-0.27196187 0.022426313 -0.87191737 97 67 53
-0.27398565 0.021185359 -0.87479401 89 65 56
-0.27278355 0.020833436 -0.87455642 88 63 52
-0.27154142 0.020883933 -0.87348002 89 63 49
-0.27349123 0.020966971 -0.87484407 88 63 54
-0.27213591 0.021252209 -0.87320781 92 66 52
-0.27167624 0.021888779 -0.88718688 46 47 49
-0.27582785 0.018469712 -0.88840693 29 19 23
-0.27603316 0.017935492 -0.88721192 12 7 8
-0.27573478 0.018689996 -0.88914829 35 25 30
-0.2757017 0.018900311 -0.89023536 41 30 35
-0.27610612 0.017991556 -0.88922429 13 9 11
-0.27564934 0.018993942 -0.89021611 44 32 38
-0.26467344 0.01788942 -0.85561043 101 66 54
-0.2610442 0.0175895 -0.85339224 88 59 47
-0.25998825 0.018300684 -0.85474187 69 40 33
-0.26055709 0.018104557 -0.85457635 75 46 37
-0.26156127 0.017987655 -0.85497427 82 53 39
-0.2605792 0.018487325 -0.85574478 67 38 29
-0.26344979 0.017763782 -0.85571051 94 65 43
-0.2613816 0.016499776 -0.85214776 94 65 54
-0.2601639 0.016448766 -0.85196805 88 62 49
-0.26116538 0.016855389 -0.85235298 92 62 52
-0.26248863 0.017137924 -0.8537724 95 65 49
-0.26189467 0.016971733 -0.85307562 94 64 51
-0.26060423 0.017223483 -0.85249102 88 59 50
-0.25645342 0.013485956 -0.85233831 52 22 13
-0.27329436 0.024092766 -0.86701906 116 86 75
-0.27267674 0.023618966 -0.86691749 107 76 61
-0.27263224 0.02339335 -0.86592489 105 72 57
-0.27176449 0.022841783 -0.86546004 102 66 58
-0.27153537 0.022837279 -0.86650777 97 64 52
-0.27150989 0.022872059 -0.86691678 96 63 49
-0.27199733 0.022986142 -0.86555463 103 68 58
-0.27043954 0.021784142 -0.86418599 103 66 65
-0.27038744 0.02177914 -0.86599779 96 62 55
-0.2707215 0.021967696 -0.86401576 104 66 66
-0.27123955 0.022403998 -0.86501962 101 64 61
-0.27042621 0.021849148 -0.86661333 94 61 51
-0.27103207 0.022218946 -0.86506546 100 64 60
-0.26847595 0.020637106 -0.86572593 92 56 46
-0.26971465 0.021369565 -0.86739999 90 59 46
-0.26820725 0.020471564 -0.86549944 92 55 46
-0.26783004 0.020208139 -0.86581945 91 54 47
-0.26931807 0.021134986 -0.86563379 94 60 51
-0.26962367 0.021306086 -0.86579907 95 61 53
-0.26942056 0.02117282 -0.86425 100 63 60
-0.2691353 0.021033568 -0.86560082 94 59 49
-0.26563755 0.019747538 -0.8667773 64 39 34
-0.26570773 0.019799763 -0.86618781 80 50 42
-0.26449063 0.019696958 -0.86528981 75 47 38
-0.26625216 0.019806044 -0.86713946 69 42 37
-0.26624036 0.019790202 -0.86733633 64 39 35
-0.26711988 0.020087365 -0.86382258 95 54 46
-0.26688355 0.020051371 -0.86400783 94 55 46
-0.26726094 0.020036716 -0.86519492 92 54 47
-0.26591641 0.019899983 -0.86484987 94 57 47
-0.26575989 0.01988548 -0.86478055 94 57 47
-0.27164876 0.029389802 -0.88089311 87 49 58
-0.2709029 0.029408822 -0.88171279 100 59 72
-0.26804706 0.02943611 -0.88242346 165 110 152
-0.26832578 0.030101614 -0.88221073 142 94 129
-0.27578169 0.025579615 -0.88302457 98 77 63
-0.27203509 0.028312229 -0.88318056 96 61 64
-0.27271488 0.028051294 -0.88291293 94 61 62
-0.27422053 0.02712198 -0.88314122 93 65 61
-0.27451998 0.026962865 -0.88261628 92 65 60
-0.27352607 0.026852755 -0.88063866 99 68 63
-0.27449206 0.025860608 -0.88049626 102 74 65
-0.27436668 0.026628263 -0.88171464 96 68 62
-0.27243403 0.028551985 -0.8818844 90 55 59
-0.27466509 0.026709171 -0.88239831 93 67 61
-0.27324742 0.027913736 -0.88213485 91 59 59
-0.27227399 0.028507056 -0.88035047 92 56 61
-0.27208173 0.028816108 -0.88041914 91 54 60
-0.27312499 0.027421169 -0.87948352 97 64 63
-0.27232048 0.028826134 -0.8795473 90 53 60
-0.27518103 0.02588333 -0.88196695 97 74 62
-0.27007121 0.029018035 -0.88241935 117 71 92
-0.27124336 0.029018845 -0.88227093 97 57 66
-0.26900822 0.029113425 -0.88245338 140 88 121
-0.2755667 0.022545159 -0.87995428 107 75 71
-0.27569649 0.024304273 -0.88169086 103 77 66
-0.27572453 0.023236286 -0.88090229 105 77 69
-0.27584982 0.023114676 -0.88225555 103 76 67
-0.27586827 0.022445168 -0.88283676 102 75 67
-0.27578944 0.021653512 -0.88176185 105 74 70
-0.27580556 0.022131652 -0.88185978 104 75 69
-0.27586734 0.022002162 -0.88299161 102 74 67
-0.27587807 0.021981111 -0.88318759 102 74 67
-0.27531388 0.024279119 -0.88072443 103 76 66
-0.27500892 0.025186382 -0.88074994 103 78 65
-0.27537701 0.023938198 -0.88059485 104 76 67
-0.27560776 0.020516589 -0.88232434 88 60 56
-0.2757096 0.021411929 -0.88192415 105 74 69
-0.2754564 0.020721475 -0.88070798 96 65 62
-0.27561283 0.020093359 -0.88297772 79 54 48
-0.27413586 0.017593456 -0.882936 25 12 8
-0.27297148 0.018536588 -0.88137972 57 35 31
-0.27158427 0.019266231 -0.88003153 79 51 48
-0.2717391 0.018105721 -0.8815679 33 19 16
-0.27188182 0.019482283 -0.87984222 89 58 54
-0.2737664 0.018854661 -0.88166916 66 41 37
-0.27480084 0.018203994 -0.88282341 45 26 22
-0.27503487 0.01950027 -0.88169986 73 48 44
-0.27438608 0.02007463 -0.88051665 89 59 56
-0.27240545 0.01976623 -0.87987316 94 62 58
-0.27442169 0.019260636 -0.88170809 71 46 42
-0.27529809 0.019968605 -0.88117009 81 54 51
-0.27498516 0.020538691 -0.8801775 95 65 62
-0.27517179 0.020926613 -0.87972146 103 70 68
0 0 0 1 0 0 0 1 0 0 0 1 0 0 0 0 0 251 1 0 0
