ply
format ascii 1.0
comment PCL generated
element vertex 508
property float x
property float y
property float z
property uchar red
property uchar green
property uchar blue
element camera 1
property float view_px
property float view_py
property float view_pz
property float x_axisx
property float x_axisy
property float x_axisz
property float y_axisx
property float y_axisy
property float y_axisz
property float z_axisx
property float z_axisy
property float z_axisz
property float focal
property float scalex
property float scaley
property float centerx
property float centery
property int viewportx
property int viewporty
property float k1
property float k2
end_header
-0.13555411 -0.49394387 -0.71378118 169 146 186
-0.13588633 -0.49279988 -0.71371716 157 134 174
-0.13486737 -0.49330518 -0.71299332 185 166 198
-0.1344921 -0.49254531 -0.71244854 186 169 196
-0.13355523 -0.49278513 -0.71175396 192 177 198
-0.13434494 -0.49319792 -0.71252787 189 172 199
-0.13581486 -0.49467471 -0.71417958 163 139 180
-0.13516337 -0.49534437 -0.71375823 178 159 191
-0.13348185 -0.49774075 -0.7128942 179 166 188
-0.13328357 -0.49729419 -0.71265322 182 166 191
-0.1332636 -0.49780822 -0.7127403 179 165 188
-0.13355951 -0.49798474 -0.71300238 178 165 186
-0.13420238 -0.49782678 -0.7134639 177 166 184
-0.13355954 -0.49577239 -0.71256173 187 168 199
-0.13268501 -0.49592185 -0.7118929 190 172 200
-0.13375039 -0.49522841 -0.71259618 189 169 201
-0.13358155 -0.4950425 -0.71241212 191 172 202
-0.13478318 -0.4983578 -0.71405286 175 166 181
-0.13482815 -0.50176412 -0.71516132 183 173 188
-0.13167721 -0.49810839 -0.71159053 183 165 193
-0.13210467 -0.49841401 -0.71201402 183 167 192
-0.13229118 -0.49906999 -0.71236753 185 170 192
-0.13092533 -0.50179332 -0.71222001 194 181 196
-0.1315558 -0.50055557 -0.71229452 190 176 194
-0.13103227 -0.50103986 -0.71205121 193 178 196
-0.13185883 -0.5004555 -0.71249545 189 176 193
-0.13315153 -0.50146568 -0.71379787 187 177 191
-0.13422577 -0.50073612 -0.71437865 183 173 188
-0.13400337 -0.50005013 -0.71399504 182 172 186
-0.13451029 -0.50107938 -0.71470129 183 174 188
-0.13317128 -0.50160384 -0.71385628 188 177 192
-0.1346745 -0.50104994 -0.71481586 182 173 188
-0.13447344 -0.49969509 -0.71423793 179 170 185
-0.13023902 -0.50088054 -0.71144867 192 177 196
-0.13140084 -0.50580347 -0.71372795 196 184 197
-0.1313452 -0.50546837 -0.7135883 197 186 198
-0.13314733 -0.50509989 -0.7148518 188 176 191
-0.13156438 -0.50541699 -0.71374011 196 185 197
-0.13299124 -0.50323576 -0.71419483 190 180 194
-0.13257104 -0.50320977 -0.71387047 191 181 194
-0.13097337 -0.50234109 -0.7124185 195 182 197
-0.13292705 -0.50296414 -0.71406925 190 180 194
-0.13098839 -0.50552243 -0.71333396 198 187 199
-0.13096443 -0.50280398 -0.71254337 195 183 197
-0.13112834 -0.50355864 -0.71288145 195 184 197
-0.12936068 -0.5048669 -0.71206206 187 171 190
-0.13044327 -0.50494981 -0.71279943 195 182 196
-0.12926564 -0.50553238 -0.71218842 187 171 190
-0.13011052 -0.50366449 -0.71221477 191 176 193
-0.12923023 -0.50518382 -0.71206611 187 170 189
-0.12976755 -0.50274515 -0.71172225 190 176 192
-0.12843372 -0.50451905 -0.71134734 183 164 186
-0.1330833 -0.50615197 -0.71510589 188 174 190
-0.13200097 -0.50639939 -0.71435237 193 180 194
-0.13173078 -0.50607681 -0.71405619 194 182 196
-0.13189761 -0.50725758 -0.71451497 193 180 194
-0.13133055 -0.50680363 -0.71395612 196 184 197
-0.13148496 -0.50829983 -0.71449542 195 181 195
-0.13104267 -0.50661403 -0.71368468 197 186 198
-0.13008471 -0.50616038 -0.71290451 190 175 191
-0.1287041 -0.50601864 -0.71195507 182 163 185
-0.12774698 -0.50737911 -0.71169913 160 132 161
-0.12878738 -0.50737828 -0.71239525 167 143 167
-0.12975961 -0.5067609 -0.71286362 181 163 181
-0.1278059 -0.5076344 -0.71181214 158 129 158
-0.13061546 -0.50690031 -0.71347392 193 180 194
-0.13034815 -0.50785059 -0.71357358 187 173 187
-0.13067979 -0.50917101 -0.71417856 191 179 191
-0.12992229 -0.50967884 -0.71382403 178 160 177
-0.13033314 -0.50867116 -0.71380287 186 171 186
-0.12935561 -0.50876975 -0.71318293 170 148 168
-0.12934697 -0.50903773 -0.71325529 169 147 168
-0.13167809 -0.5099619 -0.71512353 194 180 192
-0.12974367 -0.51346141 -0.71492672 185 166 170
-0.13022327 -0.5106464 -0.71433634 183 168 180
-0.12922481 -0.51184291 -0.71406496 165 145 158
-0.13051999 -0.51012254 -0.71436286 187 174 186
-0.12891896 -0.51266366 -0.7141279 162 140 152
-0.12946996 -0.51067728 -0.71384811 169 149 165
-0.12786107 -0.51099622 -0.71288502 141 111 135
-0.1269975 -0.51326072 -0.71305466 123 90 111
-0.12931158 -0.51092058 -0.71382272 166 146 161
-0.12892012 -0.51007175 -0.71328461 161 136 158
-0.12853777 -0.5103488 -0.71312177 154 127 150
-0.12835735 -0.5160771 -0.71481782 164 134 145
-0.12887208 -0.5139451 -0.71450496 167 143 152
-0.12865126 -0.51453775 -0.71454084 164 139 148
-0.12939447 -0.51385081 -0.71481955 179 157 163
-0.12853503 -0.51608735 -0.71493775 168 139 149
-0.12790433 -0.51668292 -0.71471202 157 124 137
-0.12803361 -0.51747209 -0.71505004 165 131 143
-0.12627943 -0.51708949 -0.71393341 142 102 122
-0.12675856 -0.51557964 -0.71369147 135 98 118
-0.12593114 -0.5148977 -0.7130087 120 88 107
-0.12531383 -0.51710415 -0.71340787 132 94 114
-0.12680738 -0.51385289 -0.71314049 121 89 108
-0.12696362 -0.51813805 -0.71464968 157 118 135
-0.12758073 -0.51855153 -0.71513331 166 137 145
-0.12563673 -0.5193243 -0.71434402 145 109 125
-0.12362371 -0.52123863 -0.71391648 127 95 111
-0.12553716 -0.51952344 -0.71435595 145 110 125
-0.12405481 -0.52027172 -0.71382433 128 92 111
-0.12574752 -0.51804525 -0.71396935 141 101 121
-0.12494221 -0.51936328 -0.71399164 136 97 117
-0.12393355 -0.51853079 -0.71314394 123 88 107
-0.12641168 -0.5178178 -0.71425414 148 106 126
-0.12393028 -0.51990092 -0.71362519 126 90 109
-0.14702637 -0.50865865 -0.72687501 132 115 144
-0.14649047 -0.50905609 -0.72640187 128 110 147
-0.14276186 -0.5090341 -0.72311604 152 129 144
-0.14421345 -0.50778967 -0.72420764 144 121 136
-0.14418252 -0.50776303 -0.72417766 144 121 136
-0.14344591 -0.50728375 -0.72348404 149 120 138
-0.14531592 -0.50869781 -0.72530979 135 116 143
-0.14491418 -0.50850892 -0.72492635 138 119 141
-0.14554259 -0.50902474 -0.725559 134 115 146
-0.144306 -0.50955987 -0.72454631 141 122 148
-0.1444926 -0.50913292 -0.72464728 140 121 145
-0.14377543 -0.50938159 -0.7240507 144 125 146
-0.14625943 -0.50894237 -0.72618026 130 111 146
-0.14587444 -0.50968528 -0.72595125 131 113 151
-0.14686531 -0.51100969 -0.72689754 143 124 150
-0.14671139 -0.51265204 -0.72679645 157 135 147
-0.14265706 -0.51104659 -0.72327673 147 115 145
-0.14369822 -0.51151717 -0.72415578 154 127 146
-0.14439116 -0.51266313 -0.72484791 155 123 145
-0.14417434 -0.51191264 -0.724581 156 130 146
-0.14364149 -0.51168454 -0.72413272 152 124 145
-0.1440005 -0.51164019 -0.72440928 156 131 146
-0.14266896 -0.51073569 -0.72324616 148 120 146
-0.14322641 -0.51026165 -0.72363842 153 133 148
-0.1455041 -0.51233149 -0.72571552 160 139 147
-0.14546964 -0.51138175 -0.72565562 151 130 149
-0.14589769 -0.51100653 -0.72602224 144 124 150
-0.14549139 -0.511724 -0.72568536 154 133 148
-0.14619282 -0.51243502 -0.7263273 157 136 148
-0.14493056 -0.5116716 -0.72518814 157 136 148
-0.14253005 -0.51080006 -0.72314769 147 118 146
-0.14661334 -0.51458687 -0.72677088 178 158 159
-0.14324537 -0.51577908 -0.72424507 160 115 159
-0.14300884 -0.51622677 -0.72411752 161 115 159
-0.14300101 -0.5150637 -0.72399682 151 101 152
-0.14345415 -0.51753479 -0.72457027 177 140 172
-0.14560379 -0.51747441 -0.72612619 202 182 192
-0.14549895 -0.51753628 -0.72605616 202 181 191
-0.14588593 -0.51590866 -0.7262404 189 166 176
-0.14302817 -0.51374888 -0.72390896 139 85 141
-0.14628853 -0.51388335 -0.72647756 169 145 149
-0.14600083 -0.51398426 -0.72625536 168 141 150
-0.1454616 -0.51618165 -0.72591746 189 163 179
-0.1455812 -0.51620406 -0.72601235 190 165 180
-0.14257436 -0.51735121 -0.72391313 166 121 162
-0.14187458 -0.51667726 -0.72338402 166 125 167
-0.14145537 -0.51656848 -0.72308707 169 131 172
-0.1448901 -0.52075851 -0.72576863 208 182 200
-0.14264813 -0.52077979 -0.7243759 189 155 173
-0.14590731 -0.52139521 -0.72648007 221 201 213
-0.143859 -0.52030927 -0.72507161 196 165 186
-0.14472619 -0.5203436 -0.72561556 204 176 197
-0.14276993 -0.52067465 -0.72443879 189 155 174
-0.14477547 -0.51897895 -0.72556114 198 170 191
-0.1461481 -0.51871777 -0.72655356 213 196 203
-0.14538755 -0.51843071 -0.72599548 203 181 194
-0.14631559 -0.51963651 -0.72669268 218 201 209
-0.14530079 -0.51850742 -0.72593391 203 179 194
-0.14504047 -0.51804304 -0.72573596 198 173 189
-0.14210927 -0.51857042 -0.72375143 176 137 171
-0.14210729 -0.52142411 -0.7241016 194 164 179
-0.14253327 -0.5186581 -0.72404152 175 134 167
-0.14137881 -0.52065444 -0.72352695 193 162 183
-0.14172183 -0.51817793 -0.72344673 178 141 175
-0.14202327 -0.51785553 -0.72360587 174 135 171
-0.14357056 -0.52258861 -0.72505105 207 184 193
-0.1426511 -0.52393401 -0.72458076 213 194 209
-0.14265038 -0.52290142 -0.72453016 205 180 195
-0.1451547 -0.52345908 -0.72604036 225 211 215
-0.14411654 -0.5220775 -0.72538185 209 185 196
-0.14517982 -0.52328354 -0.72605443 224 210 214
-0.14408065 -0.52269953 -0.7253651 212 190 198
-0.14154576 -0.52419472 -0.72399521 203 187 204
-0.14088152 -0.52538973 -0.72369581 206 197 216
-0.14184412 -0.5237456 -0.72413397 203 184 201
-0.14200994 -0.52351409 -0.72421193 203 183 199
-0.14096084 -0.52405101 -0.7236734 196 180 198
-0.14107972 -0.52200979 -0.72350472 198 172 189
-0.14059053 -0.5223884 -0.72323477 199 176 194
-0.14062105 -0.52184123 -0.72317934 201 176 193
-0.14160289 -0.52727956 -0.72436833 195 175 196
-0.14149016 -0.52762562 -0.72435403 191 169 191
-0.13126926 -0.49777544 -0.71118057 186 168 196
-0.12805209 -0.49457544 -0.70801103 186 176 178
-0.12699713 -0.49609086 -0.70777363 179 162 169
-0.12734996 -0.49668261 -0.7082262 181 165 175
-0.12819768 -0.49787515 -0.70916235 182 163 182
-0.12922737 -0.49760923 -0.70975268 186 167 189
-0.12835565 -0.49793532 -0.70928037 182 162 183
-0.12990145 -0.4973422 -0.71011388 189 171 194
-0.12656868 -0.49716526 -0.70786762 175 154 168
-0.12642661 -0.49684098 -0.70766842 173 153 166
-0.13086125 -0.49892443 -0.71121418 190 170 198
-0.12983938 -0.50009441 -0.71091449 189 171 194
-0.12896456 -0.50164115 -0.71083689 190 175 191
-0.12946725 -0.50118572 -0.71102834 190 175 193
-0.13063288 -0.49832395 -0.71086031 187 166 197
-0.12970835 -0.49962217 -0.71066433 187 168 194
-0.12802424 -0.49982256 -0.70962065 183 164 185
-0.12705912 -0.49825275 -0.70853692 179 159 176
-0.12893289 -0.49962425 -0.71014708 185 165 190
-0.12943251 -0.4992781 -0.71036667 186 165 192
-0.1269722 -0.50079328 -0.70922959 182 163 181
-0.13027032 -0.49860391 -0.71070725 187 165 195
-0.12649523 -0.50106174 -0.70901668 181 163 179
-0.12490883 -0.50176394 -0.70825446 176 159 171
-0.12571773 -0.49974602 -0.70815396 176 158 171
-0.12509511 -0.50030267 -0.70793766 175 157 169
-0.12681712 -0.50019079 -0.70895672 181 162 179
-0.12608677 -0.50023377 -0.70852321 178 160 175
-0.12615211 -0.49827582 -0.70797765 172 150 169
-0.12551451 -0.49842188 -0.7076239 167 142 164
-0.12563305 -0.49869785 -0.70778286 170 147 166
-0.12809476 -0.5024181 -0.71048397 186 170 187
-0.12840961 -0.50445443 -0.71131188 183 165 186
-0.12773558 -0.50522202 -0.7110787 179 158 182
-0.12781976 -0.50308031 -0.71049362 184 166 185
-0.12742203 -0.50356823 -0.71036655 181 162 183
-0.12714516 -0.50371695 -0.71021348 179 159 182
-0.12375571 -0.50202411 -0.70762748 172 156 165
-0.12589106 -0.50266576 -0.70913297 176 159 174
-0.12348036 -0.50397772 -0.70806921 162 147 154
-0.12326185 -0.50436211 -0.70805651 159 144 151
-0.12361354 -0.50289589 -0.70780957 168 152 160
-0.1239547 -0.50350273 -0.70821011 166 150 159
-0.12397805 -0.50514394 -0.70873702 158 142 152
-0.12575421 -0.50553614 -0.70989883 166 146 167
-0.12650695 -0.50393522 -0.70987505 175 155 176
-0.12690939 -0.50525087 -0.7104966 173 150 178
-0.12362409 -0.50556165 -0.70865035 155 139 148
-0.12630454 -0.50356847 -0.70964855 175 156 175
-0.12280296 -0.50319743 -0.70743138 163 147 154
-0.12192409 -0.50485224 -0.70749921 148 132 140
-0.12688583 -0.50631297 -0.71080202 166 140 171
-0.12656383 -0.50672412 -0.71075714 158 131 162
-0.12639272 -0.5073505 -0.7108565 149 121 152
-0.12602358 -0.50757742 -0.71073157 143 114 145
-0.12327573 -0.50863886 -0.7095536 105 77 102
-0.12516518 -0.50623709 -0.70978487 156 134 156
-0.12590796 -0.50618356 -0.71020311 161 137 163
-0.12412859 -0.50625485 -0.70918018 150 131 146
-0.12340288 -0.50639087 -0.70880228 144 126 138
-0.12329281 -0.50746983 -0.70913398 125 102 120
-0.12424427 -0.5062741 -0.70925546 151 131 147
-0.12242402 -0.50608021 -0.70815134 145 129 136
-0.12090372 -0.50722694 -0.70776135 125 106 116
-0.1204598 -0.50822657 -0.70788032 114 94 105
-0.12239207 -0.50640696 -0.7082479 142 126 133
-0.12138107 -0.50764787 -0.70815969 124 106 115
-0.12270173 -0.50705767 -0.70865208 132 112 124
-0.12083942 -0.50838655 -0.70814025 113 92 104
-0.13884464 -0.50501198 -0.71927512 145 111 147
-0.13893692 -0.50551277 -0.71948838 149 116 150
-0.14006327 -0.50567448 -0.72044575 152 120 148
-0.14267433 -0.50728846 -0.72281122 155 127 143
-0.1421393 -0.50651616 -0.72227991 159 130 147
-0.13998108 -0.50917387 -0.72093982 169 146 166
-0.14237148 -0.50930208 -0.72282755 154 134 148
-0.1416025 -0.50793022 -0.72204548 161 135 152
-0.14158063 -0.50907558 -0.72217882 159 138 154
-0.1416668 -0.50757372 -0.72204906 161 134 151
-0.1421867 -0.507384 -0.722431 158 131 147
-0.14020954 -0.50625509 -0.72066367 157 126 152
-0.13942662 -0.50637197 -0.72004205 157 125 155
-0.14010319 -0.50752366 -0.72078919 165 137 159
-0.138713 -0.50884497 -0.71987218 171 146 171
-0.13960102 -0.50810498 -0.72047538 168 141 164
-0.1396016 -0.50704837 -0.72029877 161 132 158
-0.13917534 -0.50796217 -0.72010285 166 139 165
-0.13855115 -0.50680208 -0.7194131 160 129 160
-0.13790675 -0.50887161 -0.71931767 175 153 176
-0.14073147 -0.51084083 -0.72175199 160 129 160
-0.14184536 -0.50977254 -0.72247761 157 137 153
-0.14012569 -0.51021373 -0.72119206 166 141 165
-0.14142095 -0.51288831 -0.72257185 147 99 151
-0.14092557 -0.51020086 -0.72181636 161 137 159
-0.1416658 -0.51072448 -0.72246736 154 126 153
-0.13941264 -0.51065582 -0.72069448 168 139 170
-0.13936964 -0.51364309 -0.7211569 167 129 175
-0.13948856 -0.51190668 -0.72095817 167 133 171
-0.14022107 -0.51299703 -0.72168648 159 117 164
-0.13915695 -0.51205438 -0.72073472 170 138 175
-0.14143957 -0.51367182 -0.72270948 146 94 152
-0.13958459 -0.51106042 -0.72088981 166 135 168
-0.13809189 -0.51253587 -0.72009009 178 151 185
-0.13814506 -0.51270348 -0.72015101 178 150 185
-0.13714556 -0.51277786 -0.71954012 184 161 191
-0.13776903 -0.51101089 -0.71962756 181 160 184
-0.13783747 -0.51055402 -0.71958113 181 160 183
-0.14107616 -0.5167833 -0.72283143 175 140 178
-0.14160424 -0.51431745 -0.72291428 150 100 154
-0.14164041 -0.51378793 -0.72287428 145 92 150
-0.14083928 -0.51550001 -0.72249192 167 128 171
-0.14128098 -0.51546997 -0.72281837 162 120 166
-0.14018916 -0.51372039 -0.7217806 159 116 166
-0.14008129 -0.51641273 -0.72207808 180 149 185
-0.139181 -0.51512158 -0.72124684 179 147 186
-0.13970953 -0.51649374 -0.72185171 182 152 188
-0.13880464 -0.51708764 -0.721376 190 164 199
-0.13811663 -0.51670092 -0.72087324 192 167 201
-0.13702101 -0.51661694 -0.72018075 200 177 207
-0.13841897 -0.51666826 -0.72105366 190 164 199
-0.13789913 -0.51491445 -0.72039914 186 156 193
-0.13782653 -0.51606387 -0.72057295 192 165 200
-0.13728476 -0.51606852 -0.72023934 195 170 203
-0.1376272 -0.513776 -0.72000891 181 153 190
-0.1360064 -0.51480305 -0.71919942 197 177 205
-0.13711175 -0.51423633 -0.71977764 187 161 195
-0.14069864 -0.51905054 -0.72288162 189 161 188
-0.13922998 -0.51838946 -0.72184527 194 169 199
-0.13939846 -0.51875055 -0.72199911 195 169 198
-0.14050066 -0.52024937 -0.72289956 196 169 192
-0.13868715 -0.51984686 -0.72168142 203 183 212
-0.13936675 -0.51997888 -0.72213328 201 178 203
-0.13975284 -0.5206421 -0.7224648 202 178 200
-0.13513848 -0.51810312 -0.71930736 213 195 221
-0.13616012 -0.51977032 -0.72029412 190 168 207
-0.1352279 -0.52066886 -0.71990824 188 166 209
-0.13545673 -0.5207777 -0.72007334 185 163 207
-0.1353194 -0.51884794 -0.71957594 204 186 216
-0.13649124 -0.51868951 -0.72026855 198 176 210
-0.13666885 -0.52048498 -0.72068411 192 171 209
-0.13842651 -0.52064389 -0.72164214 206 187 214
-0.13866813 -0.52145118 -0.72187376 211 194 218
-0.13837506 -0.51790404 -0.72126603 192 168 203
-0.13788909 -0.51873296 -0.72111219 193 170 205
-0.13768275 -0.52096164 -0.72128576 202 183 214
-0.13424458 -0.51999748 -0.71920079 199 181 212
-0.13409559 -0.52037704 -0.71920252 196 178 209
-0.13899161 -0.52255857 -0.72222883 206 192 215
-0.13989708 -0.52170211 -0.7226935 205 182 202
-0.13979211 -0.52457601 -0.72301197 195 184 205
-0.13878931 -0.52413434 -0.72237235 191 178 204
-0.13877623 -0.52221704 -0.7220543 207 191 215
-0.1382324 -0.5215342 -0.72165364 208 190 217
-0.13754185 -0.5228231 -0.72149432 192 176 207
-0.13787737 -0.52245826 -0.72161412 198 181 211
-0.13699584 -0.52158368 -0.72100186 199 180 213
-0.13730539 -0.52319521 -0.72142857 188 171 205
-0.13745531 -0.52307457 -0.72148895 190 173 206
-0.13307033 -0.52268046 -0.71917695 177 157 190
-0.14770019 -0.50895619 -0.72760785 130 108 146
-0.14746937 -0.50927669 -0.72740662 131 110 148
-0.14717031 -0.50854778 -0.72701114 132 115 143
-0.14727403 -0.50931609 -0.7272194 131 112 149
-0.14829394 -0.51306927 -0.7282691 157 137 141
-0.14800994 -0.50979179 -0.72792226 128 108 143
-0.14813071 -0.51003498 -0.72803968 130 109 141
-0.148231 -0.51401991 -0.72823972 167 150 150
-0.14701812 -0.51427281 -0.72712916 173 153 154
-0.14915112 -0.51417947 -0.72909445 166 153 151
-0.1483191 -0.51397347 -0.72831941 166 150 149
-0.14713797 -0.5210489 -0.7273618 220 203 216
-0.14814182 -0.52120376 -0.72806674 217 200 218
-0.14670256 -0.52042902 -0.72699815 221 205 214
-0.1469623 -0.51966363 -0.72720373 216 201 209
-0.14886542 -0.52170038 -0.72855949 218 201 222
-0.14733043 -0.52172077 -0.72745794 224 207 221
-0.14703992 -0.52164567 -0.72724897 225 207 221
-0.12758613 -0.49298009 -0.7072295 174 151 162
-0.12736812 -0.493195 -0.7071352 174 151 161
-0.12700199 -0.49327758 -0.70689154 173 150 158
-0.12609926 -0.49327075 -0.70631748 165 140 151
-0.12589779 -0.4940882 -0.70640028 169 153 157
-0.12612562 -0.49298933 -0.70626193 163 135 149
-0.12588191 -0.49276441 -0.70605111 159 128 146
-0.12688608 -0.49481013 -0.70726377 178 164 165
-0.12554833 -0.49566939 -0.70671052 167 148 157
-0.12546098 -0.4969933 -0.70711219 165 141 159
-0.12652382 -0.49500081 -0.70710069 175 159 163
-0.1248583 -0.49669445 -0.70662516 160 138 153
-0.12673828 -0.49423447 -0.70697355 178 164 163
-0.12343295 -0.50074631 -0.70703006 164 145 158
-0.12457468 -0.4991937 -0.70727086 164 140 159
-0.12456691 -0.4991563 -0.70725423 164 139 159
-0.12329713 -0.49950674 -0.70655543 155 132 151
-0.12312724 -0.50039995 -0.70672852 160 140 154
-0.1225869 -0.50056124 -0.70644951 160 140 154
-0.12263391 -0.49964976 -0.70619172 154 132 149
-0.12287202 -0.50290209 -0.7073741 165 149 156
-0.12163574 -0.5035159 -0.70692527 151 134 143
-0.12051577 -0.50448918 -0.70664918 137 118 129
-0.12239543 -0.50261849 -0.70703703 162 145 154
-0.12008017 -0.50445265 -0.7063933 132 111 125
-0.11972263 -0.50430036 -0.70613998 128 104 121
-0.12177875 -0.50232249 -0.70658869 155 134 148
-0.1205774 -0.50378633 -0.70643538 139 117 132
-0.11972111 -0.50603056 -0.70672929 123 104 115
-0.12078673 -0.5059669 -0.70726442 133 116 125
-0.1380839 -0.5015285 -0.71779311 126 89 132
-0.13628128 -0.50175941 -0.7163679 158 136 164
-0.13528402 -0.50172955 -0.71554106 175 163 181
-0.13813378 -0.50132602 -0.7177847 125 89 132
-0.13591847 -0.49974141 -0.71550292 158 143 169
-0.13510261 -0.50144398 -0.71530598 177 166 184
-0.13545431 -0.50034904 -0.71527869 168 154 176
-0.13542023 -0.50201482 -0.715725 173 158 178
-0.13530172 -0.5033505 -0.71601695 175 159 179
-0.13607565 -0.50333613 -0.71664917 162 139 165
-0.13748991 -0.50211096 -0.71745402 138 103 141
-0.1372578 -0.50280774 -0.71746689 142 108 145
-0.13494223 -0.50371593 -0.71582818 181 168 185
-0.13584822 -0.50355238 -0.71652544 166 144 169
-0.13506146 -0.503519 -0.71586859 179 165 183
-0.1369302 -0.50453931 -0.71766132 155 126 157
-0.13811685 -0.5044269 -0.71855015 145 110 147
-0.13751426 -0.50317287 -0.71778148 138 101 141
-0.13610381 -0.50547421 -0.71724957 170 148 172
-0.13641937 -0.50525045 -0.71743906 166 141 168
-0.13756406 -0.50555283 -0.71839774 159 131 161
-0.13429216 -0.5042851 -0.71548706 185 173 189
-0.13436167 -0.50468159 -0.71565616 185 172 188
-0.13708933 -0.50672919 -0.71827853 170 147 172
-0.13539484 -0.50586581 -0.71679777 180 162 181
-0.13624495 -0.50617909 -0.71751702 174 153 176
-0.13628101 -0.50702 -0.71771055 178 159 180
-0.13702537 -0.50620037 -0.71812487 168 144 170
-0.13801351 -0.50613773 -0.71887684 160 131 161
-0.13516757 -0.50649118 -0.71674782 184 169 186
-0.13680744 -0.5097307 -0.71870536 185 168 186
-0.1353754 -0.50974286 -0.71772891 192 175 193
-0.13571228 -0.50939304 -0.7178691 190 173 191
-0.13475114 -0.50821555 -0.71690714 191 175 193
-0.13428004 -0.50672793 -0.71617889 186 171 188
-0.13406131 -0.50701469 -0.71609288 187 172 188
-0.13420504 -0.50719517 -0.71624458 188 172 189
-0.13276505 -0.50903201 -0.71566546 191 176 191
-0.13376595 -0.50652421 -0.71573281 187 172 188
-0.13359897 -0.50704318 -0.71575183 187 173 189
-0.13368618 -0.50654572 -0.71567786 187 172 189
-0.13691151 -0.50976914 -0.7187863 185 168 186
-0.13654462 -0.51084405 -0.71875423 187 169 190
-0.1362222 -0.51138008 -0.71864289 189 170 193
-0.1350009 -0.50994569 -0.71751529 194 177 196
-0.13620831 -0.51086378 -0.71852821 189 171 192
-0.13539167 -0.51238269 -0.7182945 194 177 201
-0.13556394 -0.51362908 -0.71867877 194 178 204
-0.13480903 -0.51229852 -0.71790129 198 184 205
-0.13172345 -0.51107115 -0.71550661 200 186 194
-0.13226859 -0.50998241 -0.71556038 194 179 193
-0.13309121 -0.51053339 -0.71633643 198 183 195
-0.13394757 -0.51043916 -0.71693218 198 182 197
-0.13254061 -0.51126117 -0.71616399 202 187 196
-0.13314493 -0.51346868 -0.71710056 204 193 204
-0.13284366 -0.51362085 -0.71694261 205 194 203
-0.13385461 -0.51291287 -0.71742946 202 189 204
-0.13363385 -0.51137638 -0.71695215 200 186 198
-0.13137145 -0.51352286 -0.71598583 209 198 199
-0.13468769 -0.5119043 -0.71773738 198 184 203
-0.13263999 -0.51345587 -0.71677703 206 194 202
-0.13619047 -0.51386797 -0.71913075 190 170 200
-0.13502735 -0.51618892 -0.71885157 211 196 218
-0.13483338 -0.51567453 -0.71862316 211 197 217
-0.13434348 -0.51741666 -0.71868211 220 205 222
-0.13114083 -0.51655799 -0.71663642 205 197 190
-0.13090993 -0.51461768 -0.71597874 209 199 195
-0.13175888 -0.51746178 -0.71723169 206 198 194
-0.13179082 -0.51509315 -0.71660638 212 201 203
-0.13194337 -0.51636058 -0.71703696 210 200 200
-0.13424689 -0.516406 -0.71839815 217 203 220
-0.13420136 -0.51618278 -0.71832412 215 202 219
-0.13402779 -0.5151515 -0.7180053 210 197 214
-0.13384128 -0.51424325 -0.71770304 206 194 209
-0.13365294 -0.51455081 -0.71764565 208 196 210
-0.13256685 -0.51374918 -0.71679354 207 195 203
-0.12980285 -0.51755333 -0.71612167 188 171 168
-0.13001809 -0.51600516 -0.7158286 194 178 177
-0.13013437 -0.51543814 -0.71574348 197 181 181
-0.13076869 -0.51624078 -0.71633726 203 195 187
-0.12979521 -0.51468188 -0.71532959 191 171 174
-0.13397369 -0.52030951 -0.71912354 197 180 209
-0.13241933 -0.52065927 -0.71835518 201 190 203
-0.13428842 -0.51877356 -0.71896386 212 196 219
-0.13372172 -0.51969069 -0.71885407 205 190 212
-0.13324179 -0.5202595 -0.71871608 201 187 208
-0.13114174 -0.52101845 -0.71773404 201 195 196
-0.13089457 -0.52049315 -0.71746892 200 194 192
-0.13330826 -0.51855755 -0.71837348 214 202 213
-0.13108833 -0.52027899 -0.71752757 201 195 194
-0.13129321 -0.51964206 -0.71749169 203 196 194
-0.13216898 -0.5186069 -0.71774054 208 199 201
-0.13165893 -0.51809961 -0.71733105 205 197 194
-0.12848152 -0.51880693 -0.71574676 179 161 159
-0.13029051 -0.5179143 -0.71652704 196 188 178
-0.12822837 -0.51924664 -0.71574008 179 162 160
-0.12978873 -0.5213322 -0.71710569 193 187 184
-0.12999247 -0.51954705 -0.71678364 195 189 181
-0.12896708 -0.52113956 -0.71664292 188 182 177
-0.12849304 -0.52018595 -0.71617508 186 179 170
-0.12973255 -0.51875114 -0.71646202 194 188 177
-0.12991752 -0.52095836 -0.71708196 194 188 185
-0.13242461 -0.52346104 -0.71901572 172 151 182
-0.13137142 -0.52298295 -0.71832699 182 167 183
-0.13135988 -0.52210522 -0.718108 191 180 190
-0.13253364 -0.52357131 -0.71910173 171 148 181
-0.13197452 -0.52338499 -0.71875244 175 156 181
-0.13049676 -0.52340466 -0.7179628 175 161 175
-0.13064678 -0.52380663 -0.71813548 171 155 173
-0.13031943 -0.52287591 -0.71774572 180 168 178
-0.12935178 -0.52170718 -0.71697384 188 180 179
-0.1295817 -0.52190715 -0.71713859 187 179 179
0 0 0 1 0 0 0 1 0 0 0 1 0 0 0 0 0 508 1 0 0
