ply
format ascii 1.0
comment PCL generated
element vertex 114
property float x
property float y
property float z
property uchar red
property uchar green
property uchar blue
element camera 1
property float view_px
property float view_py
property float view_pz
property float x_axisx
property float x_axisy
property float x_axisz
property float y_axisx
property float y_axisy
property float y_axisz
property float z_axisx
property float z_axisy
property float z_axisz
property float focal
property float scalex
property float scaley
property float centerx
property float centery
property int viewportx
property int viewporty
property float k1
property float k2
end_header
-0.15306896 -0.11426618 -0.74185854 209 216 234
-0.15255967 -0.11493437 -0.74246603 197 206 227
-0.17196229 -0.11894251 -0.75643659 133 130 165
-0.17041008 -0.11841112 -0.75497484 127 122 162
-0.17199281 -0.11906663 -0.75666368 128 124 160
-0.16688263 -0.11891937 -0.75498778 112 96 132
-0.1698463 -0.11889227 -0.75562871 94 84 135
-0.16635245 -0.11864679 -0.75436485 119 102 136
-0.16928664 -0.11891345 -0.75553191 95 84 133
-0.16573247 -0.11900457 -0.75489748 126 108 136
-0.16436389 -0.1189021 -0.75443155 145 129 147
-0.17191711 -0.11954924 -0.75788373 118 110 148
-0.17105167 -0.11921462 -0.75667131 104 96 142
-0.17299318 -0.11928399 -0.75752932 144 142 170
-0.16995719 -0.11928347 -0.7564832 81 69 123
-0.17100862 -0.11950424 -0.75744951 101 91 136
-0.16986382 -0.11919113 -0.7561875 82 71 125
-0.16748048 -0.12009896 -0.75741184 123 104 144
-0.16890161 -0.11971739 -0.75711918 98 81 130
-0.16675577 -0.11995978 -0.75697672 129 108 144
-0.16714434 -0.12005943 -0.75725824 126 106 144
-0.16744047 -0.11996581 -0.75714111 122 102 142
-0.16605067 -0.11916339 -0.75526154 123 104 134
-0.16657646 -0.12005532 -0.75712359 132 111 145
-0.16490541 -0.11925744 -0.75511169 140 123 143
-0.16322349 -0.11979267 -0.75536323 169 156 160
-0.16423957 -0.11962771 -0.75538802 153 138 151
-0.1700124 -0.11638136 -0.7514534 204 201 219
-0.17032987 -0.11607609 -0.75109857 220 217 231
-0.16877943 -0.11825527 -0.75426084 128 120 158
-0.16659345 -0.11728104 -0.75198191 157 151 182
-0.16729076 -0.11744004 -0.75243735 152 147 179
-0.16747886 -0.11766048 -0.75287783 145 139 173
-0.16659226 -0.11765566 -0.75265193 146 138 170
-0.16808707 -0.11735112 -0.75247335 153 151 185
-0.16885678 -0.11672564 -0.75166351 183 180 206
-0.16840902 -0.11642538 -0.7510308 193 191 213
-0.16934368 -0.11783038 -0.75364459 140 136 174
-0.16740823 -0.11686929 -0.75146902 170 168 198
-0.1669253 -0.11644165 -0.75061417 185 184 209
-0.16506207 -0.11845864 -0.75366241 128 113 141
-0.16298313 -0.11760335 -0.75136197 140 128 154
-0.16355607 -0.11825249 -0.75287884 145 131 152
-0.16452137 -0.11815032 -0.75288069 130 115 144
-0.16540509 -0.11857108 -0.7539807 126 110 139
-0.16446018 -0.11703802 -0.75085622 158 152 179
-0.16538523 -0.11700316 -0.75112051 163 157 185
-0.16441517 -0.11768278 -0.75199395 141 129 158
-0.16289967 -0.11748904 -0.75111222 141 129 156
-0.16489296 -0.11735538 -0.7515769 151 143 171
-0.16464494 -0.11707702 -0.75099123 158 151 179
-0.16132352 -0.11758678 -0.75080484 148 135 157
-0.15499802 -0.1151317 -0.74358582 193 203 232
-0.1538081 -0.11513096 -0.74316764 190 201 230
-0.15679687 -0.11585875 -0.74558574 178 179 211
-0.15547225 -0.11633015 -0.74610275 160 157 197
-0.15803951 -0.11580159 -0.74596781 176 179 209
-0.1572489 -0.11554389 -0.74507421 191 194 221
-0.15565172 -0.11554813 -0.74456269 184 189 221
-0.1554729 -0.11610825 -0.74563944 167 167 204
-0.15460144 -0.11608755 -0.7453137 164 165 205
-0.15608461 -0.11542106 -0.74444616 189 196 225
-0.1527389 -0.11535414 -0.74309576 185 194 220
-0.1536642 -0.11550338 -0.74377227 180 188 220
-0.15407231 -0.11583582 -0.74461269 170 175 211
-0.15296823 -0.11573216 -0.7439515 174 179 210
-0.15352993 -0.11657746 -0.74586171 153 149 189
-0.15404093 -0.11668307 -0.74630052 148 142 187
-0.15279806 -0.11687445 -0.74597633 163 156 192
-0.15218031 -0.11670762 -0.74538094 169 163 194
-0.1515591 -0.11700379 -0.74555135 177 170 197
-0.17384537 -0.12020747 -0.76042312 102 102 127
-0.17400776 -0.11990955 -0.75966436 119 120 144
-0.17164274 -0.11995313 -0.75891703 92 82 123
-0.17201215 -0.12000094 -0.7591837 94 85 123
-0.17207234 -0.11970229 -0.75835472 111 103 140
-0.17245786 -0.12036204 -0.7603693 79 71 107
-0.17283018 -0.11986919 -0.75909781 110 105 137
-0.17308831 -0.11985298 -0.75914288 113 110 140
-0.16728286 -0.11616065 -0.75024301 197 195 217
-0.16809426 -0.11583585 -0.74992162 210 209 225
-0.16715407 -0.11577877 -0.74938649 210 208 226
-0.16917785 -0.11542286 -0.74951166 229 227 237
-0.16773282 -0.11587568 -0.74985635 207 206 224
-0.1661499 -0.11642147 -0.75034255 182 181 208
-0.16542304 -0.11593672 -0.7489695 199 198 220
-0.16344465 -0.11638479 -0.74909675 179 176 200
-0.16297369 -0.1162034 -0.74849862 185 183 205
-0.16360489 -0.11642247 -0.74924779 178 174 199
-0.16533677 -0.11642571 -0.75 180 179 206
-0.16438782 -0.11637922 -0.74949038 181 178 204
-0.16222306 -0.11641581 -0.74863875 176 171 194
-0.15885529 -0.11665035 -0.7480036 158 152 181
-0.15924668 -0.11700746 -0.7488516 153 144 170
-0.16164289 -0.1171824 -0.75009835 146 136 162
-0.16001791 -0.11704221 -0.7492106 151 142 168
-0.15937011 -0.11671343 -0.74832141 156 150 178
-0.16142848 -0.11705515 -0.7497679 148 140 166
-0.16056581 -0.11612765 -0.74748683 176 175 201
-0.1603191 -0.11597989 -0.74708879 180 180 207
-0.16065887 -0.11572565 -0.74663895 192 193 218
-0.15955457 -0.11586583 -0.74660492 180 181 209
-0.1614574 -0.11585237 -0.74716085 193 192 215
-0.16151638 -0.11677247 -0.74918503 158 152 177
-0.15655531 -0.11798736 -0.74960089 155 135 161
-0.15509044 -0.11787722 -0.74872947 162 144 177
-0.1558063 -0.11768688 -0.74876291 154 138 169
-0.15480866 -0.11694042 -0.7470904 147 138 180
-0.15704632 -0.11722024 -0.74846125 149 137 167
-0.1559419 -0.11694729 -0.74753046 149 140 177
-0.15771012 -0.11677589 -0.74782741 156 149 179
-0.15529907 -0.11692883 -0.74726409 147 138 178
-0.15662216 -0.11691796 -0.74771649 151 142 176
-0.15349714 -0.11697606 -0.74650496 156 148 188
0 0 0 1 0 0 0 1 0 0 0 1 0 0 0 0 0 114 1 0 0
