ply
format ascii 1.0
comment PCL generated
element vertex 124
property float x
property float y
property float z
property uchar red
property uchar green
property uchar blue
element camera 1
property float view_px
property float view_py
property float view_pz
property float x_axisx
property float x_axisy
property float x_axisz
property float y_axisx
property float y_axisy
property float y_axisz
property float z_axisx
property float z_axisy
property float z_axisz
property float focal
property float scalex
property float scaley
property float centerx
property float centery
property int viewportx
property int viewporty
property float k1
property float k2
end_header
-0.22140317 0.17037702 -0.80639511 95 74 88
-0.22076224 0.17002463 -0.80530208 80 56 74
-0.22210838 0.16771458 -0.80602974 88 68 80
-0.22148731 0.16729282 -0.80516845 94 72 89
-0.22280738 0.1674864 -0.80675834 87 70 77
-0.22258539 0.16762339 -0.80654907 87 69 78
-0.22216702 0.16841258 -0.80633658 83 64 74
-0.22120073 0.16901273 -0.80542696 82 60 76
-0.22392692 0.16687216 -0.80788535 90 77 78
-0.22275807 0.16903251 -0.80753434 97 78 88
-0.22279061 0.16889723 -0.80749881 96 78 87
-0.22116806 0.1697554 -0.80572128 82 59 76
-0.22274798 0.16929294 -0.80767703 100 81 91
-0.22196463 0.16891687 -0.80634248 84 64 76
-0.22451372 0.1662821 -0.80835962 92 81 78
-0.22424544 0.1633103 -0.80685157 93 74 81
-0.22375479 0.1628962 -0.80614859 93 68 82
-0.22445731 0.163434 -0.80713302 94 76 80
-0.22431292 0.16562374 -0.80784428 91 78 78
-0.22352129 0.16409603 -0.80635428 92 70 83
-0.22370338 0.16590092 -0.80724531 94 79 83
-0.22312279 0.1654105 -0.80639023 96 77 87
-0.22296487 0.16248782 -0.80510533 92 62 86
-0.22224917 0.16533846 -0.80535471 100 77 93
-0.22355686 0.16147026 -0.80527115 95 67 85
-0.22872339 0.17537022 -0.82060069 96 76 81
-0.2279695 0.1745954 -0.81903458 98 83 84
-0.22822124 0.17521627 -0.8197192 94 76 80
-0.2281681 0.17496546 -0.81950784 95 78 81
-0.22751132 0.17583321 -0.8191089 103 87 89
-0.22773185 0.1755677 -0.81925744 100 84 86
-0.22768071 0.17599538 -0.81942701 101 84 87
-0.22887835 0.17261291 -0.8195231 106 89 92
-0.22818808 0.17005694 -0.8170284 92 69 78
-0.22788323 0.173134 -0.81814849 99 84 85
-0.22805473 0.17028829 -0.81697589 93 70 79
-0.22750664 0.17184648 -0.81700754 102 86 88
-0.22853658 0.16965871 -0.81723106 90 67 75
-0.22893576 0.1695542 -0.8180356 106 84 90
-0.21929751 0.16392413 -0.80102593 64 46 57
-0.21783456 0.16440505 -0.79971993 92 77 83
-0.21847259 0.1631224 -0.79987597 78 61 69
-0.21884097 0.16262689 -0.80005229 71 53 61
-0.21807481 0.16380881 -0.79973882 86 71 78
-0.21808732 0.1639796 -0.79981089 87 71 78
-0.21928395 0.16145137 -0.799986 73 56 62
-0.21811336 0.16173851 -0.79900461 88 71 78
-0.21894212 0.16120191 -0.79954439 83 66 72
-0.21987131 0.16210768 -0.80085069 52 33 42
-0.21912907 0.16059525 -0.79944038 89 75 78
-0.22056668 0.16045101 -0.80076194 71 56 58
-0.22612809 0.16997758 -0.81350309 108 88 91
-0.22680627 0.1709145 -0.81526774 105 87 90
-0.22657235 0.17161977 -0.8153106 109 94 94
-0.22632189 0.169971 -0.81383365 106 86 90
-0.22790362 0.17019148 -0.81670463 94 72 80
-0.22861014 0.16854772 -0.81663477 92 65 76
-0.22857939 0.167518 -0.8158583 97 70 83
-0.22886069 0.16671564 -0.81592417 105 77 91
-0.22829032 0.16824459 -0.81594831 91 64 76
-0.22753116 0.1661189 -0.81357408 98 71 87
-0.22825843 0.16687053 -0.81496423 98 71 85
-0.22788829 0.16854696 -0.81566358 92 67 79
-0.22725508 0.16906315 -0.81494808 98 74 84
-0.22740938 0.16823 -0.81476265 95 71 83
-0.22635397 0.16908854 -0.81340587 105 83 90
-0.22636169 0.16934098 -0.81355613 105 84 90
-0.22760583 0.16891338 -0.81547254 95 71 82
-0.22715895 0.16758996 -0.81398302 97 72 85
-0.22747721 0.16937208 -0.81549925 96 73 82
-0.22826284 0.16395684 -0.81361467 103 82 89
-0.22740488 0.16538046 -0.81311512 98 74 87
-0.22798637 0.16557819 -0.81388646 101 75 90
-0.22112995 0.16654584 -0.80425256 88 65 84
-0.22075815 0.1695272 -0.80506319 79 55 74
-0.2210958 0.16660139 -0.80422306 88 64 83
-0.21954432 0.16694328 -0.80260152 79 58 74
-0.21891567 0.16605657 -0.80156028 79 60 75
-0.22051954 0.16881062 -0.80445105 78 54 73
-0.22019088 0.16693564 -0.80323458 79 56 75
-0.21923752 0.16816622 -0.80280328 93 72 87
-0.21913409 0.16718329 -0.8023057 80 60 74
-0.22100656 0.16569889 -0.80362839 83 58 79
-0.2219775 0.16395946 -0.80428749 86 58 81
-0.22139898 0.16574091 -0.80429363 92 68 87
-0.22139655 0.16244997 -0.8028149 66 41 58
-0.22187735 0.1632421 -0.80383807 80 52 73
-0.22205977 0.16216129 -0.80365074 75 48 67
-0.22085883 0.16505533 -0.80312532 75 50 71
-0.2210377 0.16367836 -0.80280942 69 44 63
-0.22235166 0.16216289 -0.80407214 80 51 73
-0.2205178 0.1637143 -0.80215442 61 39 54
-0.22063303 0.16571216 -0.8031044 77 53 73
-0.21957959 0.16392364 -0.80131561 62 43 54
-0.22040051 0.164667 -0.80243635 68 46 63
-0.21936087 0.16435979 -0.80128348 66 47 58
-0.21941976 0.16508453 -0.80164599 72 52 66
-0.22125009 0.16099995 -0.80192161 71 51 60
-0.22247545 0.16012196 -0.80299687 85 64 71
-0.2213099 0.16065562 -0.80187684 77 59 65
-0.22298074 0.16206135 -0.80492532 90 60 83
-0.22224946 0.16071804 -0.80299038 78 55 65
-0.22293648 0.16194393 -0.80478454 89 59 82
-0.22231609 0.16111422 -0.80334616 79 54 68
-0.22239296 0.16205621 -0.80407459 80 52 73
-0.22298737 0.16154039 -0.80459332 90 62 81
-0.22891161 0.17512971 -0.82083398 105 85 90
-0.23025967 0.17392886 -0.82425541 100 86 91
-0.23002966 0.17381085 -0.82342601 101 86 90
-0.22942227 0.17380825 -0.82136482 109 92 95
-0.22564435 0.16936938 -0.81226987 108 89 92
-0.22481935 0.16900444 -0.81038344 109 88 94
-0.22519915 0.16831993 -0.81076294 103 86 89
-0.22673343 0.16633967 -0.81253624 96 72 86
-0.22663504 0.1664978 -0.8124432 97 73 86
-0.22594523 0.16728836 -0.81160057 99 80 86
-0.22549097 0.16628999 -0.81013495 93 78 81
-0.22528005 0.16615759 -0.80965298 92 79 80
-0.22557649 0.16820581 -0.81144685 102 85 87
-0.2244762 0.16780975 -0.80905324 101 85 88
-0.22712234 0.16534756 -0.81272399 98 74 87
-0.22695403 0.16548018 -0.8125236 99 74 88
-0.22626935 0.16543514 -0.81123531 99 78 87
-0.22563814 0.165966 -0.81023252 93 77 81
0 0 0 1 0 0 0 1 0 0 0 1 0 0 0 0 0 124 1 0 0
