ply
format ascii 1.0
comment PCL generated
element vertex 195
property float x
property float y
property float z
property uchar red
property uchar green
property uchar blue
element camera 1
property float view_px
property float view_py
property float view_pz
property float x_axisx
property float x_axisy
property float x_axisz
property float y_axisx
property float y_axisy
property float y_axisz
property float z_axisx
property float z_axisy
property float z_axisz
property float focal
property float scalex
property float scaley
property float centerx
property float centery
property int viewportx
property int viewporty
property float k1
property float k2
end_header
-0.31092769 -0.31806874 -0.83131391 70 43 86
-0.31244606 -0.31725761 -0.83150625 81 55 79
-0.31316143 -0.31735057 -0.83163148 81 54 75
-0.31154057 -0.31807742 -0.83141601 71 44 83
-0.31108248 -0.31769672 -0.83131236 74 48 85
-0.31246805 -0.31799665 -0.83156377 73 45 78
-0.31308725 -0.31688857 -0.83159465 85 59 76
-0.30760863 -0.31661689 -0.82983595 105 71 98
-0.30803704 -0.317197 -0.83007628 100 69 97
-0.30842149 -0.31795728 -0.83031476 96 69 96
-0.30800647 -0.31810459 -0.83014929 102 76 98
-0.30791134 -0.31788975 -0.83008772 103 76 98
-0.30979586 -0.31739211 -0.83086014 78 48 90
-0.31047645 -0.3182528 -0.83123219 68 41 88
-0.3097586 -0.3173407 -0.83083946 79 49 90
-0.31042364 -0.31731898 -0.8311401 77 52 89
-0.30948517 -0.31699976 -0.83069032 83 52 91
-0.30515745 -0.31782642 -0.82876474 133 115 123
-0.31534648 -0.31974536 -0.83217829 63 41 55
-0.31589118 -0.32073793 -0.83232576 57 41 48
-0.31489816 -0.32156661 -0.8318404 86 72 70
-0.31510213 -0.32178468 -0.83190882 83 70 67
-0.31571388 -0.32225066 -0.83212972 70 62 55
-0.31166619 -0.31960833 -0.83136684 78 56 86
-0.31166196 -0.32076877 -0.83139211 87 69 87
-0.3115648 -0.32148179 -0.83140194 92 76 88
-0.31251818 -0.32096052 -0.83144784 90 73 86
-0.31309843 -0.32111481 -0.83148617 92 76 84
-0.31248683 -0.31923327 -0.83152038 77 52 81
-0.31283379 -0.31932703 -0.83157003 78 53 80
-0.31425932 -0.32129952 -0.83164155 96 79 80
-0.31368676 -0.31950441 -0.83169651 81 56 76
-0.31338447 -0.31972796 -0.83162779 82 58 78
-0.30683538 -0.32189998 -0.82995826 120 105 105
-0.30765659 -0.32203141 -0.83027226 115 100 102
-0.30928969 -0.32194746 -0.83086717 105 90 96
-0.30773774 -0.32103473 -0.83021677 114 98 101
-0.30839941 -0.32214218 -0.83055568 110 96 100
-0.31002408 -0.32184017 -0.83112872 100 85 93
-0.30880019 -0.32043827 -0.83056241 107 89 97
-0.31003341 -0.31931984 -0.83107108 81 58 91
-0.30971152 -0.32001555 -0.83094716 91 70 93
-0.30994296 -0.31986785 -0.83104402 87 65 92
-0.30854672 -0.31936365 -0.8304292 102 81 97
-0.30765888 -0.31919134 -0.83004141 114 92 100
-0.3066169 -0.32083476 -0.82978266 122 104 106
-0.30579701 -0.32087135 -0.82935739 129 111 116
-0.3051739 -0.32100776 -0.82904345 134 117 124
-0.30621853 -0.32132304 -0.82961637 125 109 111
-0.30464241 -0.32086405 -0.82875484 139 122 131
-0.30441594 -0.31971192 -0.82854289 140 127 134
-0.30475619 -0.3204827 -0.82878238 138 121 129
-0.30449453 -0.32092437 -0.82868332 140 124 133
-0.31511337 -0.32396603 -0.83220375 86 73 72
-0.31468925 -0.32414714 -0.83205885 97 82 81
-0.31464508 -0.32302585 -0.83182222 98 85 80
-0.31453186 -0.32613972 -0.83237404 98 81 87
-0.31226861 -0.32604179 -0.83217615 97 78 89
-0.31158993 -0.3243778 -0.83182079 97 80 90
-0.31366599 -0.32544667 -0.83215535 98 82 88
-0.31079325 -0.32424018 -0.83174342 97 79 91
-0.31061009 -0.3241114 -0.83170748 97 79 91
-0.31374988 -0.32367003 -0.83181989 100 86 86
-0.31390938 -0.32388121 -0.83187002 100 86 86
-0.31284788 -0.32356039 -0.83174467 99 84 88
-0.31421396 -0.32339093 -0.83179432 102 88 84
-0.31298023 -0.32299709 -0.83164454 100 86 87
-0.30759928 -0.32440197 -0.83057636 112 97 103
-0.30796713 -0.32493749 -0.83079875 109 94 102
-0.3081277 -0.32615936 -0.83100122 105 90 102
-0.30728301 -0.32592535 -0.83059698 108 96 105
-0.30690652 -0.32568416 -0.83040214 110 99 107
-0.30772302 -0.3252548 -0.83072299 109 94 103
-0.31017676 -0.32506296 -0.83174491 99 79 92
-0.30901456 -0.32273012 -0.83087993 106 91 97
-0.30974281 -0.32522577 -0.83161545 102 82 94
-0.30993071 -0.3242828 -0.83150822 100 82 93
-0.3098388 -0.32442659 -0.83150125 101 83 94
-0.30518124 -0.32422629 -0.82941407 134 117 123
-0.30397934 -0.32550997 -0.82896394 145 125 136
-0.30547687 -0.32390457 -0.82952416 131 115 120
-0.3041963 -0.32598975 -0.82912111 141 122 134
-0.30429742 -0.32567233 -0.82913661 141 122 133
-0.30573651 -0.32543969 -0.82981491 123 109 118
-0.30429342 -0.32313961 -0.82881284 142 126 135
-0.30436456 -0.32342115 -0.82888919 142 125 134
-0.30477434 -0.32334712 -0.82909298 138 122 128
-0.3040162 -0.32327721 -0.82868713 145 128 138
-0.31472498 -0.32864541 -0.83218932 80 75 72
-0.3156136 -0.33006582 -0.83241177 57 59 50
-0.31325558 -0.32920074 -0.83196157 83 79 74
-0.31061408 -0.32783777 -0.83203822 101 83 78
-0.31144983 -0.32715994 -0.83204722 92 76 85
-0.31211516 -0.32817534 -0.83200771 90 78 79
-0.31162211 -0.32724777 -0.83204216 91 76 85
-0.31176057 -0.3281233 -0.83201408 92 80 79
-0.31311873 -0.32702854 -0.8321628 93 78 85
-0.31440434 -0.32683417 -0.83226717 95 81 85
-0.31252202 -0.32636362 -0.83219618 96 78 88
-0.31309608 -0.32732409 -0.83212936 91 78 84
-0.31357378 -0.32663959 -0.83223444 95 80 86
-0.31297049 -0.32839572 -0.83200514 85 77 79
-0.30740231 -0.32757202 -0.83073252 109 98 98
-0.30689511 -0.32652551 -0.83045375 109 99 105
-0.30776 -0.32934359 -0.83105624 107 97 92
-0.30938053 -0.32942483 -0.83154619 109 96 74
-0.30694559 -0.3264851 -0.83046377 109 99 105
-0.30967835 -0.32892078 -0.83161658 109 95 73
-0.30935615 -0.32651511 -0.83154398 102 84 93
-0.30960745 -0.32662117 -0.83165365 101 83 91
-0.30872256 -0.32749197 -0.83123022 107 93 89
-0.309544 -0.32795888 -0.83158511 106 91 81
-0.30879715 -0.32722011 -0.83127183 106 91 91
-0.30488193 -0.32633036 -0.82949573 132 115 126
-0.30373147 -0.32758492 -0.82908887 146 123 136
-0.30454186 -0.326803 -0.8293885 136 117 129
-0.30509153 -0.32944739 -0.82998085 127 109 119
-0.30631703 -0.32807615 -0.83041084 112 101 109
-0.30375573 -0.3290796 -0.8292833 146 119 133
-0.30644262 -0.32719138 -0.83036339 111 100 109
-0.30496997 -0.32837856 -0.82979012 130 111 122
-0.3053849 -0.32981789 -0.83016962 122 106 116
-0.31485015 -0.33293211 -0.8323186 60 38 54
-0.31516168 -0.33076915 -0.83227509 62 59 56
-0.31221765 -0.33389556 -0.83229548 93 76 73
-0.31292304 -0.33345988 -0.83217305 82 59 63
-0.31112662 -0.33068961 -0.8319943 102 86 60
-0.31328893 -0.33341584 -0.83213317 77 50 59
-0.31236386 -0.33205643 -0.83204949 87 65 58
-0.31280389 -0.33266929 -0.83208501 82 58 58
-0.31313598 -0.33151811 -0.83200181 82 65 60
-0.31410921 -0.33315864 -0.83206248 67 40 55
-0.31318936 -0.33246097 -0.83204353 78 53 56
-0.31356049 -0.33009204 -0.83193171 83 82 68
-0.31423333 -0.33366242 -0.83208352 65 33 53
-0.31311125 -0.3309114 -0.83197474 84 73 63
-0.31011811 -0.33152777 -0.832012 109 98 72
-0.3098357 -0.33103228 -0.83185852 106 94 68
-0.3083294 -0.33044669 -0.83134991 105 94 84
-0.30494669 -0.33297378 -0.83029526 117 98 113
-0.30485734 -0.33363599 -0.83035231 116 98 114
-0.30404985 -0.33256871 -0.82984412 131 108 124
-0.30330887 -0.33340058 -0.82964075 139 114 131
-0.3048839 -0.33240771 -0.83018559 119 100 115
-0.30430967 -0.33024865 -0.8296926 136 114 126
-0.30576316 -0.33133969 -0.83050513 111 98 109
-0.30568925 -0.33246586 -0.83057517 108 93 107
-0.30485439 -0.33105838 -0.83003491 125 106 118
-0.30334872 -0.33029783 -0.82922792 149 121 135
-0.30549544 -0.33144182 -0.83038408 115 99 111
-0.30240521 -0.33365431 -0.8292591 150 123 140
-0.30289596 -0.33555347 -0.82980019 136 107 129
-0.30276793 -0.33499968 -0.82965326 140 111 132
-0.30509853 -0.33639851 -0.83092546 110 91 109
-0.30429441 -0.33466229 -0.83027387 122 102 119
-0.30499932 -0.33442277 -0.83054078 112 95 111
-0.3017509 -0.33620241 -0.82933497 146 121 141
-0.30155438 -0.33604035 -0.82920933 149 126 145
-0.30212763 -0.33442098 -0.82923728 150 125 142
-0.31645879 -0.3209106 -0.83251899 50 37 41
-0.31984821 -0.32583648 -0.83476567 23 19 31
-0.31928197 -0.32533321 -0.83442509 24 20 32
-0.31951094 -0.32576329 -0.83463603 26 21 35
-0.31937176 -0.32550845 -0.83450991 24 20 33
-0.31855926 -0.32562014 -0.83429068 35 29 47
-0.31752536 -0.32610562 -0.83394247 54 45 63
-0.31683359 -0.3258892 -0.83350569 62 51 65
-0.31794968 -0.32591844 -0.83410704 46 38 57
-0.31699604 -0.32561156 -0.83350211 57 47 60
-0.31631601 -0.32516602 -0.8329975 62 51 59
-0.31709221 -0.32514521 -0.8334024 50 41 53
-0.31641528 -0.32253522 -0.83247131 52 46 41
-0.31532586 -0.32486904 -0.83246332 80 66 69
-0.31526726 -0.32497525 -0.83245963 81 67 70
-0.3159174 -0.33002385 -0.83260542 51 53 45
-0.31814423 -0.32823104 -0.83415556 24 21 31
-0.31835571 -0.32627007 -0.83439863 41 35 56
-0.31575817 -0.32883894 -0.83265626 63 60 58
-0.31623349 -0.32772529 -0.83306307 63 57 62
-0.31729332 -0.32692772 -0.83373588 53 46 60
-0.31736526 -0.32707351 -0.83375376 51 45 58
-0.31660315 -0.32783014 -0.8332445 57 52 59
-0.31593621 -0.33313391 -0.83296961 40 18 35
-0.31553182 -0.33279037 -0.83268988 48 27 42
-0.31533077 -0.33192933 -0.83245093 56 42 49
-0.3149032 -0.3346732 -0.83268201 53 23 49
-0.31592807 -0.33468732 -0.83325613 37 16 36
-0.31262007 -0.33574054 -0.83293474 82 68 72
-0.31312922 -0.33492619 -0.8326118 77 56 67
-0.31229243 -0.33489648 -0.83265829 89 74 75
-0.31141496 -0.3355003 -0.83259344 98 90 83
-0.31128648 -0.33544788 -0.83254391 100 93 84
-0.3126145 -0.33644891 -0.83297867 79 65 73
-0.30429944 -0.31702915 -0.82828772 142 127 135
-0.30435315 -0.31818733 -0.82839066 141 129 135
0 0 0 1 0 0 0 1 0 0 0 1 0 0 0 0 0 195 1 0 0
