ply
format ascii 1.0
comment PCL generated
element vertex 140
property float x
property float y
property float z
property uchar red
property uchar green
property uchar blue
element camera 1
property float view_px
property float view_py
property float view_pz
property float x_axisx
property float x_axisy
property float x_axisz
property float y_axisx
property float y_axisy
property float y_axisz
property float z_axisx
property float z_axisy
property float z_axisz
property float focal
property float scalex
property float scaley
property float centerx
property float centery
property int viewportx
property int viewporty
property float k1
property float k2
end_header
-0.27789021 0.041558668 -0.87116909 88 56 56
-0.27695423 0.039889708 -0.8708111 92 62 62
-0.27664459 0.040584262 -0.87144125 99 72 73
-0.27693307 0.039428569 -0.87061256 87 57 57
-0.27648455 0.039099205 -0.87089103 84 55 54
-0.2793771 0.049979553 -0.87711078 98 63 60
-0.27934948 0.051436175 -0.87911093 119 85 85
-0.27947915 0.051332567 -0.87894171 117 84 83
-0.28077388 0.050313346 -0.87727308 102 66 63
-0.28018799 0.050604891 -0.87779588 107 72 69
-0.28073278 0.051612362 -0.87896651 109 74 71
-0.28079218 0.051710084 -0.87907368 108 73 70
-0.28129464 0.050979119 -0.87801415 104 68 64
-0.28109324 0.051181253 -0.87832415 106 70 67
-0.27754158 0.050229974 -0.87840933 119 89 92
-0.27753639 0.049178056 -0.8769719 105 73 74
-0.27658087 0.049023248 -0.877271 112 83 87
-0.27667052 0.049288899 -0.87758672 115 86 90
-0.278386 0.050269023 -0.87801123 111 79 79
-0.27845424 0.050010845 -0.87762123 107 74 74
-0.27644783 0.050116535 -0.87888384 114 84 91
-0.27582449 0.05000047 -0.87908459 109 81 89
-0.27513915 0.048933454 -0.87786949 118 91 100
-0.27394161 0.049190145 -0.87860548 103 76 89
-0.27507332 0.049641855 -0.87891728 107 79 89
-0.27413234 0.049666312 -0.87924993 97 70 83
-0.27589175 0.04691042 -0.87593102 113 86 87
-0.27761477 0.048262782 -0.8760308 97 66 65
-0.27579746 0.048406366 -0.87710649 117 89 94
-0.27372652 0.045286104 -0.87628466 117 100 98
-0.27308184 0.045602009 -0.87701613 119 107 104
-0.27343199 0.046490617 -0.87741119 120 106 105
-0.27365297 0.04573426 -0.87666976 119 103 101
-0.27443454 0.046116196 -0.87634695 118 98 97
-0.2745719 0.047498774 -0.87727958 120 99 102
-0.27316353 0.046395652 -0.87754935 121 107 106
-0.27305675 0.046589192 -0.87773299 120 107 107
-0.27431089 0.048009459 -0.87774283 119 97 103
-0.27491888 0.04838974 -0.87766284 121 97 103
-0.27275226 0.044584304 -0.87669528 111 97 96
-0.28007698 0.054918371 -0.88614213 112 83 79
-0.28066352 0.054853119 -0.88573533 103 72 67
-0.27961597 0.054192647 -0.88437885 109 80 73
-0.27963832 0.053905647 -0.88360065 105 75 66
-0.27601728 0.053576976 -0.88482988 123 100 102
-0.27591598 0.053191099 -0.883847 128 106 107
-0.27543584 0.05291865 -0.88340473 129 106 108
-0.27821159 0.054621052 -0.8863067 124 101 101
-0.27845278 0.054911327 -0.88694441 122 99 98
-0.27792346 0.054836247 -0.88706702 118 95 96
-0.27926204 0.053811464 -0.88350403 109 80 71
-0.27928603 0.054783087 -0.88609439 120 95 92
-0.27815941 0.054411728 -0.8857739 125 102 101
-0.2776053 0.053439144 -0.88349855 118 92 88
-0.27906528 0.053703751 -0.88333315 109 80 72
-0.27819005 0.053827841 -0.88419026 118 92 88
-0.27366248 0.05276325 -0.88466197 98 74 76
-0.27433664 0.053599492 -0.88624799 98 75 79
-0.27391189 0.052933902 -0.88483644 101 78 80
-0.27409628 0.053829279 -0.88709188 90 66 72
-0.27329549 0.053386148 -0.8866294 83 59 63
-0.27346921 0.053096082 -0.88568366 90 67 70
-0.27467167 0.053148426 -0.88471752 111 89 91
-0.27423805 0.052190352 -0.88327688 110 86 87
-0.27431238 0.052219059 -0.8832494 111 87 88
-0.27384081 0.052374355 -0.88391316 102 78 80
-0.27643481 0.045782749 -0.87483752 104 74 74
-0.27768004 0.04601736 -0.8743307 92 60 58
-0.27687806 0.045280017 -0.87421542 98 68 67
-0.27700689 0.046622895 -0.87514448 100 70 68
-0.27612418 0.0459022 -0.87507868 108 79 79
-0.27715945 0.041637272 -0.87171823 94 66 67
-0.27778602 0.042288497 -0.87177122 85 54 54
-0.27816406 0.043567594 -0.87243366 81 51 50
-0.27726814 0.042237155 -0.87210286 87 58 61
-0.27666152 0.041828256 -0.87222975 92 65 70
-0.27696076 0.044507917 -0.87366343 96 66 66
-0.27593529 0.044749059 -0.87436426 107 78 79
-0.27756995 0.04453934 -0.87334698 90 59 58
-0.27635148 0.04340788 -0.87336844 99 72 75
-0.27568147 0.041434377 -0.87260699 101 78 84
-0.27695593 0.044863723 -0.87386966 97 66 66
-0.27746522 0.044876158 -0.87359726 92 61 59
-0.27479175 0.044672534 -0.87507397 113 88 89
-0.27548763 0.040259615 -0.8721841 95 72 77
-0.27519491 0.040531866 -0.87254095 93 71 79
-0.28101906 0.056689136 -0.89097816 106 79 72
-0.28140479 0.056590725 -0.89038163 101 72 65
-0.28074726 0.056503896 -0.89077878 109 83 77
-0.2805703 0.055547625 -0.88800818 111 83 80
-0.28015059 0.055519857 -0.88816482 116 90 87
-0.27977657 0.05585048 -0.88993597 121 98 96
-0.28053448 0.055613343 -0.88833416 112 84 81
-0.27633485 0.055147208 -0.89014828 97 71 75
-0.27687699 0.055212107 -0.88987076 105 82 84
-0.27566668 0.054639522 -0.88850337 100 75 81
-0.27612484 0.054978017 -0.88958657 98 73 78
-0.2761108 0.054886442 -0.88917613 101 76 81
-0.27883101 0.055645466 -0.88980579 124 103 102
-0.27831838 0.055218454 -0.88838047 121 99 99
-0.27915275 0.055210069 -0.88747102 124 101 100
-0.27761495 0.055109072 -0.88861245 118 96 97
-0.27900103 0.055309154 -0.88808435 124 102 100
-0.27709243 0.054927282 -0.88832319 115 93 95
-0.27443579 0.054270506 -0.88859296 84 58 64
-0.2741349 0.054371487 -0.88953757 73 46 52
-0.27478671 0.054442078 -0.88883543 86 60 67
-0.27367836 0.054059312 -0.88880879 72 46 51
-0.28177628 0.052885856 -0.88033289 104 69 63
-0.28133321 0.052998949 -0.88070601 109 75 70
-0.28054795 0.052738503 -0.88030434 118 87 82
-0.2794739 0.053500634 -0.88258332 112 82 75
-0.2807627 0.053530008 -0.88215172 109 76 71
-0.27850649 0.053015761 -0.88182145 124 96 92
-0.27797276 0.053139403 -0.88246125 120 93 89
-0.27693713 0.052751333 -0.88202989 128 103 102
-0.27828282 0.052863035 -0.88154465 127 100 97
-0.27596518 0.052938674 -0.88312733 125 102 102
-0.28099445 0.052002713 -0.87937778 107 72 68
-0.28027958 0.052033152 -0.87958544 115 82 79
-0.27949342 0.0520152 -0.87975609 123 91 90
-0.27742505 0.051178902 -0.87978852 116 86 89
-0.27573696 0.052456345 -0.88233966 124 100 102
-0.27614444 0.052390445 -0.88203841 124 99 100
-0.27788469 0.051827312 -0.88038635 121 92 93
-0.27645689 0.051464487 -0.88067162 117 90 94
-0.27564955 0.051303525 -0.88089025 115 90 95
-0.27748442 0.05236331 -0.88124907 125 98 98
-0.27917084 0.051944595 -0.87979782 124 93 92
-0.27855176 0.052378222 -0.88064498 128 99 97
-0.27534455 0.051113132 -0.8808462 114 88 94
-0.27337235 0.051181257 -0.88266098 89 64 65
-0.27507883 0.051838029 -0.88207465 118 94 97
-0.27495846 0.050159965 -0.87992436 101 74 81
-0.27527827 0.050651152 -0.88030893 110 83 91
-0.27460822 0.051900588 -0.88256365 112 88 90
-0.28057307 0.056678217 -0.89123958 111 85 80
-0.27958322 0.056825463 -0.89215142 122 99 99
-0.2812334 0.057105288 -0.89176869 103 73 69
-0.27951613 0.056240339 -0.89121401 124 103 100
0 0 0 1 0 0 0 1 0 0 0 1 0 0 0 0 0 140 1 0 0
