ply
format ascii 1.0
comment PCL generated
element vertex 130
property float x
property float y
property float z
property uchar red
property uchar green
property uchar blue
element camera 1
property float view_px
property float view_py
property float view_pz
property float x_axisx
property float x_axisy
property float x_axisz
property float y_axisx
property float y_axisy
property float y_axisz
property float z_axisx
property float z_axisy
property float z_axisz
property float focal
property float scalex
property float scaley
property float centerx
property float centery
property int viewportx
property int viewporty
property float k1
property float k2
end_header
-0.22850493 0.46290946 -0.87093329 187 141 161
-0.22857174 0.46287355 -0.87094665 187 141 161
-0.22569713 0.46054053 -0.87024206 155 117 130
-0.22689441 0.46198109 -0.87102324 172 131 145
-0.22623146 0.46174547 -0.87147492 164 124 135
-0.22601347 0.46127737 -0.87100887 160 122 133
-0.22748375 0.46247324 -0.87114322 179 136 152
-0.22766925 0.46252966 -0.87108225 181 137 153
-0.22651799 0.4599669 -0.86958414 156 123 133
-0.22742578 0.45998469 -0.86958635 162 132 137
-0.22788553 0.4615761 -0.87031806 175 135 150
-0.22725868 0.46027201 -0.8697201 163 130 138
-0.22771537 0.46146443 -0.87026763 173 134 148
-0.22744861 0.46060455 -0.86987245 166 132 141
-0.22552642 0.45778221 -0.86906379 153 120 129
-0.2263629 0.45898259 -0.86913145 149 122 126
-0.2268285 0.45809197 -0.86918622 160 133 134
-0.22644049 0.45800823 -0.86919427 159 130 133
-0.22805098 0.47992799 -0.87816548 157 124 131
-0.22807668 0.47972551 -0.87912041 150 108 122
-0.22792567 0.47926041 -0.87749749 158 124 131
-0.22815543 0.48048386 -0.87872428 156 123 132
-0.22789824 0.47886464 -0.87795258 153 113 125
-0.22789888 0.47834274 -0.8792243 143 91 112
-0.22787076 0.47812822 -0.87892306 145 94 114
-0.22742148 0.47504553 -0.87634242 160 129 133
-0.22755522 0.47626171 -0.87904328 149 99 117
-0.22739612 0.47530872 -0.87902653 151 103 119
-0.22776967 0.47784239 -0.87751544 154 113 125
-0.22763927 0.47717896 -0.87618911 162 131 134
-0.2277282 0.47783759 -0.87676966 159 124 130
-0.22749478 0.47576013 -0.87579417 163 135 136
-0.22753312 0.47590852 -0.87625736 160 129 133
-0.22763351 0.47722447 -0.87601298 163 134 136
-0.22736062 0.47120622 -0.87858617 172 135 134
-0.2274361 0.47260579 -0.87754959 147 102 119
-0.22733657 0.4718776 -0.87880433 169 130 131
-0.2276011 0.47088802 -0.87576306 139 98 118
-0.2274159 0.47173163 -0.87787718 158 118 126
-0.22751676 0.4720709 -0.87638992 142 101 119
-0.22754321 0.47177067 -0.87614334 141 100 119
-0.2274996 0.47234023 -0.87635744 144 104 121
-0.22740892 0.4739663 -0.87566298 159 130 133
-0.2274068 0.47323489 -0.87763488 147 102 119
-0.22633997 0.46687713 -0.87567633 157 115 120
-0.22667399 0.46820027 -0.87700719 165 126 126
-0.22695023 0.46928224 -0.87895614 155 120 118
-0.22654024 0.46764269 -0.87840122 123 86 93
-0.22647905 0.46740726 -0.87767732 131 93 99
-0.22706051 0.46909997 -0.87579226 151 110 122
-0.22752114 0.47053704 -0.87606746 145 105 121
-0.22729614 0.46995831 -0.87642562 154 114 124
-0.22722436 0.46971181 -0.87629265 153 114 124
-0.22726595 0.47007108 -0.87723482 163 125 129
-0.22499673 0.46547467 -0.87915188 83 48 62
-0.22476955 0.46528107 -0.87880307 85 50 64
-0.22504231 0.46569419 -0.87734503 93 58 71
-0.22537 0.46592686 -0.87833256 88 53 66
-0.22561748 0.46623787 -0.87755418 94 59 71
-0.22523049 0.46593863 -0.87549847 122 85 94
-0.22600541 0.46654248 -0.87797964 98 62 74
-0.22756509 0.47555906 -0.87528306 165 141 139
-0.22753021 0.47599971 -0.87535477 166 141 139
-0.23246744 0.47204825 -0.87485778 157 137 118
-0.2311694 0.47340241 -0.8748135 163 141 124
-0.23184392 0.47374877 -0.87511778 167 139 124
-0.23153839 0.47260505 -0.87472969 158 139 121
-0.23095727 0.47242019 -0.8744964 156 141 122
-0.23240042 0.47218892 -0.87490082 158 136 118
-0.2294246 0.47129101 -0.87409353 147 113 119
-0.22970733 0.47306389 -0.87431359 157 140 127
-0.22905529 0.47158802 -0.87406158 148 113 121
-0.23017545 0.47133338 -0.87422168 148 121 119
-0.22999312 0.47207212 -0.87426382 152 130 122
-0.22752929 0.47341433 -0.87526053 156 126 132
-0.22799052 0.47194931 -0.87464052 148 109 124
-0.22841428 0.47169206 -0.87408268 148 108 122
-0.22941023 0.46887824 -0.87328017 164 134 133
-0.23056945 0.46845302 -0.87352699 171 138 142
-0.22861736 0.46992519 -0.87351358 151 113 123
-0.22877337 0.46949598 -0.87334889 156 123 126
-0.22968112 0.47050092 -0.87401998 146 109 119
-0.23171882 0.46850419 -0.87377936 172 146 141
-0.23142134 0.47043872 -0.87428933 149 127 118
-0.23098485 0.46887308 -0.87376475 167 135 137
-0.22724742 0.46843535 -0.87477636 154 120 123
-0.22820689 0.46706721 -0.87246048 180 174 137
-0.22747472 0.47021356 -0.87538201 139 98 117
-0.22710884 0.46890587 -0.87526077 148 108 120
-0.22754498 0.46850488 -0.87432933 157 129 125
-0.2274133 0.46865791 -0.87462807 154 122 123
-0.2283321 0.47017831 -0.87392068 147 108 120
-0.22846416 0.4704977 -0.87386525 144 100 119
-0.22800471 0.46611431 -0.87251639 181 164 140
-0.22710836 0.46679467 -0.87410325 170 144 129
-0.22817107 0.46646816 -0.8723101 183 173 139
-0.22629815 0.46630552 -0.87485993 154 116 118
-0.22729646 0.4658992 -0.87352598 171 139 134
-0.22664431 0.46574926 -0.87393302 154 122 120
-0.22681598 0.46632212 -0.87442219 166 129 128
-0.22804128 0.46384108 -0.87149137 185 151 152
-0.22689898 0.4646104 -0.87287724 156 125 126
-0.22641499 0.46405905 -0.87313467 150 111 123
-0.22644398 0.46475476 -0.87336832 146 114 117
-0.2256251 0.46298769 -0.87215799 152 125 123
-0.22667255 0.46362469 -0.87263846 159 119 131
-0.22543056 0.46436509 -0.87386554 130 96 105
-0.22686674 0.46324253 -0.87212658 167 127 139
-0.2247633 0.46466839 -0.87441128 116 86 92
-0.2264664 0.46288329 -0.87181044 166 132 137
-0.22472137 0.46113777 -0.871683 143 112 114
-0.22574784 0.46224427 -0.87178546 156 124 127
-0.22768548 0.47953466 -0.88079721 155 120 126
-0.22752331 0.4788644 -0.88108981 153 114 122
-0.22808667 0.48038271 -0.87964404 154 118 128
-0.2275095 0.47874701 -0.88108277 152 113 121
-0.22906622 0.47468448 -0.88268071 120 57 90
-0.22850282 0.47553301 -0.88275152 153 92 120
-0.22815749 0.47475907 -0.88109863 151 90 117
-0.22744378 0.47631797 -0.88162458 156 112 123
-0.22761004 0.47715759 -0.88292974 158 116 125
-0.22775027 0.47669476 -0.88266814 156 111 124
-0.22778901 0.4752723 -0.88108963 153 101 121
-0.2277104 0.47794572 -0.8797769 146 97 115
-0.22733895 0.47525728 -0.87946302 151 102 118
-0.2271558 0.47604558 -0.88072151 155 114 122
-0.2272954 0.47663897 -0.8805607 153 110 120
-0.22743492 0.47765407 -0.88068211 151 108 119
-0.22738716 0.47569701 -0.87956446 150 102 118
-0.2286377 0.47440812 -0.88196784 145 80 110
0 0 0 1 0 0 0 1 0 0 0 1 0 0 0 0 0 130 1 0 0
