ply
format ascii 1.0
comment PCL generated
element vertex 103
property float x
property float y
property float z
property uchar red
property uchar green
property uchar blue
element camera 1
property float view_px
property float view_py
property float view_pz
property float x_axisx
property float x_axisy
property float x_axisz
property float y_axisx
property float y_axisy
property float y_axisz
property float z_axisx
property float z_axisy
property float z_axisz
property float focal
property float scalex
property float scaley
property float centerx
property float centery
property int viewportx
property int viewporty
property float k1
property float k2
end_header
-0.28127983 -0.13452767 -0.86941737 94 61 109
-0.28161579 -0.13452736 -0.8695696 91 57 104
-0.28046456 -0.13377278 -0.86787611 99 67 122
-0.28133041 -0.13370359 -0.86821204 91 55 107
-0.28235805 -0.13357525 -0.8685438 82 42 90
-0.28049242 -0.13390742 -0.86808527 100 67 122
-0.28254715 -0.13514021 -0.87101924 84 50 88
-0.2818554 -0.13503194 -0.87059963 89 58 99
-0.27708438 -0.13501383 -0.86759144 128 111 155
-0.2834287 -0.11509722 -0.85728091 114 74 153
-0.28376645 -0.11434098 -0.85732448 111 67 147
-0.2847712 -0.11514735 -0.85829818 94 52 122
-0.28316912 -0.11497931 -0.85704309 119 78 158
-0.28488696 -0.11620861 -0.85866034 92 48 113
-0.28455269 -0.11689338 -0.85858738 97 52 116
-0.28411004 -0.11571027 -0.85795099 104 62 134
-0.28509128 -0.11527768 -0.85857266 89 47 115
-0.28345323 -0.11842777 -0.85841632 100 50 132
-0.28394446 -0.11777461 -0.85847121 100 53 125
-0.28353316 -0.11763582 -0.85818446 104 56 135
-0.28236687 -0.11658499 -0.85671413 120 85 156
-0.28235158 -0.1188791 -0.85750312 109 67 142
-0.28223568 -0.1185323 -0.8572551 112 72 146
-0.28313679 -0.11837754 -0.85818183 103 53 139
-0.28310907 -0.11824656 -0.85810566 104 55 140
-0.28181952 -0.1168559 -0.85621738 124 95 159
-0.28163946 -0.11705953 -0.85609341 125 97 159
-0.28110516 -0.119258 -0.85631013 120 91 151
-0.28054187 -0.11955783 -0.85588157 125 100 156
-0.28186545 -0.11930037 -0.85716397 112 74 145
-0.28269011 -0.11958198 -0.85823089 102 52 137
-0.28070411 -0.12107179 -0.85697889 115 79 151
-0.28150725 -0.12079858 -0.85767394 107 67 145
-0.28145602 -0.12215016 -0.8582058 100 63 136
-0.28081843 -0.1224096 -0.85773492 106 72 143
-0.28271309 -0.1204002 -0.85860938 97 49 131
-0.2818518 -0.12102909 -0.85809124 102 60 138
-0.28218779 -0.1211631 -0.85845417 98 55 133
-0.28022537 -0.12303055 -0.85745138 108 80 147
-0.27902174 -0.12238574 -0.85594982 126 100 163
-0.28059885 -0.12453067 -0.85883069 107 74 138
-0.28050151 -0.12372679 -0.85818172 106 76 141
-0.27969024 -0.12328324 -0.85713917 115 88 153
-0.28169119 -0.12324904 -0.85892326 92 60 125
-0.28239286 -0.12346053 -0.85970479 85 50 115
-0.28033343 -0.12491154 -0.85885668 110 78 140
-0.28008026 -0.12612528 -0.85947496 115 81 141
-0.2797201 -0.12692869 -0.85971791 121 85 145
-0.27904704 -0.12452798 -0.85742509 124 96 160
-0.27883646 -0.12446689 -0.85716099 126 100 162
-0.27927119 -0.12559263 -0.85842663 123 92 156
-0.2790589 -0.12693591 -0.85917288 127 94 157
-0.28231472 -0.12474272 -0.86055267 85 44 109
-0.28157273 -0.1250132 -0.86008137 96 58 122
-0.28138953 -0.1259457 -0.86052912 97 57 119
-0.28155378 -0.12500264 -0.86005795 96 58 123
-0.28242582 -0.12492943 -0.8607713 83 41 106
-0.2811732 -0.12521482 -0.85983908 101 65 128
-0.28060624 -0.12710211 -0.86065346 105 68 127
-0.28019798 -0.12970479 -0.8629297 100 61 132
-0.27989036 -0.12833644 -0.86127782 111 75 141
-0.28051433 -0.12851655 -0.86200416 100 62 128
-0.27988583 -0.12969922 -0.86265182 105 67 138
-0.27968046 -0.12739535 -0.8601433 117 85 147
-0.27960274 -0.12928657 -0.86198771 111 75 145
-0.28080589 -0.12769625 -0.86142898 99 61 123
-0.28106409 -0.12925267 -0.86319172 90 48 115
-0.28045502 -0.13005786 -0.8634305 97 56 126
-0.27821994 -0.12932803 -0.86076218 131 102 162
-0.27925503 -0.13027319 -0.86267972 112 77 150
-0.2788364 -0.13019021 -0.86220676 119 85 154
-0.27926391 -0.12765007 -0.86003566 123 91 154
-0.27856764 -0.12964718 -0.861408 125 94 158
-0.27801827 -0.13201991 -0.86353147 123 91 156
-0.28194004 -0.11484898 -0.85567296 132 104 167
-0.28125829 -0.11524948 -0.8550241 139 108 171
-0.28067467 -0.11734991 -0.85512239 135 106 165
-0.28114438 -0.11602972 -0.85517639 136 106 168
-0.28021577 -0.11764017 -0.85471022 138 107 167
-0.28019303 -0.1190688 -0.85528773 133 106 163
-0.28031135 -0.11802414 -0.8549605 135 106 164
-0.2803829 -0.11937255 -0.85562593 128 103 159
-0.28026608 -0.119984 -0.85584569 125 101 157
-0.28148925 -0.13017263 -0.86419702 88 44 102
-0.28210703 -0.13019028 -0.86461741 81 38 90
-0.27983922 -0.13090847 -0.86371636 105 64 135
-0.28147233 -0.13134538 -0.86523116 88 46 103
-0.28112596 -0.13270444 -0.8666929 92 53 111
-0.28097329 -0.13216469 -0.8658635 93 52 115
-0.28180563 -0.1322464 -0.86638272 85 42 99
-0.28208962 -0.13254371 -0.86693674 82 39 94
-0.28157681 -0.13257544 -0.8667317 88 46 103
-0.28049982 -0.13247997 -0.86607432 98 60 123
-0.28232253 -0.13245511 -0.86692607 80 36 90
-0.278005 -0.13456026 -0.86741859 121 99 150
-0.27729663 -0.13443355 -0.86640429 128 109 157
-0.27841124 -0.13406467 -0.86682636 119 95 149
-0.27802944 -0.13307585 -0.8650018 122 96 154
-0.27894244 -0.13151707 -0.86377263 113 75 149
-0.27891627 -0.13211007 -0.86457503 113 78 148
-0.27900961 -0.13221654 -0.86482126 113 78 147
-0.27889174 -0.13248418 -0.86507279 114 81 148
-0.2792328 -0.13124613 -0.86369622 110 70 147
0 0 0 1 0 0 0 1 0 0 0 1 0 0 0 0 0 103 1 0 0
