ply
format ascii 1.0
comment PCL generated
element vertex 139
property float x
property float y
property float z
property uchar red
property uchar green
property uchar blue
element camera 1
property float view_px
property float view_py
property float view_pz
property float x_axisx
property float x_axisy
property float x_axisz
property float y_axisx
property float y_axisy
property float y_axisz
property float z_axisx
property float z_axisy
property float z_axisz
property float focal
property float scalex
property float scaley
property float centerx
property float centery
property int viewportx
property int viewporty
property float k1
property float k2
end_header
-0.18562573 -0.17535685 -0.77363443 92 58 66
-0.18569224 -0.17698918 -0.77374691 101 73 74
-0.18506999 -0.17635326 -0.77297968 92 58 68
-0.18450981 -0.17688575 -0.77238441 88 55 68
-0.1850051 -0.17593706 -0.77291405 89 54 66
-0.18520454 -0.17768912 -0.7731126 100 70 74
-0.18551648 -0.17477645 -0.77346218 88 52 63
-0.1855993 -0.17993465 -0.77344364 92 62 78
-0.18461542 -0.17935376 -0.77245128 93 60 68
-0.1848266 -0.1813177 -0.77255839 83 48 73
-0.18500194 -0.18080127 -0.77276224 86 53 74
-0.1849184 -0.17879012 -0.7727859 97 65 70
-0.18456961 -0.17900105 -0.7724241 95 62 67
-0.18484786 -0.17847092 -0.77272838 98 66 69
-0.18405651 -0.17774439 -0.77189964 88 55 70
-0.18459219 -0.17879495 -0.77245522 96 63 67
-0.18498211 -0.17788313 -0.77287591 98 68 73
-0.18427482 -0.18206638 -0.77207035 78 40 62
-0.18456675 -0.18179986 -0.77231127 80 44 69
-0.18374437 -0.18904759 -0.77248091 97 72 65
-0.18385984 -0.1883321 -0.7725324 101 75 69
-0.18440376 -0.18909843 -0.77323931 109 84 75
-0.18442114 -0.18798395 -0.7731173 99 68 65
-0.18435022 -0.18800175 -0.77304041 99 69 66
-0.18524301 -0.19278178 -0.77362657 118 77 70
-0.18458813 -0.19126338 -0.77315688 109 75 68
-0.18423928 -0.19164011 -0.77268928 102 66 61
-0.18513682 -0.19280252 -0.77350146 116 75 69
-0.18460028 -0.19057705 -0.77329665 110 79 71
-0.18469435 -0.19468072 -0.77340096 98 57 54
-0.18468019 -0.19429451 -0.77327514 100 61 58
-0.19093069 -0.18485036 -0.78199124 72 42 55
-0.19080769 -0.19196819 -0.78164446 112 102 77
-0.18713273 -0.17731789 -0.77595478 112 85 91
-0.18680716 -0.17720738 -0.77544081 110 83 87
-0.18696968 -0.17744099 -0.77571213 111 84 89
-0.18601871 -0.17623283 -0.77421886 99 68 74
-0.18626262 -0.17637312 -0.77457261 102 73 79
-0.18666103 -0.17535281 -0.77513927 99 68 80
-0.18637535 -0.17519504 -0.77472502 95 63 74
-0.1857892 -0.17756528 -0.77389908 105 78 77
-0.18758062 -0.17941767 -0.77666277 108 80 92
-0.18774672 -0.17925711 -0.77694464 110 82 93
-0.18774508 -0.17973207 -0.7769779 109 81 90
-0.18699773 -0.18129705 -0.77577382 96 69 81
-0.18802218 -0.18024094 -0.77750731 111 84 88
-0.18607152 -0.18150671 -0.77414984 85 57 79
-0.18639758 -0.17867655 -0.774795 103 76 83
-0.18723579 -0.17850788 -0.77610439 109 82 91
-0.18717562 -0.17923464 -0.77596927 104 76 91
-0.18696654 -0.17825428 -0.77570152 109 82 89
-0.18592048 -0.17869911 -0.77405387 101 74 79
-0.18634792 -0.17882797 -0.77470928 102 75 83
-0.18727787 -0.18529794 -0.77653086 94 63 69
-0.18756846 -0.18475616 -0.77685755 99 75 79
-0.18694186 -0.1842102 -0.77583897 92 63 73
-0.18590721 -0.18208568 -0.7739408 82 52 74
-0.18674918 -0.18331939 -0.7753979 91 64 78
-0.18792413 -0.18233915 -0.77744699 106 80 81
-0.18669936 -0.18251456 -0.77528006 91 65 79
-0.18648025 -0.18235762 -0.7748906 89 62 78
-0.18656743 -0.18268786 -0.77504808 90 63 78
-0.18621585 -0.18201154 -0.77441919 86 59 78
-0.186744 -0.18170024 -0.77535135 93 65 79
-0.18794617 -0.1863334 -0.7776984 104 81 80
-0.18774477 -0.18704924 -0.77753627 102 77 78
-0.1874395 -0.1890675 -0.77745932 101 76 76
-0.18787548 -0.18589729 -0.77751714 102 77 78
-0.18604848 -0.18849562 -0.7753042 102 69 69
-0.18674155 -0.18839808 -0.77631706 96 64 67
-0.18638444 -0.189347 -0.77594084 110 84 79
-0.18576592 -0.18779576 -0.77477139 94 57 60
-0.18549785 -0.18783572 -0.77438706 96 59 61
-0.18800388 -0.19223343 -0.7775439 89 55 58
-0.18759046 -0.18953313 -0.77772444 103 80 79
-0.18759921 -0.19081056 -0.77736175 98 69 69
-0.18630177 -0.19031955 -0.77558041 109 79 74
-0.1871651 -0.19010453 -0.77692503 104 77 75
-0.18641943 -0.19319789 -0.77510411 110 68 65
-0.18589607 -0.19067927 -0.7749297 114 82 75
-0.18590908 -0.19185187 -0.77469337 115 78 72
-0.18651126 -0.19333693 -0.77520037 108 67 64
-0.18661794 -0.19096607 -0.77586138 104 72 69
-0.18661419 -0.19186258 -0.77566177 105 69 67
-0.1873129 -0.19257182 -0.77646995 96 59 59
-0.18551703 -0.19035321 -0.77448124 119 87 78
-0.18626583 -0.19339016 -0.7748577 112 69 66
-0.18717256 -0.19535711 -0.77610672 88 53 52
-0.18708821 -0.19352353 -0.77598995 99 59 59
-0.18708165 -0.19459459 -0.77598131 93 56 55
-0.18796502 -0.19564855 -0.7771979 74 42 45
-0.18759461 -0.19589759 -0.77668804 78 46 47
-0.18565483 -0.19407633 -0.7742098 112 69 64
-0.18575044 -0.19390699 -0.77423841 114 72 66
-0.18609457 -0.19417474 -0.77464044 109 69 64
-0.18896745 -0.18063213 -0.77889687 106 74 88
-0.18929839 -0.18036188 -0.77935177 105 70 89
-0.19055937 -0.18485959 -0.78140688 72 46 56
-0.1894857 -0.18395028 -0.7796303 110 78 87
-0.18984282 -0.18359832 -0.7802788 94 61 74
-0.19012165 -0.18541856 -0.78060436 91 68 72
-0.18980207 -0.18476206 -0.78010786 101 74 79
-0.18921386 -0.18510321 -0.77918017 115 88 90
-0.18938497 -0.18477182 -0.77941918 115 87 90
-0.18927994 -0.18428431 -0.7793321 111 81 87
-0.18818685 -0.18439484 -0.77790099 105 80 81
-0.18877953 -0.18319725 -0.77877802 103 69 80
-0.18903236 -0.18266234 -0.77915192 102 65 80
-0.18966201 -0.18588486 -0.77982128 113 90 87
-0.18996425 -0.18655705 -0.78039116 104 85 79
-0.1896109 -0.18776925 -0.78001535 116 102 87
-0.18966223 -0.1881187 -0.78014392 115 103 86
-0.18956555 -0.18909937 -0.78016442 116 110 87
-0.18899453 -0.18779415 -0.77922601 115 97 88
-0.18915391 -0.18773364 -0.77941453 117 100 89
-0.18914157 -0.18880199 -0.77957034 116 105 88
-0.1886799 -0.18739527 -0.77877074 113 90 87
-0.18848851 -0.18654913 -0.77840388 110 86 85
-0.18828943 -0.18622965 -0.77810997 108 84 83
-0.18824294 -0.18556195 -0.77795017 106 83 82
-0.18988869 -0.18956366 -0.78066325 111 106 80
-0.19074664 -0.19147101 -0.78162336 109 101 75
-0.19025439 -0.1903791 -0.7810722 110 103 78
-0.18952343 -0.19080958 -0.77990609 113 103 83
-0.18965234 -0.19057664 -0.78015625 116 108 85
-0.18961473 -0.19131286 -0.77995157 112 101 82
-0.19012718 -0.19246411 -0.78053629 114 101 81
-0.18930712 -0.19094694 -0.77956051 109 96 79
-0.18873359 -0.19232352 -0.77847528 93 65 62
-0.18790892 -0.1896389 -0.77809596 105 84 79
-0.18805659 -0.19075882 -0.77800363 98 72 71
-0.18815866 -0.19154498 -0.77793682 93 64 64
-0.18880439 -0.1910203 -0.77886915 102 82 72
-0.19008704 -0.19433209 -0.78015703 105 82 78
-0.18971501 -0.19421926 -0.77961141 100 77 74
-0.18935345 -0.19377707 -0.77914751 96 76 69
-0.18891162 -0.19599922 -0.77848715 76 50 52
-0.18854392 -0.19447902 -0.77800244 78 47 50
-0.18883272 -0.19361094 -0.77841192 88 59 59
0 0 0 1 0 0 0 1 0 0 0 1 0 0 0 0 0 139 1 0 0
