ply
format ascii 1.0
comment PCL generated
element vertex 111
property float x
property float y
property float z
property uchar red
property uchar green
property uchar blue
element camera 1
property float view_px
property float view_py
property float view_pz
property float x_axisx
property float x_axisy
property float x_axisz
property float y_axisx
property float y_axisy
property float y_axisz
property float z_axisx
property float z_axisy
property float z_axisz
property float focal
property float scalex
property float scaley
property float centerx
property float centery
property int viewportx
property int viewporty
property float k1
property float k2
end_header
-0.36469027 0.053835478 -0.91439366 44 38 36
-0.3647193 0.053487182 -0.9142319 38 33 31
-0.36532974 0.051745936 -0.91241479 40 36 34
-0.36571589 0.051060777 -0.91224492 22 19 18
-0.3654733 0.051760286 -0.91326803 12 11 11
-0.36656085 0.049335562 -0.91115612 0 0 0
-0.36599368 0.050705653 -0.91274065 0 0 0
-0.3666645 0.049362037 -0.91378969 0 0 0
-0.36670488 0.049208298 -0.91308284 0 0 0
-0.36645567 0.049712609 -0.91274804 0 0 0
-0.3656294 0.051572654 -0.91362149 0 0 0
-0.36675039 0.046675563 -0.9130004 13 11 10
-0.36655113 0.04687731 -0.91087312 0 0 0
-0.36673391 0.048133891 -0.91161209 0 0 0
-0.36653471 0.046796948 -0.91071808 0 0 0
-0.36679265 0.047921721 -0.91352254 0 0 0
-0.36671919 0.047900785 -0.91191059 0 0 0
-0.36469129 0.056783751 -0.92159963 8 5 5
-0.36430514 0.05753836 -0.92103451 13 10 9
-0.36443251 0.058281895 -0.92178905 22 17 15
-0.36470091 0.057882927 -0.92225379 19 15 13
-0.36372986 0.057859212 -0.91973269 13 11 10
-0.36450177 0.057615034 -0.92158616 15 12 10
-0.3638052 0.060405996 -0.92133296 32 28 24
-0.36354631 0.058887709 -0.91979384 15 13 11
-0.36312583 0.058960956 -0.91867083 3 2 2
-0.36362511 0.059975628 -0.92060155 24 21 18
-0.36332417 0.057941973 -0.91866666 3 2 2
-0.36551034 0.053054575 -0.91846114 0 0 0
-0.36442715 0.054530837 -0.91888636 0 0 0
-0.36444747 0.054378364 -0.9190439 1 1 1
-0.36377275 0.054782696 -0.9201982 19 16 15
-0.36482221 0.05337422 -0.91950113 4 3 3
-0.36399063 0.054057017 -0.92066377 23 19 19
-0.36422193 0.055272095 -0.92110938 17 14 13
-0.36437759 0.056374751 -0.92086405 8 5 5
-0.36426625 0.054636434 -0.92159677 24 19 19
-0.36429152 0.05401342 -0.92202771 30 24 24
-0.36444765 0.054674149 -0.92204314 25 19 19
-0.36539528 0.05201504 -0.91946024 20 12 13
-0.36617735 0.050480574 -0.91888207 17 10 10
-0.36643493 0.049779143 -0.91882849 15 9 9
-0.36596245 0.049704988 -0.91980088 47 28 29
-0.36647296 0.050374638 -0.9183715 0 0 0
-0.36609033 0.050149865 -0.91926485 29 17 18
-0.36550695 0.050081655 -0.92045045 68 40 43
-0.36514187 0.050546404 -0.92095238 66 40 42
-0.36494458 0.050627451 -0.92140579 71 45 46
-0.36483115 0.052611712 -0.92045653 18 14 14
-0.36469144 0.051221296 -0.9216817 63 42 43
-0.36940205 0.045879036 -0.91868824 0 0 0
-0.3692838 0.046622228 -0.91969097 0 0 0
-0.370033 0.04559515 -0.92064989 0 0 0
-0.36930889 0.047326569 -0.9216646 0 0 0
-0.36955613 0.04586979 -0.91980201 0 0 0
-0.37037671 0.045544513 -0.92151904 0 0 0
-0.3697736 0.045467138 -0.91970283 0 0 0
-0.36597067 0.049936097 -0.91042125 38 34 32
-0.36578265 0.050432876 -0.91053516 55 50 47
-0.36512136 0.05072514 -0.91006142 69 62 59
-0.36659637 0.048400167 -0.91042453 0 0 0
-0.36606157 0.047127459 -0.91004187 0 0 0
-0.36584198 0.048379734 -0.90967262 0 0 0
-0.36548892 0.045905173 -0.9096154 0 0 0
-0.36558351 0.045828685 -0.90971911 0 0 0
-0.3648735 0.047733769 -0.90878302 13 11 10
-0.36167374 0.061564185 -0.91625226 53 44 42
-0.361808 0.061425906 -0.9154827 72 61 58
-0.36167938 0.061554663 -0.915528 71 60 57
-0.36269662 0.06054718 -0.91733742 25 21 20
-0.36262351 0.06061824 -0.91694117 35 30 28
-0.36105055 0.062265266 -0.91797227 10 8 8
-0.36021641 0.063311987 -0.91717684 42 35 31
-0.35960576 0.064035483 -0.91525453 65 55 50
-0.36033908 0.063173681 -0.91778421 37 31 27
-0.36071196 0.06267146 -0.9164148 43 36 33
-0.36045077 0.062992193 -0.91606987 49 41 38
-0.35997087 0.063581996 -0.91552699 57 49 45
-0.3628228 0.060091373 -0.91813689 7 6 6
-0.36292747 0.059482042 -0.91824168 3 3 3
-0.36333901 0.058388781 -0.91684908 49 44 41
-0.36367777 0.056674507 -0.91683102 50 44 42
-0.36322775 0.058636483 -0.9172917 35 31 29
-0.3632524 0.058377795 -0.91747624 29 25 24
-0.3630299 0.059575081 -0.91732198 33 29 28
-0.36325902 0.058885504 -0.91590363 74 65 61
-0.36526772 0.053391479 -0.91751957 0 0 0
-0.36512569 0.053040937 -0.91589481 3 2 2
-0.36505887 0.054016169 -0.91826206 0 0 0
-0.36437243 0.054995205 -0.91788828 0 0 0
-0.36470085 0.053740468 -0.91593879 4 3 3
-0.36470631 0.054593727 -0.91827232 0 0 0
-0.3641527 0.055443902 -0.91813493 0 0 0
-0.36410487 0.055330597 -0.91613722 32 28 27
-0.36421564 0.054921437 -0.91606557 22 19 18
-0.36479023 0.053360198 -0.91471976 18 15 14
-0.36596763 0.05100501 -0.9148131 0 0 0
-0.36641842 0.050391216 -0.91584212 0 0 0
-0.36553696 0.052260999 -0.91594535 0 0 0
-0.36543262 0.05235083 -0.91557175 0 0 0
-0.36573115 0.052354001 -0.91740376 0 0 0
-0.36595485 0.051254157 -0.91554302 0 0 0
-0.36631417 0.050822955 -0.91679007 0 0 0
-0.36663026 0.049904551 -0.91806442 0 0 0
-0.36657822 0.050007991 -0.91649395 0 0 0
-0.36665046 0.049759164 -0.91567409 0 0 0
-0.36658755 0.050035339 -0.91808259 0 0 0
-0.36921644 0.046370566 -0.91832411 0 0 0
-0.3670117 0.048253272 -0.9172194 10 9 8
-0.36700138 0.048124343 -0.91558832 13 11 10
-0.36700612 0.048267614 -0.91681808 10 9 8
0 0 0 1 0 0 0 1 0 0 0 1 0 0 0 0 0 111 1 0 0
