ply
format ascii 1.0
comment PCL generated
element vertex 177
property float x
property float y
property float z
property uchar red
property uchar green
property uchar blue
element camera 1
property float view_px
property float view_py
property float view_pz
property float x_axisx
property float x_axisy
property float x_axisz
property float y_axisx
property float y_axisy
property float y_axisz
property float z_axisx
property float z_axisy
property float z_axisz
property float focal
property float scalex
property float scaley
property float centerx
property float centery
property int viewportx
property int viewporty
property float k1
property float k2
end_header
-0.37299067 0.033654504 -0.91411495 0 0 0
-0.36993432 0.033501901 -0.91071349 5 4 3
-0.36982435 0.034856621 -0.91112602 17 14 13
-0.37339139 0.029935028 -0.91099256 0 0 0
-0.37315005 0.032510329 -0.91317171 0 0 0
-0.37387264 0.0323417 -0.91402775 0 0 0
-0.37377658 0.032228708 -0.91364324 0 0 0
-0.37389213 0.029704228 -0.91191471 0 0 0
-0.37399587 0.031182334 -0.91344696 0 0 0
-0.37386146 0.032782707 -0.91435713 0 0 0
-0.37377849 0.030345283 -0.91209787 0 0 0
-0.37131977 0.032986727 -0.91175359 0 0 0
-0.37208888 0.032553993 -0.9121359 0 0 0
-0.37161154 0.031892601 -0.91103077 0 0 0
-0.37253645 0.032483462 -0.91252762 0 0 0
-0.37230963 0.030792508 -0.91071767 0 0 0
-0.37236086 0.030573525 -0.91056567 0 0 0
-0.37100521 0.032225706 -0.91072178 0 0 0
-0.37721258 0.034551617 -0.9230451 18 16 14
-0.37802613 0.033596285 -0.92404807 47 41 37
-0.37831292 0.033245534 -0.92297769 20 17 16
-0.37686288 0.034936137 -0.92347628 32 28 26
-0.3766793 0.035047431 -0.92266858 21 18 17
-0.3797265 0.030395664 -0.92455816 32 28 25
-0.38006207 0.029576965 -0.92293388 8 7 6
-0.37977132 0.030210119 -0.92379147 26 23 21
-0.37988999 0.030239876 -0.92552066 27 24 21
-0.37936333 0.031125892 -0.92519152 53 46 42
-0.37890923 0.031962506 -0.92333668 31 27 24
-0.37884134 0.032071583 -0.92404705 51 45 41
-0.37883025 0.032172561 -0.92259848 9 8 7
-0.3783969 0.033116225 -0.92247874 6 5 4
-0.37968981 0.027464263 -0.92556882 27 24 21
-0.37922955 0.026384674 -0.92614657 65 56 50
-0.37997469 0.028132267 -0.92526048 5 4 4
-0.37930703 0.026568789 -0.92549706 46 40 36
-0.37978339 0.027683364 -0.92554325 22 19 17
-0.38017392 0.028597482 -0.92551512 0 0 0
-0.37952968 0.027287753 -0.92311358 0 0 0
-0.37987098 0.02819141 -0.92342472 0 0 0
-0.38003233 0.028543141 -0.92390937 0 0 0
-0.37945473 0.026988802 -0.92349517 0 0 0
-0.38019675 0.029083757 -0.92358774 0 0 0
-0.37992999 0.028559608 -0.92252946 0 0 0
-0.38113821 0.022619709 -0.92564625 0 0 0
-0.3816106 0.021914773 -0.92541379 0 0 0
-0.37934822 0.021907365 -0.92321885 65 54 52
-0.38055402 0.022791861 -0.92524928 13 11 10
-0.37929329 0.022436284 -0.92369378 67 57 54
-0.3792513 0.023025123 -0.92424041 69 59 55
-0.38026714 0.02367902 -0.9258607 25 21 20
-0.3791478 0.023115277 -0.92423159 74 62 58
-0.37957415 0.02282517 -0.92434907 55 46 44
-0.3787989 0.024738122 -0.92341959 41 35 32
-0.37880144 0.025167108 -0.92439997 53 46 41
-0.37879479 0.023297727 -0.92256546 54 46 43
-0.37880039 0.024982041 -0.92400652 48 42 38
-0.37879327 0.022245798 -0.92276371 83 70 66
-0.37696162 0.033532746 -0.92017686 0 0 0
-0.37755123 0.033760127 -0.92165583 0 0 0
-0.37677169 0.033390842 -0.91964716 3 2 2
-0.37624663 0.03515809 -0.92192227 29 25 24
-0.37853584 0.032633372 -0.92209792 0 0 0
-0.37814111 0.032655332 -0.92137599 0 0 0
-0.37943262 0.030327113 -0.92177963 0 0 0
-0.37789524 0.032854084 -0.92108697 0 0 0
-0.37880164 0.031228403 -0.92137748 0 0 0
-0.37742457 0.032426391 -0.91999251 0 0 0
-0.37696719 0.031869762 -0.91952652 0 0 0
-0.37737876 0.031062946 -0.91984034 0 0 0
-0.37759089 0.03200059 -0.9201113 0 0 0
-0.37711877 0.030858958 -0.91958457 0 0 0
-0.37725121 0.030690677 -0.91969293 0 0 0
-0.37691158 0.030298201 -0.91934949 0 0 0
-0.3766413 0.031598359 -0.91921157 0 0 0
-0.37640235 0.031182006 -0.91896224 0 0 0
-0.37636888 0.032797016 -0.91897529 20 18 16
-0.37733558 0.027762908 -0.91855639 0 0 0
-0.3781758 0.026667962 -0.91881281 0 0 0
-0.37958416 0.028802773 -0.92142415 0 0 0
-0.37873659 0.02754624 -0.91987002 0 0 0
-0.37932068 0.028341413 -0.92089742 0 0 0
-0.37749177 0.029295629 -0.91980118 0 0 0
-0.37912998 0.027603291 -0.92026728 0 0 0
-0.37900162 0.028923616 -0.92096215 0 0 0
-0.37872186 0.025784446 -0.91906053 0 0 0
-0.37891111 0.026229169 -0.91955882 0 0 0
-0.37885606 0.025664732 -0.9216978 0 0 0
-0.37873402 0.025423607 -0.92113709 0 0 0
-0.37930846 0.027236525 -0.92021751 0 0 0
-0.37864625 0.025491532 -0.91946661 0 0 0
-0.37685665 0.028417012 -0.9184435 0 0 0
-0.36484718 0.033525907 -0.90459377 81 68 64
-0.36492717 0.034064587 -0.9051531 79 67 63
-0.36430976 0.033609588 -0.90397042 73 59 56
-0.36439103 0.035849918 -0.90567178 47 39 37
-0.36427554 0.036039338 -0.90561932 42 34 32
-0.36459213 0.03651068 -0.90641803 43 36 34
-0.36389905 0.034920443 -0.90320212 55 44 42
-0.36413768 0.035674993 -0.90487385 45 36 35
-0.36400929 0.035138275 -0.90420932 51 40 38
-0.3640863 0.035849355 -0.90390915 48 39 37
-0.36413613 0.035807498 -0.90461618 46 37 35
-0.36438799 0.031732902 -0.90277368 36 28 27
-0.36449876 0.031775825 -0.90294462 39 30 29
-0.36416143 0.03219923 -0.90278357 46 35 34
-0.36865488 0.025607027 -0.90431595 29 25 25
-0.36845887 0.027266657 -0.90466803 97 85 80
-0.36852014 0.025419595 -0.9041431 29 25 25
-0.36878404 0.028029777 -0.9051823 110 95 88
-0.36704624 0.026553791 -0.90319878 93 81 78
-0.3679285 0.028715188 -0.90458655 97 84 78
-0.36813641 0.027636096 -0.90450603 122 106 100
-0.3674078 0.02788296 -0.90388125 88 76 72
-0.36618128 0.029013079 -0.90301275 19 17 16
-0.36705709 0.029019125 -0.9038415 56 48 45
-0.36897314 0.023714922 -0.90324998 7 6 6
-0.36845723 0.025334381 -0.90403795 31 27 26
-0.36880162 0.024172841 -0.90345097 15 13 13
-0.36507046 0.039196558 -0.90723658 31 27 26
-0.36476764 0.037714254 -0.90691864 31 26 25
-0.36462128 0.039884079 -0.90677565 30 26 24
-0.36503366 0.039991792 -0.90722686 32 28 27
-0.36497906 0.035953723 -0.90664345 60 52 49
-0.36924937 0.030120326 -0.90699661 131 114 104
-0.37106961 0.031167643 -0.90923417 4 4 3
-0.37222472 0.030114228 -0.90972692 0 0 0
-0.36991224 0.030871572 -0.90802467 68 60 55
-0.36928329 0.032665916 -0.90840292 17 15 13
-0.36953244 0.02992239 -0.90717643 127 111 101
-0.3701376 0.031534769 -0.9085809 29 25 23
-0.3699722 0.031172166 -0.90823841 52 46 42
-0.37207893 0.030383 -0.90992224 0 0 0
-0.3700805 0.032846469 -0.91014111 0 0 0
-0.37121111 0.031144185 -0.90936828 0 0 0
-0.37117428 0.031485975 -0.90999562 0 0 0
-0.37062448 0.032447215 -0.91053879 0 0 0
-0.36721516 0.032426417 -0.90666837 116 101 94
-0.36860475 0.032195363 -0.90757346 67 58 53
-0.36809015 0.032665651 -0.90746111 68 59 55
-0.36786216 0.032322895 -0.90709215 93 81 75
-0.37239251 0.028132193 -0.90842748 28 25 23
-0.37097791 0.028516857 -0.90747738 91 79 73
-0.37286955 0.025642943 -0.90668339 7 6 6
-0.3725273 0.026354829 -0.906995 22 20 18
-0.37258133 0.02891456 -0.90928382 20 17 16
-0.37263748 0.029063672 -0.90946537 18 15 14
-0.37011737 0.029190361 -0.9072839 129 112 103
-0.37258723 0.025996715 -0.9067362 20 17 16
-0.37353259 0.033588696 -0.91467929 1 1 1
-0.37353215 0.033627115 -0.91474092 2 2 1
-0.37538967 0.030184237 -0.91657418 11 10 9
-0.37554049 0.029742057 -0.91708422 5 5 4
-0.37535176 0.029989494 -0.91641426 9 7 7
-0.37524053 0.030000281 -0.91600567 9 8 7
-0.37507406 0.031505201 -0.91607428 21 18 17
-0.37424454 0.032079507 -0.91476524 4 3 3
-0.37422571 0.032197118 -0.91479063 4 3 3
-0.37729976 0.02742482 -0.91825926 0 0 0
-0.37698939 0.028026558 -0.91828549 0 0 0
-0.37785891 0.025914192 -0.91797352 0 0 0
-0.37591681 0.026506623 -0.91639435 0 0 0
-0.3754437 0.025767483 -0.91552228 0 0 0
-0.3766945 0.026167046 -0.91695845 0 0 0
-0.37683034 0.026414383 -0.91722846 0 0 0
-0.37499276 0.026545351 -0.91563636 0 0 0
-0.3751725 0.02634226 -0.91562158 0 0 0
-0.37605485 0.02776619 -0.9173426 0 0 0
-0.37546936 0.029065665 -0.91683722 0 0 0
-0.37567592 0.028926179 -0.91763532 0 0 0
-0.37502515 0.028116947 -0.91545182 0 0 0
-0.37503263 0.028188916 -0.91546029 0 0 0
-0.37513167 0.028563017 -0.91572607 0 0 0
-0.37665305 0.034544382 -0.92800587 45 40 35
-0.37669879 0.034384165 -0.92817712 42 37 33
-0.37632954 0.03497098 -0.92818636 32 29 26
-0.37635967 0.034722399 -0.92859763 27 24 21
0 0 0 1 0 0 0 1 0 0 0 1 0 0 0 0 0 177 1 0 0
