ply
format ascii 1.0
comment PCL generated
element vertex 217
property float x
property float y
property float z
property uchar red
property uchar green
property uchar blue
element camera 1
property float view_px
property float view_py
property float view_pz
property float x_axisx
property float x_axisy
property float x_axisz
property float y_axisx
property float y_axisy
property float y_axisz
property float z_axisx
property float z_axisy
property float z_axisz
property float focal
property float scalex
property float scaley
property float centerx
property float centery
property int viewportx
property int viewporty
property float k1
property float k2
end_header
-0.10938912 -0.41589224 -0.69012219 136 77 146
-0.10756732 -0.41423398 -0.6893121 138 92 154
-0.10800408 -0.41421831 -0.68951201 138 92 151
-0.10792948 -0.4155319 -0.68945974 137 80 154
-0.10724647 -0.41517159 -0.68915719 140 88 158
-0.10643863 -0.41538581 -0.68880671 151 107 166
-0.10556021 -0.41518664 -0.68843168 164 133 175
-0.107278 -0.41436344 -0.68918192 140 95 156
-0.10478108 -0.41484356 -0.68808907 176 153 181
-0.10553193 -0.41417864 -0.68842697 166 141 173
-0.10562071 -0.41414919 -0.6884672 164 139 172
-0.10529098 -0.41367704 -0.68831396 169 147 173
-0.11177199 -0.41854563 -0.69130999 137 87 132
-0.11190064 -0.41953582 -0.69140434 137 90 130
-0.10757776 -0.41883314 -0.68927848 137 84 142
-0.10773927 -0.41746864 -0.68936664 136 79 149
-0.10854367 -0.41963962 -0.68974596 134 82 134
-0.10972634 -0.4198072 -0.69032371 130 77 127
-0.10750315 -0.41775465 -0.6892491 137 81 148
-0.10880246 -0.41758355 -0.68988633 132 74 143
-0.11038367 -0.41884723 -0.69064766 127 72 129
-0.10849167 -0.41605255 -0.68971103 136 75 151
-0.10889217 -0.41710991 -0.6899212 133 74 145
-0.10923191 -0.41647047 -0.6900602 135 75 145
-0.11072265 -0.41635939 -0.69073898 135 75 138
-0.10925338 -0.4163914 -0.69006801 135 75 146
-0.1065091 -0.41932404 -0.68880206 146 104 149
-0.10708404 -0.41861397 -0.68905675 141 91 147
-0.10592286 -0.41935399 -0.68854696 152 116 154
-0.10738549 -0.4165495 -0.68920159 137 78 155
-0.1046214 -0.41717672 -0.68800443 173 147 179
-0.10620914 -0.41685745 -0.68869072 151 106 165
-0.10506608 -0.41782755 -0.68818909 164 134 171
-0.10465072 -0.41822663 -0.68800634 169 144 173
-0.10472424 -0.41888416 -0.6880312 165 141 168
-0.11189937 -0.42001563 -0.69141012 135 90 128
-0.11218835 -0.42138687 -0.69151467 141 101 138
-0.11143406 -0.42353123 -0.69102573 137 94 148
-0.11214848 -0.42275015 -0.69144189 143 105 146
-0.11151256 -0.42080569 -0.69117284 129 80 127
-0.10925832 -0.42213875 -0.69002783 143 100 147
-0.10743735 -0.42329973 -0.68924153 184 168 171
-0.10749777 -0.42179289 -0.68925035 163 131 156
-0.10980538 -0.42379382 -0.69028765 157 127 160
-0.10810544 -0.4216983 -0.68951613 153 115 151
-0.10768852 -0.42019805 -0.68931532 138 89 138
-0.11102395 -0.42018607 -0.69094801 126 73 123
-0.11083974 -0.42048538 -0.69084638 127 76 126
-0.11056051 -0.42221865 -0.69064307 134 88 141
-0.10945877 -0.42040107 -0.69017357 132 82 132
-0.11107638 -0.42220086 -0.69089633 132 85 138
-0.11115433 -0.42195556 -0.6909439 131 83 136
-0.10666811 -0.42232755 -0.68889672 169 141 159
-0.10701472 -0.4209176 -0.68903029 151 109 146
-0.1073014 -0.42180246 -0.68916488 164 132 156
-0.10658859 -0.42134452 -0.6888507 156 117 149
-0.10569888 -0.42312357 -0.68848616 178 153 164
-0.10530705 -0.42033955 -0.68828082 159 131 157
-0.10456482 -0.42049587 -0.68796015 167 146 164
-0.10495603 -0.42212775 -0.68815148 171 143 160
-0.10458744 -0.42126539 -0.68798 170 148 164
-0.1124047 -0.42584559 -0.69142842 165 131 169
-0.11235884 -0.42574006 -0.69140947 164 129 168
-0.11247459 -0.4252058 -0.69150126 161 128 165
-0.11162235 -0.42682892 -0.69088131 179 151 189
-0.11164521 -0.42501241 -0.69104755 153 116 163
-0.11210696 -0.42663944 -0.6911875 176 146 182
-0.10804532 -0.42685831 -0.68928009 220 210 223
-0.10748691 -0.42667428 -0.6890533 224 217 226
-0.11048347 -0.42690784 -0.69032747 192 173 199
-0.10916565 -0.42604879 -0.68982446 197 182 197
-0.10989701 -0.42678905 -0.69008362 197 181 203
-0.10791394 -0.426718 -0.68923408 220 211 222
-0.11122385 -0.42548102 -0.69077241 161 128 173
-0.11088026 -0.42600456 -0.69057757 173 146 183
-0.10859262 -0.42454875 -0.68969476 185 169 179
-0.11042776 -0.42551374 -0.69041997 173 147 179
-0.11056081 -0.42421347 -0.69058758 153 118 160
-0.10940474 -0.42528382 -0.68998981 184 165 183
-0.10707822 -0.42630249 -0.68890607 215 205 213
-0.10666335 -0.42647856 -0.68871486 210 199 208
-0.10634739 -0.42593852 -0.68862027 198 185 192
-0.10551821 -0.42692819 -0.68818974 196 180 193
-0.10548868 -0.42526197 -0.68829876 191 173 180
-0.10495995 -0.42588359 -0.68802428 192 172 183
-0.10627252 -0.42403188 -0.68872809 189 174 174
-0.1044891 -0.42476583 -0.68790191 187 166 174
-0.10498317 -0.42754158 -0.68791336 196 178 194
-0.11341445 -0.43106118 -0.69174308 207 178 205
-0.11305334 -0.43059596 -0.69154572 205 177 206
-0.11236717 -0.42897221 -0.69120097 197 172 202
-0.11200789 -0.42940047 -0.69098163 201 175 208
-0.11155724 -0.43015996 -0.69072497 213 179 217
-0.11279951 -0.4316349 -0.69138855 216 182 214
-0.10843122 -0.43158865 -0.68925846 216 171 206
-0.10793506 -0.43042251 -0.68907636 221 189 216
-0.10827833 -0.43149179 -0.68919224 215 172 206
-0.10882547 -0.42969236 -0.68951154 230 205 232
-0.10876182 -0.43073273 -0.68944246 223 187 219
-0.11004207 -0.43123946 -0.69000846 225 185 223
-0.11048984 -0.42954266 -0.69024545 218 190 224
-0.11057615 -0.43040913 -0.69027203 226 192 228
-0.11108069 -0.42968479 -0.69049841 213 181 219
-0.11034995 -0.42956948 -0.69018477 220 192 226
-0.10909522 -0.4287596 -0.68965381 228 209 234
-0.11046708 -0.42778 -0.69025725 202 184 214
-0.10580719 -0.43120629 -0.68812984 198 169 190
-0.107266 -0.43147799 -0.68873537 210 168 198
-0.10716989 -0.4299821 -0.68875223 219 193 216
-0.10715453 -0.43018875 -0.68873781 218 189 213
-0.10583428 -0.42981949 -0.68819159 204 184 202
-0.10579313 -0.43061867 -0.68814617 201 178 197
-0.10571172 -0.42995366 -0.68813443 202 181 199
-0.10703994 -0.4283995 -0.68875802 229 219 234
-0.11237882 -0.43222418 -0.69111145 223 190 223
-0.11156658 -0.43207997 -0.69067752 229 190 228
-0.10811254 -0.43406552 -0.68905395 217 195 213
-0.10853489 -0.43269834 -0.68922377 221 187 211
-0.10859489 -0.43247178 -0.68926835 220 184 211
-0.10899145 -0.43212125 -0.68947625 220 180 212
-0.10732102 -0.43421537 -0.6887446 211 188 206
-0.10564823 -0.43505356 -0.68801725 200 182 193
-0.10645743 -0.43406752 -0.68837059 205 180 197
-0.10577442 -0.43429899 -0.68807662 200 178 192
-0.10557315 -0.43474674 -0.68798786 199 180 192
-0.10536281 -0.43252024 -0.68791807 192 166 184
-0.10791009 -0.43916062 -0.68896139 159 134 158
-0.10814257 -0.43907553 -0.68904591 165 141 164
-0.10710929 -0.43852463 -0.68865293 158 135 158
-0.1070281 -0.43780369 -0.68861896 170 151 170
-0.10584427 -0.4374119 -0.68811423 171 152 168
-0.10619516 -0.43592274 -0.68825579 198 184 195
-0.10604355 -0.43620098 -0.68819201 192 177 189
-0.10797842 -0.43970993 -0.68897879 155 129 153
-0.11279993 -0.42123616 -0.6918475 154 121 146
-0.10410833 -0.41585866 -0.68779045 185 164 190
-0.10203984 -0.41519207 -0.68698126 189 174 187
-0.10313425 -0.41598132 -0.6873877 192 178 195
-0.10085107 -0.41554204 -0.68655223 177 161 180
-0.10142656 -0.41572553 -0.68676353 180 164 184
-0.10345695 -0.41582078 -0.68750364 194 182 197
-0.098455295 -0.41566285 -0.68562031 166 150 167
-0.10408656 -0.41843468 -0.68775642 176 160 178
-0.10384844 -0.4190028 -0.68764848 176 161 178
-0.10035053 -0.41717273 -0.68635696 165 149 172
-0.10261155 -0.4198069 -0.68715155 170 158 175
-0.10293122 -0.41960326 -0.68728083 173 160 176
-0.10193932 -0.41959929 -0.68689835 167 155 173
-0.1017015 -0.41871199 -0.68683279 168 154 174
-0.10307509 -0.41767338 -0.68735379 183 169 186
-0.10157952 -0.41760263 -0.68681002 171 156 177
-0.10304411 -0.41767746 -0.68734246 183 169 186
-0.10179604 -0.4169026 -0.68689418 177 161 182
-0.1004822 -0.41663697 -0.68641806 167 151 175
-0.10239412 -0.41714045 -0.68711007 180 166 185
-0.099214204 -0.41641334 -0.68592393 164 149 171
-0.10433285 -0.42024016 -0.68785596 168 149 167
-0.10379282 -0.42104992 -0.68763196 178 161 174
-0.10363013 -0.42147398 -0.68756682 179 162 173
-0.10408223 -0.42295998 -0.68778253 183 162 169
-0.1027391 -0.42329556 -0.68723303 177 154 163
-0.10183614 -0.42278165 -0.68686479 167 145 157
-0.10285496 -0.42375705 -0.68727201 176 150 158
-0.10341834 -0.42353001 -0.68750644 184 160 167
-0.10226689 -0.42045763 -0.68702221 170 156 172
-0.10320186 -0.42037553 -0.68738174 175 161 175
-0.10215168 -0.42117926 -0.68698716 171 155 169
-0.10216387 -0.41996053 -0.68697596 168 156 173
-0.10469257 -0.42632607 -0.68787611 192 172 185
-0.10358473 -0.42693287 -0.68735051 180 155 171
-0.10370152 -0.42572933 -0.68748933 184 160 172
-0.10214651 -0.42755127 -0.68677431 152 126 146
-0.10143566 -0.42761248 -0.68651944 137 111 133
-0.10206766 -0.42620113 -0.68676627 158 132 149
-0.10190644 -0.42492712 -0.6867919 159 131 145
-0.10125074 -0.42446455 -0.6865505 149 122 135
-0.10324422 -0.42671096 -0.68722284 175 150 166
-0.10117929 -0.42425442 -0.68653595 149 121 134
-0.10326114 -0.42596853 -0.68728429 177 152 165
-0.10514926 -0.43083265 -0.68786228 190 163 182
-0.10478611 -0.42989877 -0.68773741 188 162 181
-0.1038163 -0.43076974 -0.68728834 176 153 170
-0.10378373 -0.42857692 -0.6873489 179 154 172
-0.10357912 -0.43032408 -0.68720108 174 152 168
-0.10253481 -0.4315193 -0.68679112 161 141 152
-0.10201346 -0.43050158 -0.68663424 147 125 141
-0.10036518 -0.43134445 -0.68604165 140 121 120
-0.10244558 -0.43065444 -0.68678069 153 130 148
-0.10176206 -0.42989811 -0.68656129 140 116 136
-0.10170247 -0.42849416 -0.68658763 141 115 136
-0.10136983 -0.42934665 -0.68643975 133 108 129
-0.10254447 -0.42838293 -0.68689257 157 133 152
-0.10196812 -0.42967033 -0.68664259 144 120 140
-0.10245769 -0.43052745 -0.68678856 152 130 148
-0.10284802 -0.42920411 -0.68697309 162 138 157
-0.10517393 -0.43171138 -0.68784416 189 160 180
-0.10448455 -0.43312323 -0.68753421 184 165 178
-0.10392896 -0.43205193 -0.68730372 177 155 171
-0.10429294 -0.43340468 -0.68744999 183 165 178
-0.10364275 -0.435247 -0.68717796 186 165 173
-0.102208 -0.43553618 -0.68667406 169 149 164
-0.10031369 -0.43283582 -0.6860168 145 126 126
-0.099745698 -0.43297115 -0.68582118 137 119 123
-0.10302406 -0.43524456 -0.68695498 180 159 166
-0.10050802 -0.43406627 -0.6860857 147 128 139
-0.10091222 -0.43247363 -0.6862238 151 131 130
-0.1014764 -0.43169099 -0.68642056 153 133 137
-0.10350983 -0.43387088 -0.68712461 180 158 170
-0.1035124 -0.43460199 -0.68712473 183 161 171
-0.10104711 -0.4324277 -0.68627071 152 132 132
-0.10131697 -0.43296716 -0.68636388 156 137 136
-0.10506479 -0.43581751 -0.68777025 192 176 185
-0.10454138 -0.43574163 -0.68755227 190 172 181
-0.10354829 -0.43664312 -0.68714994 169 145 158
-0.10246517 -0.43603978 -0.686768 165 143 159
-0.10240581 -0.43685088 -0.68675625 151 128 148
-0.10323356 -0.43769953 -0.68705076 148 123 143
0 0 0 1 0 0 0 1 0 0 0 1 0 0 0 0 0 217 1 0 0
