ply
format ascii 1.0
comment PCL generated
element vertex 156
property float x
property float y
property float z
property uchar red
property uchar green
property uchar blue
element camera 1
property float view_px
property float view_py
property float view_pz
property float x_axisx
property float x_axisy
property float x_axisz
property float y_axisx
property float y_axisy
property float y_axisz
property float z_axisx
property float z_axisy
property float z_axisz
property float focal
property float scalex
property float scaley
property float centerx
property float centery
property int viewportx
property int viewporty
property float k1
property float k2
end_header
-0.16828227 -0.54684979 -0.73889285 151 125 153
-0.16032538 -0.52887535 -0.73602754 156 137 165
-0.15928707 -0.52927613 -0.73520178 159 139 174
-0.16034308 -0.53007293 -0.73588175 158 139 168
-0.16009228 -0.5315758 -0.73553872 159 139 169
-0.15971956 -0.53154242 -0.73527169 160 139 171
-0.16043864 -0.52981293 -0.73597896 158 139 167
-0.15938768 -0.53121668 -0.73506558 160 139 173
-0.1600046 -0.531021 -0.73553443 159 139 170
-0.16278912 -0.53639418 -0.73670179 156 133 160
-0.16111417 -0.53657579 -0.73561943 159 137 168
-0.16186956 -0.53603142 -0.73617452 157 136 165
-0.16005389 -0.53604221 -0.73497117 157 135 170
-0.15976846 -0.53442144 -0.73495919 158 136 171
-0.16335718 -0.53981769 -0.73665798 158 133 160
-0.16305198 -0.54085898 -0.73639798 160 142 163
-0.16387284 -0.53995854 -0.73692256 154 125 155
-0.16275562 -0.53941637 -0.73637104 162 142 165
-0.16284533 -0.54057318 -0.73631305 161 145 165
-0.16325164 -0.53918165 -0.73665965 158 132 161
-0.16359209 -0.53767484 -0.73702806 156 129 157
-0.16138595 -0.54037833 -0.73551375 167 156 171
-0.16165473 -0.53901327 -0.73579562 166 151 171
-0.16099913 -0.54095185 -0.73523587 167 158 171
-0.16068654 -0.53975123 -0.73515278 166 153 171
-0.16065881 -0.53792101 -0.73522538 163 143 172
-0.16108373 -0.53837693 -0.73548669 165 147 171
-0.1599914 -0.53778696 -0.73478597 160 140 172
-0.1637257 -0.54121155 -0.73673034 155 131 157
-0.16366746 -0.54205489 -0.73663026 152 130 157
-0.16155013 -0.54287887 -0.73549145 167 157 176
-0.16093275 -0.54469353 -0.73507392 167 156 181
-0.16208327 -0.54214609 -0.73582703 164 154 173
-0.16085304 -0.54378033 -0.73505473 169 160 180
-0.16032743 -0.54264355 -0.73478591 169 159 177
-0.16114619 -0.5425483 -0.73526561 168 159 176
-0.16745734 -0.54694235 -0.73837447 150 122 155
-0.166935 -0.54843789 -0.73803222 166 142 166
-0.16650689 -0.54778451 -0.73783255 158 129 160
-0.16607888 -0.54727632 -0.73762906 152 119 155
-0.16227823 -0.54604 -0.73575133 165 146 178
-0.16401522 -0.5477038 -0.73655635 169 146 174
-0.16431682 -0.54762173 -0.73672956 168 144 172
-0.16385275 -0.54782265 -0.73645627 171 148 176
-0.16267897 -0.54839593 -0.73575926 178 156 185
-0.16376822 -0.54761422 -0.73642862 170 147 175
-0.16455767 -0.54677552 -0.73690081 159 133 165
-0.16466087 -0.54733026 -0.73693597 164 140 169
-0.16456591 -0.54646093 -0.73691332 155 128 163
-0.16430768 -0.54696858 -0.73677385 163 140 169
-0.1653229 -0.54787672 -0.73724347 165 138 167
-0.1618586 -0.54718965 -0.7354272 174 155 184
-0.16176863 -0.54655558 -0.73543853 170 152 182
-0.1606545 -0.54629093 -0.73481494 177 163 187
-0.16178174 -0.54588705 -0.73550415 166 149 180
-0.1611782 -0.54622787 -0.73512709 172 157 184
-0.16610584 -0.5490815 -0.7375927 173 147 171
-0.165594 -0.54896754 -0.73731959 173 147 172
-0.16579336 -0.54924506 -0.73742235 175 151 174
-0.16174506 -0.54976076 -0.73526174 189 169 197
-0.16158842 -0.54883516 -0.73514229 185 165 192
-0.15232748 -0.53671455 -0.73060328 197 174 205
-0.1564943 -0.52471966 -0.73390466 163 141 173
-0.15699498 -0.52624518 -0.7340501 163 139 176
-0.15590872 -0.52569193 -0.73333448 172 146 188
-0.15655941 -0.52629071 -0.73371595 167 143 183
-0.15719251 -0.52721357 -0.73402447 163 140 180
-0.15658338 -0.52686232 -0.73363078 168 144 186
-0.15647314 -0.52655017 -0.73360503 168 144 186
-0.15789625 -0.527834 -0.73444003 158 136 174
-0.15668833 -0.52808338 -0.73350865 171 149 190
-0.15563692 -0.52859616 -0.7327407 185 165 204
-0.15895884 -0.53134018 -0.73474044 161 139 175
-0.15843256 -0.53058922 -0.73444647 161 140 177
-0.15831277 -0.53110808 -0.73433155 164 141 178
-0.15647383 -0.53309685 -0.73293823 185 165 193
-0.15658 -0.53300148 -0.7330175 184 164 193
-0.15662307 -0.53252608 -0.73308325 183 163 194
-0.15616582 -0.53303868 -0.73273414 187 168 196
-0.15709405 -0.53012317 -0.73358792 174 154 190
-0.15587352 -0.52999091 -0.73277134 187 168 203
-0.15754813 -0.53038663 -0.73387516 170 149 185
-0.15646385 -0.53066856 -0.73311883 183 162 197
-0.15593275 -0.53015155 -0.73279899 187 168 203
-0.15790969 -0.52934068 -0.73420095 163 142 181
-0.15689664 -0.53100729 -0.7333858 179 158 193
-0.15927733 -0.53387576 -0.73470271 162 140 174
-0.1591889 -0.53340167 -0.73469621 162 140 174
-0.1594318 -0.53639185 -0.73454112 161 138 174
-0.15836562 -0.53367275 -0.7341544 169 145 179
-0.1586715 -0.53529882 -0.73417979 165 141 176
-0.15453757 -0.53560197 -0.73171449 184 160 198
-0.15763578 -0.5369125 -0.73339987 164 139 176
-0.15617184 -0.53574634 -0.73257315 177 155 189
-0.15607253 -0.53620499 -0.73254687 174 150 188
-0.15476763 -0.53466362 -0.73178214 190 171 201
-0.15478531 -0.53553236 -0.73183954 184 161 197
-0.1580862 -0.53425241 -0.73391575 169 145 179
-0.15698047 -0.53489727 -0.73310179 176 155 186
-0.15596572 -0.53454179 -0.7324506 185 167 195
-0.15780011 -0.53337204 -0.73381108 173 150 182
-0.15534972 -0.53351706 -0.73213708 193 176 202
-0.15739217 -0.53398699 -0.73347265 175 153 185
-0.15814587 -0.53347844 -0.73403448 170 146 179
-0.15363657 -0.53615141 -0.73126799 189 164 201
-0.15406652 -0.53677994 -0.73153192 179 151 195
-0.15949801 -0.53734255 -0.73449892 160 138 172
-0.15991384 -0.54009628 -0.73462969 166 152 172
-0.16007566 -0.54022181 -0.73472428 166 153 172
-0.15882765 -0.54038072 -0.73397213 170 158 174
-0.15969418 -0.54096162 -0.73446697 169 159 172
-0.15869555 -0.53976035 -0.73391354 168 153 174
-0.15540221 -0.54096425 -0.73217309 179 146 184
-0.15456431 -0.54080999 -0.73175353 181 141 187
-0.155002 -0.54061878 -0.73197663 179 144 186
-0.15536156 -0.5405407 -0.73215878 179 146 185
-0.15542397 -0.54060489 -0.7321893 179 147 185
-0.15605921 -0.53938651 -0.73252678 175 152 184
-0.15665916 -0.53917289 -0.73283696 173 154 182
-0.1552971 -0.53750437 -0.73218101 172 144 188
-0.15575276 -0.53742403 -0.73242074 170 143 185
-0.1580901 -0.5387978 -0.73359364 167 148 174
-0.15750915 -0.53795618 -0.73331797 166 143 177
-0.15792263 -0.53921002 -0.73349339 169 152 176
-0.15342283 -0.54006761 -0.73125237 192 162 198
-0.15380272 -0.54068619 -0.73140734 188 151 193
-0.15418151 -0.5396238 -0.73158646 180 143 190
-0.1536952 -0.53715473 -0.73135382 181 153 196
-0.15279357 -0.53767151 -0.73088932 194 168 202
-0.16034184 -0.54388845 -0.73475343 170 160 180
-0.15925507 -0.54257375 -0.73415345 172 162 178
-0.1587384 -0.5413565 -0.73388785 173 163 176
-0.15907741 -0.54126441 -0.73409164 172 162 175
-0.15946093 -0.54358417 -0.73424828 173 163 182
-0.15873368 -0.54381943 -0.7338376 179 168 187
-0.1595754 -0.54479396 -0.73429441 176 165 188
-0.15578766 -0.54360622 -0.73235041 194 173 202
-0.15781425 -0.54464155 -0.73333478 186 172 197
-0.15454859 -0.54215682 -0.73174393 190 158 197
-0.15478209 -0.54242247 -0.73185819 191 161 198
-0.15599735 -0.54398638 -0.73245376 196 178 204
-0.15538029 -0.54209948 -0.73214519 183 148 190
-0.15741789 -0.54396772 -0.73314303 184 166 194
-0.15747954 -0.54284316 -0.73319077 181 164 188
-0.15797132 -0.54244614 -0.73344415 179 166 184
-0.15648697 -0.54278618 -0.73269206 183 157 190
-0.15575136 -0.5414052 -0.73234224 180 149 185
-0.15786272 -0.54180628 -0.73339897 177 164 181
-0.1536859 -0.54320151 -0.73138374 204 184 210
-0.154194 -0.54131407 -0.7315765 185 145 191
-0.15426858 -0.5419116 -0.7316097 190 156 197
-0.15949632 -0.54633433 -0.73416138 185 170 194
-0.15993352 -0.54694468 -0.73436862 185 170 193
-0.1597756 -0.54500973 -0.7343992 175 165 188
-0.15942751 -0.54521966 -0.73419142 179 167 190
-0.15887924 -0.54593194 -0.73384142 187 173 196
0 0 0 1 0 0 0 1 0 0 0 1 0 0 0 0 0 156 1 0 0
