ply
format ascii 1.0
comment PCL generated
element vertex 148
property float x
property float y
property float z
property uchar red
property uchar green
property uchar blue
element camera 1
property float view_px
property float view_py
property float view_pz
property float x_axisx
property float x_axisy
property float x_axisz
property float y_axisx
property float y_axisy
property float y_axisz
property float z_axisx
property float z_axisy
property float z_axisz
property float focal
property float scalex
property float scaley
property float centerx
property float centery
property int viewportx
property int viewporty
property float k1
property float k2
end_header
-0.21121757 0.034793984 -0.77352875 116 102 115
-0.21050458 0.035828132 -0.77271008 101 86 101
-0.21123514 0.035667893 -0.77350044 96 83 96
-0.20972039 0.035132669 -0.77193421 122 105 120
-0.21047457 0.033443347 -0.77284777 148 132 146
-0.20963937 0.035247423 -0.77184182 120 104 119
-0.21036056 0.033891398 -0.7726931 141 125 139
-0.21054441 0.034124993 -0.77286005 136 120 134
-0.20795901 0.033923611 -0.77029109 134 114 128
-0.20881055 0.035250142 -0.77100551 121 103 118
-0.20840926 0.033976924 -0.77072477 138 119 134
-0.20859921 0.036248583 -0.77071428 102 84 100
-0.20777752 0.034034822 -0.77010536 131 110 124
-0.20837131 0.036432751 -0.77047968 100 82 98
-0.20988175 0.032776769 -0.7722832 153 137 150
-0.21058808 0.032810993 -0.77300084 150 134 148
-0.20988807 0.03177036 -0.77233267 149 132 146
-0.21056433 0.031620998 -0.77302754 145 129 143
-0.2097106 0.032589901 -0.77211696 153 136 150
-0.21020713 0.030432289 -0.77272511 147 131 145
-0.20984252 0.030123435 -0.77238166 155 139 152
-0.2097473 0.029720465 -0.77231085 158 142 156
-0.21090862 0.029845778 -0.77345461 137 120 135
-0.20895423 0.032241937 -0.7713784 162 146 159
-0.20845534 0.031698439 -0.77092952 168 152 163
-0.20879251 0.03145846 -0.77126837 166 150 163
-0.20772359 0.031167485 -0.77025193 168 152 162
-0.20817517 0.031788819 -0.77065247 166 150 161
-0.20810096 0.03120945 -0.77061659 172 157 167
-0.21061914 0.027657207 -0.77289599 147 134 143
-0.20965444 0.028795483 -0.77215064 162 147 159
-0.21107905 0.026780849 -0.77318949 141 129 135
-0.21000914 0.028804455 -0.77250385 156 141 153
-0.21069801 0.028441058 -0.77311939 144 130 141
-0.20961635 0.028358243 -0.772026 162 148 158
-0.20903039 0.028842824 -0.77152073 168 153 164
-0.21093632 0.025481356 -0.77274227 128 119 119
-0.20951404 0.028571585 -0.77196825 165 150 161
-0.21045296 0.02593565 -0.77233839 134 124 125
-0.2109241 0.026288379 -0.77292013 138 127 131
-0.20860083 0.025891298 -0.77039516 137 127 126
-0.20832705 0.027314685 -0.77046794 156 144 148
-0.20795117 0.0290921 -0.77053457 178 165 173
-0.20871748 0.02848707 -0.77112693 166 152 161
-0.20942204 0.023912825 -0.7699222 150 141 141
-0.20948881 0.024659939 -0.77063024 142 132 130
-0.20968829 0.024129538 -0.77043003 154 145 144
-0.21214539 0.023737581 -0.7727499 158 147 151
-0.2120924 0.022888087 -0.77205175 173 161 167
-0.21172202 0.024696495 -0.773027 140 130 133
-0.21074821 0.023807449 -0.77132493 156 145 147
-0.21175686 0.023399724 -0.77208358 164 152 157
-0.21220534 0.022888441 -0.77217144 173 161 167
-0.21112011 0.023535829 -0.77151299 161 150 153
-0.21263281 0.023481337 -0.77304912 158 145 152
-0.20740126 0.035179369 -0.76964802 117 99 111
-0.20684369 0.034892041 -0.76913327 122 104 114
-0.20664757 0.035441369 -0.76889849 116 99 108
-0.20623831 0.033794008 -0.76864582 132 113 124
-0.20663992 0.03326562 -0.76907676 138 118 130
-0.20682953 0.033394769 -0.76924729 138 117 129
-0.20640765 0.034692321 -0.76872993 125 107 116
-0.20461853 0.03486884 -0.76704013 125 110 116
-0.20423189 0.033459119 -0.76682639 143 127 134
-0.20443167 0.034396898 -0.76691866 132 117 123
-0.20494272 0.035350166 -0.76728034 116 102 107
-0.20371658 0.035581689 -0.76621413 122 108 113
-0.20393886 0.036060102 -0.76636589 115 101 105
-0.20617524 0.032369416 -0.76868832 147 129 139
-0.20684399 0.033166785 -0.76928008 140 119 132
-0.20740891 0.032702226 -0.76985031 147 126 139
-0.20578603 0.03198269 -0.76833916 150 133 142
-0.20550154 0.029963557 -0.76821959 179 163 170
-0.20553872 0.031812314 -0.7681191 153 136 145
-0.20558669 0.030187672 -0.76828307 176 160 167
-0.20517825 0.032214839 -0.7677514 148 130 139
-0.20438512 0.030203279 -0.76718587 183 168 174
-0.20484693 0.031376787 -0.76751232 162 145 153
-0.20486528 0.030913599 -0.76756263 169 152 159
-0.20354176 0.032601219 -0.76628488 161 147 153
-0.20711042 0.027236089 -0.76929379 160 149 150
-0.20724584 0.027358487 -0.76944959 161 150 152
-0.20622344 0.028289324 -0.768709 175 161 165
-0.20605724 0.028716242 -0.76865333 180 166 171
-0.20552802 0.027422933 -0.767865 184 169 177
-0.20537795 0.026448283 -0.76750582 188 173 185
-0.20673229 0.026481612 -0.76876879 162 150 154
-0.20617668 0.027212368 -0.76841873 172 158 164
-0.20570147 0.027719954 -0.76809281 180 165 172
-0.20632008 0.025707373 -0.76821184 171 158 167
-0.20474347 0.027063571 -0.76702905 195 179 191
-0.20608774 0.024781805 -0.76749641 191 177 190
-0.20723154 0.02446156 -0.76833135 176 165 172
-0.20721903 0.023922386 -0.76794046 189 177 186
-0.20745495 0.024658838 -0.76867729 167 156 162
-0.20865548 0.022982847 -0.76861101 184 175 179
-0.20869942 0.023249639 -0.76883203 176 167 170
-0.19835924 0.034354307 -0.76183015 141 126 135
-0.19834277 0.03432633 -0.76181912 141 127 135
-0.19860469 0.0349476 -0.76198113 132 118 125
-0.19818738 0.034248821 -0.76170021 143 128 136
-0.21346639 0.033323944 -0.77583373 131 116 126
-0.21314056 0.03354143 -0.77549863 130 114 126
-0.21208005 0.033490993 -0.77446175 139 123 136
-0.21149032 0.034336563 -0.7738443 123 109 122
-0.2132141 0.03305855 -0.77559841 136 119 131
-0.21357088 0.033009816 -0.7759608 132 117 127
-0.21318617 0.032384358 -0.77561659 133 116 130
-0.21174289 0.030223576 -0.77426475 134 117 132
-0.21284281 0.029912919 -0.77532619 128 112 125
-0.21221086 0.030600475 -0.77469915 133 117 131
-0.2123452 0.03246728 -0.77476043 140 123 137
-0.21163087 0.030316202 -0.77415377 135 118 133
-0.21295555 0.029241161 -0.77545553 125 109 121
-0.21206547 0.02689256 -0.77417499 128 116 123
-0.21187548 0.0274984 -0.77410161 129 116 125
-0.21157174 0.028753454 -0.77403551 131 116 129
-0.21341754 0.0237705 -0.77415615 140 126 133
-0.2144386 0.023341972 -0.77512717 153 141 146
-0.21415503 0.023549655 -0.77492422 147 134 140
-0.21515475 0.024207728 -0.77653664 126 113 111
-0.21495137 0.023806697 -0.77606237 141 129 131
-0.21464218 0.02377555 -0.7756955 144 133 137
-0.21403632 0.024368228 -0.77537692 128 117 121
-0.20217988 0.035668213 -0.76484114 119 104 112
-0.20220202 0.035410043 -0.76488101 123 108 116
-0.2031167 0.035041641 -0.76573128 130 115 121
-0.20348819 0.035980012 -0.76599228 117 101 107
-0.20199192 0.033935994 -0.76479608 143 129 136
-0.2021926 0.033452891 -0.7650131 150 137 143
-0.20141596 0.034458816 -0.7642346 134 120 127
-0.20310549 0.033418439 -0.76584643 154 140 146
-0.20003964 0.035157267 -0.76308852 126 111 120
-0.20036457 0.034743931 -0.76336884 131 116 125
-0.19968006 0.03371112 -0.76291376 147 133 142
-0.19904129 0.035653658 -0.762272 121 107 114
-0.19916405 0.035920281 -0.76234734 117 103 110
-0.19881895 0.033955999 -0.76222903 145 131 141
-0.2021675 0.031540651 -0.76511413 176 163 168
-0.20252739 0.031996787 -0.76541257 171 158 163
-0.20251939 0.032826383 -0.76535237 160 147 153
-0.20279647 0.031185826 -0.76570928 183 170 175
-0.20184267 0.03146749 -0.76481557 176 163 168
-0.20128761 0.030691631 -0.76431054 183 167 171
-0.20103115 0.030752303 -0.76408011 181 166 170
-0.20016523 0.031220403 -0.76334494 177 161 169
-0.20051508 0.031211337 -0.76363498 176 161 167
-0.20075066 0.033115439 -0.76377678 153 139 147
0 0 0 1 0 0 0 1 0 0 0 1 0 0 0 0 0 148 1 0 0
