ply
format ascii 1.0
comment PCL generated
element vertex 547
property float x
property float y
property float z
property uchar red
property uchar green
property uchar blue
element camera 1
property float view_px
property float view_py
property float view_pz
property float x_axisx
property float x_axisy
property float x_axisz
property float y_axisx
property float y_axisy
property float y_axisz
property float z_axisx
property float z_axisy
property float z_axisz
property float focal
property float scalex
property float scaley
property float centerx
property float centery
property int viewportx
property int viewporty
property float k1
property float k2
end_header
-0.20326334 0.36968639 -0.80890071 164 120 133
-0.20321396 0.3693715 -0.80882186 166 125 136
-0.19847563 0.36929265 -0.80613518 153 119 131
-0.19932739 0.36920297 -0.80656266 160 127 134
-0.19986005 0.36962047 -0.80686069 158 127 130
-0.19907293 0.36920041 -0.80643308 158 125 133
-0.19904558 0.36935753 -0.80642927 156 123 132
-0.19974634 0.3710708 -0.80694067 141 108 115
-0.20006756 0.37042156 -0.80703348 151 120 122
-0.20282413 0.3685441 -0.80846816 158 124 128
-0.20317125 0.36742881 -0.80855203 137 107 109
-0.20243032 0.36876771 -0.80824655 163 129 131
-0.20156334 0.36721769 -0.80752403 140 113 115
-0.20081711 0.36815506 -0.80720598 154 125 126
-0.20070198 0.36728486 -0.80704981 140 112 118
-0.20149909 0.3620559 -0.80679435 136 110 113
-0.20208423 0.36318022 -0.80735815 134 106 114
-0.20334706 0.36135447 -0.80792737 159 126 132
-0.20241538 0.36327764 -0.80759519 136 107 117
-0.20109464 0.36150941 -0.80644959 136 110 111
-0.20059028 0.36167791 -0.80620074 128 100 103
-0.20515378 0.3596324 -0.80891746 162 127 135
-0.20383111 0.36130735 -0.80824423 164 129 136
-0.20321833 0.36077896 -0.80774587 154 123 127
-0.20394033 0.36044878 -0.80817825 159 126 132
-0.20353465 0.36002403 -0.80784631 152 121 125
-0.20450582 0.35861775 -0.80828756 152 121 126
-0.20308781 0.35964912 -0.80749416 145 117 119
-0.20338139 0.35998461 -0.80773854 150 120 124
-0.20221107 0.35949221 -0.80673623 131 104 107
-0.20119904 0.35907742 -0.80573058 109 84 89
-0.20386668 0.35830548 -0.80775422 142 113 117
-0.20192116 0.36047187 -0.80681741 139 112 113
-0.20291275 0.3590025 -0.80717206 136 108 111
-0.20228896 0.3592436 -0.8067193 129 102 105
-0.20387313 0.35827488 -0.80774945 141 113 116
-0.2008536 0.36072117 -0.80609006 127 100 102
-0.20024943 0.36130822 -0.80595547 126 97 99
-0.19974169 0.36080328 -0.80551213 114 82 87
-0.20473354 0.35640261 -0.80824822 142 119 119
-0.20502461 0.35637367 -0.80849874 147 124 123
-0.21428187 0.37254038 -0.82034534 198 162 172
-0.21446049 0.37248984 -0.82054639 198 162 173
-0.21448252 0.37188345 -0.82054764 189 156 164
-0.21343909 0.37113154 -0.81933701 175 144 145
-0.2138083 0.37040195 -0.81972766 166 138 138
-0.2134192 0.37105438 -0.81931227 174 143 144
-0.2129018 0.37136069 -0.81874168 176 143 143
-0.21242127 0.36933956 -0.81810296 161 139 131
-0.21278852 0.37242693 -0.81864154 195 160 164
-0.21273342 0.36976594 -0.81848979 156 131 125
-0.21414477 0.36881655 -0.82006538 151 128 123
-0.21420413 0.36718285 -0.82013667 163 138 134
-0.21391754 0.36812982 -0.81981248 155 130 125
-0.21320188 0.36685753 -0.81907886 162 135 133
-0.21318074 0.36740363 -0.81903321 157 131 127
-0.2129696 0.36571652 -0.81888831 172 142 144
-0.21217911 0.36566821 -0.81785285 157 128 129
-0.2126527 0.36593017 -0.81847757 165 136 137
-0.21273655 0.36792716 -0.81850338 149 123 118
-0.21239915 0.36830688 -0.81805867 148 124 117
-0.21197064 0.36801144 -0.81754237 159 136 130
-0.21183036 0.36753073 -0.81736809 158 134 129
-0.21447137 0.36379629 -0.82066494 172 143 142
-0.21436863 0.36400402 -0.82052946 173 144 143
-0.21441853 0.36447477 -0.82051474 176 147 146
-0.21301877 0.36346605 -0.81913573 167 138 137
-0.21327576 0.36208385 -0.81956428 160 132 129
-0.21370564 0.36268157 -0.8200264 164 134 136
-0.21230766 0.36349031 -0.81812567 171 148 141
-0.21227367 0.36178502 -0.8182252 163 142 129
-0.21259287 0.36282247 -0.81860214 166 141 134
-0.21192957 0.36173037 -0.8177256 165 148 131
-0.21152033 0.36377224 -0.81704062 157 134 126
-0.21249653 0.36450508 -0.81832492 172 146 144
-0.21145755 0.36377183 -0.81695634 156 133 125
-0.2129869 0.36129001 -0.81928444 156 130 121
-0.21395667 0.36115855 -0.82044393 159 130 129
-0.21372135 0.36072567 -0.82015872 162 135 132
-0.21313526 0.35892138 -0.81946874 176 153 149
-0.21302453 0.35789657 -0.81934905 184 162 162
-0.21371023 0.35752624 -0.82014024 188 167 166
-0.21216482 0.3587023 -0.81804419 175 150 149
-0.21233994 0.35965866 -0.8183133 167 142 138
-0.21244285 0.35985583 -0.81847411 166 141 136
-0.21204562 0.35850078 -0.81785774 176 151 151
-0.21145892 0.36064106 -0.81704623 170 155 137
-0.21182585 0.35958451 -0.81754601 171 149 142
-0.21173275 0.35985509 -0.81741929 170 150 141
-0.21384998 0.35534802 -0.82025838 159 141 140
-0.21361332 0.35553211 -0.8199901 161 143 142
-0.21328101 0.35667235 -0.81963181 178 157 157
-0.21388406 0.3535375 -0.82017046 127 110 110
-0.21357797 0.3554388 -0.81994438 160 141 141
-0.21296056 0.35683203 -0.81923395 178 156 157
-0.21327078 0.35523468 -0.81949741 151 131 132
-0.21240053 0.35548791 -0.81827962 160 134 138
-0.21225774 0.35506874 -0.81802696 155 127 132
-0.21278161 0.3551392 -0.81880105 146 122 126
-0.21172777 0.35728654 -0.81735569 182 158 161
-0.21234149 0.35665584 -0.8182829 178 153 156
-0.2115348 0.35682562 -0.81702155 176 150 155
-0.21206711 0.35739681 -0.81789798 185 161 164
-0.21312591 0.35290375 -0.81911343 120 94 99
-0.21386544 0.35176048 -0.82013059 138 114 113
-0.21311072 0.35309723 -0.81909364 118 94 98
-0.2132532 0.35228127 -0.81929332 126 100 103
-0.21327367 0.35208467 -0.81932527 128 101 104
-0.21350783 0.35121354 -0.81965148 137 109 110
-0.21256207 0.35135424 -0.81837797 124 94 101
-0.21255529 0.35130313 -0.81836963 124 94 101
-0.21229866 0.35132128 -0.81799859 120 90 98
-0.21170627 0.35066679 -0.81715935 121 87 98
-0.21193156 0.35252693 -0.81742287 126 95 103
-0.21161574 0.35130352 -0.8170042 126 92 102
-0.21321721 0.3486886 -0.81936419 141 111 111
-0.21388827 0.34814015 -0.82025361 146 119 115
-0.21419622 0.34818697 -0.82064825 149 124 118
-0.21319816 0.34615803 -0.81930393 133 107 101
-0.21357565 0.34705678 -0.81987423 138 112 108
-0.21307662 0.34834772 -0.81915718 140 109 109
-0.21183482 0.34623727 -0.81719011 134 95 102
-0.21198292 0.34660992 -0.81742871 135 97 103
-0.21256118 0.34581441 -0.81832671 131 101 99
-0.21190885 0.34725341 -0.81734729 133 96 103
-0.21236341 0.34858572 -0.8180809 137 101 107
-0.21221504 0.34796542 -0.81783068 136 100 106
-0.21388626 0.34491688 -0.82023787 145 126 112
-0.21352457 0.34564382 -0.8197732 134 111 103
-0.21336529 0.34460932 -0.81944013 146 126 112
-0.21346332 0.34365356 -0.8195107 158 141 122
-0.21307546 0.34375268 -0.81897402 153 136 118
-0.21323778 0.34283337 -0.81914079 164 151 129
-0.21227512 0.34347659 -0.81784225 140 120 110
-0.21231377 0.34328836 -0.81788355 143 124 113
-0.21189237 0.34256887 -0.81725103 142 122 113
-0.21245088 0.34447494 -0.81814557 135 110 104
-0.21224992 0.34481901 -0.81783104 134 106 103
-0.21229841 0.34420207 -0.81790441 136 111 105
-0.22017741 0.369813 -0.83634341 206 190 190
-0.22501241 0.36781818 -0.83638531 175 156 160
-0.22468522 0.36540592 -0.83642662 118 99 102
-0.2228259 0.3653405 -0.83643764 147 130 123
-0.22252625 0.36597601 -0.83643126 157 139 134
-0.22110662 0.36543533 -0.83638221 178 161 145
-0.22087276 0.36638495 -0.83637977 188 172 159
-0.22100174 0.36813366 -0.8363933 197 181 178
-0.22325741 0.36735404 -0.83655345 166 148 150
-0.22298017 0.36827311 -0.83662546 187 170 172
-0.22313476 0.36824596 -0.83664542 186 169 171
-0.22323138 0.36868247 -0.83671409 197 179 181
-0.22456796 0.36696938 -0.83670372 156 137 140
-0.22298969 0.36505109 -0.83636713 145 127 121
-0.2090189 0.37003607 -0.81409138 137 106 112
-0.20933704 0.37120149 -0.81447971 163 131 133
-0.21014543 0.37058455 -0.81542057 179 154 151
-0.20959124 0.36933821 -0.81475419 145 119 122
-0.20990539 0.36961475 -0.81512642 158 134 134
-0.20858821 0.3705318 -0.81368744 143 110 115
-0.20832154 0.37080106 -0.81344193 146 112 117
-0.20875703 0.3694655 -0.81383133 128 98 104
-0.2081458 0.37060568 -0.81328446 143 109 115
-0.20788687 0.3696931 -0.81302744 130 98 105
-0.21097486 0.36645514 -0.81633919 148 121 122
-0.21063791 0.36701685 -0.81595135 146 118 120
-0.21040818 0.36712199 -0.81568319 140 112 114
-0.21008164 0.36913297 -0.81532711 157 135 135
-0.21117829 0.368177 -0.81660122 177 158 153
-0.21059871 0.36564019 -0.81580681 134 104 105
-0.21091358 0.36599302 -0.81626099 140 111 113
-0.20907998 0.36675286 -0.81391364 114 84 86
-0.21011496 0.36551026 -0.81515259 125 95 95
-0.21024637 0.36657721 -0.81543934 132 102 105
-0.20840478 0.36559904 -0.81317127 114 76 83
-0.20795369 0.36763087 -0.81294501 120 85 93
-0.20788953 0.36819845 -0.81293488 121 87 96
-0.21009019 0.36506572 -0.81509674 125 95 94
-0.21126248 0.36427847 -0.81667739 149 124 118
-0.21093924 0.36270165 -0.81630659 154 136 121
-0.21089432 0.36335033 -0.81622362 149 128 117
-0.21032482 0.3648046 -0.81541681 130 102 99
-0.20999201 0.36318234 -0.81501728 139 118 106
-0.20925969 0.36428711 -0.81399977 121 94 90
-0.20965937 0.36266646 -0.81453741 148 127 118
-0.21094084 0.36185151 -0.81633735 160 146 126
-0.20989563 0.36357376 -0.81488764 132 110 99
-0.20901205 0.36263525 -0.81362045 150 126 122
-0.20895202 0.36200753 -0.81353396 161 138 134
-0.20842339 0.36188543 -0.81295288 167 144 140
-0.21099554 0.35999152 -0.81635916 174 157 145
-0.21020348 0.36086759 -0.81526834 172 155 143
-0.20938183 0.36095947 -0.81410837 173 153 147
-0.21064426 0.36084849 -0.81589168 171 156 141
-0.21069312 0.35994712 -0.81592947 175 156 147
-0.21102807 0.36060336 -0.81642646 172 157 140
-0.20967743 0.35938087 -0.81453729 175 151 151
-0.20931867 0.35931003 -0.81408 172 149 149
-0.21074188 0.35772058 -0.81597966 179 154 158
-0.20976879 0.35753453 -0.81473911 173 148 152
-0.20908882 0.36051425 -0.81372982 172 150 147
-0.2088493 0.35999435 -0.81347108 171 146 147
-0.20827658 0.35812166 -0.81292599 167 134 147
-0.21074702 0.35695979 -0.81597561 174 147 152
-0.21078901 0.35706738 -0.81603521 175 149 154
-0.21081266 0.35698968 -0.81606144 174 148 153
-0.21054785 0.35622111 -0.81568116 164 136 142
-0.2101216 0.35713968 -0.81518233 172 146 151
-0.20905556 0.35620198 -0.81387591 161 135 140
-0.20936508 0.35538682 -0.81426442 155 129 133
-0.20911768 0.3548879 -0.81400871 153 128 131
-0.20925842 0.35556507 -0.81413543 157 131 135
-0.21095327 0.35375655 -0.8161363 141 110 117
-0.20869656 0.35488465 -0.81344062 154 130 133
-0.20849125 0.35395646 -0.81318682 149 126 128
-0.20857131 0.35554349 -0.81325239 158 133 137
-0.20856287 0.3569569 -0.81326658 165 135 144
-0.2113767 0.35196769 -0.81666863 132 98 108
-0.21097097 0.35151115 -0.81622279 131 98 107
-0.21102957 0.3511824 -0.81629801 129 96 106
-0.20953183 0.3534998 -0.81454235 144 118 121
-0.21138687 0.35280243 -0.81665719 136 102 111
-0.20977649 0.35287136 -0.81483603 140 113 118
-0.20979559 0.35133672 -0.81488335 129 95 108
-0.2096943 0.3508943 -0.81476992 124 87 104
-0.20915323 0.35307404 -0.81412315 142 116 120
-0.20931099 0.35029998 -0.81433088 116 74 99
-0.20964837 0.35200864 -0.81470668 134 104 113
-0.20891882 0.35103145 -0.81384903 122 83 104
-0.20893472 0.35262427 -0.81385827 138 108 117
-0.20833439 0.35035977 -0.81299418 124 80 104
-0.20850131 0.35249227 -0.813227 139 109 118
-0.21112373 0.34700444 -0.81631714 126 86 99
-0.21072711 0.3483074 -0.81591809 120 79 97
-0.21111384 0.34852451 -0.81637651 122 83 98
-0.21058117 0.34810606 -0.81573951 120 78 97
-0.21030682 0.34937888 -0.81548077 115 73 95
-0.20902014 0.34810695 -0.8140893 111 71 91
-0.21028826 0.34696689 -0.81542253 122 81 96
-0.20987965 0.34803975 -0.81494814 117 73 95
-0.20838204 0.34706286 -0.81328112 125 103 102
-0.20874256 0.34763724 -0.81374687 117 85 95
-0.20826146 0.34885791 -0.81295443 121 80 101
-0.20824614 0.34927058 -0.81289732 120 74 100
-0.21138257 0.34256983 -0.81658119 140 119 112
-0.21142848 0.34431934 -0.81663221 135 104 105
-0.21078135 0.34369239 -0.81598687 133 109 105
-0.21103422 0.34252736 -0.81623906 138 118 111
-0.21001135 0.34344766 -0.81524736 130 104 103
-0.22070952 0.36537349 -0.82852489 132 103 99
-0.22104199 0.366115 -0.82909036 151 126 123
-0.22081213 0.36581263 -0.82864791 142 115 112
-0.22166935 0.36726016 -0.83021945 183 164 163
-0.22171879 0.36570427 -0.83071136 152 129 125
-0.22232124 0.36635682 -0.83162379 169 150 147
-0.22223954 0.36692834 -0.83118516 178 159 158
-0.22296558 0.3679004 -0.83147973 192 174 174
-0.22291638 0.36690325 -0.83201432 177 158 156
-0.22234383 0.36573127 -0.83202344 160 139 136
-0.22104533 0.36442274 -0.82967037 140 114 109
-0.22189093 0.36252645 -0.832403 166 146 142
-0.22132644 0.36477014 -0.83014917 141 116 111
-0.22196229 0.36375308 -0.83202434 157 136 132
-0.22121252 0.36502463 -0.82978147 138 111 107
-0.22123793 0.3631469 -0.83066356 152 129 125
-0.22080961 0.36202052 -0.82970428 157 131 131
-0.2208489 0.36266053 -0.82965285 152 126 125
-0.22121863 0.3614195 -0.83107466 166 144 143
-0.22086678 0.36343211 -0.82950336 146 120 117
-0.22069974 0.36154366 -0.82950473 160 133 135
-0.22009528 0.36064884 -0.82977498 167 143 143
-0.22014201 0.36108685 -0.82878059 157 130 132
-0.21747674 0.35103747 -0.82949269 130 101 100
-0.21681449 0.35181561 -0.82989675 113 72 87
-0.21713255 0.3517105 -0.82968885 121 82 93
-0.21825345 0.35179937 -0.8288883 145 108 116
-0.21787454 0.34964594 -0.82916915 140 125 107
-0.21738911 0.35069427 -0.82956284 129 103 98
-0.21619831 0.34976199 -0.83006448 118 101 87
-0.21766064 0.34792235 -0.82980061 129 105 104
-0.21709959 0.34880203 -0.83000362 121 102 92
-0.21775767 0.34772697 -0.82977742 130 105 106
-0.2180943 0.34743384 -0.8295027 140 115 116
-0.21782193 0.34768489 -0.8297264 132 107 108
-0.21632248 0.34928536 -0.83008778 113 94 84
-0.1998475 0.35665104 -0.80442166 106 82 93
-0.21594609 0.36948919 -0.82214469 189 171 170
-0.21556477 0.37124279 -0.82173008 189 167 169
-0.21517859 0.3719137 -0.82132638 195 167 173
-0.21570413 0.37174934 -0.8219046 197 174 178
-0.21478768 0.3707408 -0.8208465 175 147 151
-0.21751213 0.36602718 -0.82458949 180 159 149
-0.21606581 0.3654469 -0.82271105 185 161 151
-0.21601529 0.36582664 -0.82256573 188 164 156
-0.21671024 0.36583802 -0.82360822 189 167 155
-0.21551493 0.3662183 -0.82174206 189 165 162
-0.21471928 0.36886701 -0.82071 155 131 129
-0.21554887 0.36901078 -0.82167816 177 158 156
-0.21538 0.36799315 -0.82148403 180 158 157
-0.21531822 0.36745939 -0.82141352 182 159 158
-0.2149322 0.36802605 -0.82096112 167 143 141
-0.21707343 0.36355591 -0.82442689 182 162 148
-0.2149518 0.36166942 -0.82174551 167 140 136
-0.21614191 0.36415014 -0.82307827 179 154 143
-0.21621794 0.36152002 -0.82353109 181 161 149
-0.21507165 0.3617534 -0.82190162 168 141 137
-0.21571204 0.36318904 -0.82260549 175 149 141
-0.2151224 0.36262402 -0.82185763 168 140 136
-0.21623062 0.36517885 -0.82300901 184 159 148
-0.21458177 0.36306712 -0.82096291 169 139 138
-0.2147443 0.36354932 -0.82110846 172 143 141
-0.21535414 0.36502707 -0.82172263 181 154 148
-0.21492541 0.36477238 -0.82113034 179 151 147
-0.21670745 0.35836422 -0.82457721 188 171 156
-0.21590197 0.3606528 -0.8231923 178 156 147
-0.21456616 0.36075476 -0.82131773 163 134 133
-0.21528016 0.36025628 -0.82237011 171 147 140
-0.21647832 0.35889921 -0.82419503 186 167 153
-0.21565431 0.35905382 -0.82302827 176 154 145
-0.21562818 0.3590712 -0.82298988 176 153 144
-0.21551454 0.35827711 -0.82280463 182 161 152
-0.21510096 0.35961384 -0.82216156 172 147 141
-0.2142891 0.35884425 -0.82086194 178 154 152
-0.21445878 0.3591947 -0.82113564 175 151 148
-0.21493225 0.35973173 -0.82189453 171 145 141
-0.21461895 0.35847846 -0.82138252 180 158 154
-0.21682572 0.35484537 -0.82459885 165 143 133
-0.21531719 0.35390577 -0.82227671 145 126 122
-0.21616086 0.35434669 -0.82355934 156 135 128
-0.21591184 0.35464028 -0.82323009 156 137 129
-0.21597278 0.35562697 -0.82342213 166 148 138
-0.21522781 0.35455459 -0.82221729 150 133 127
-0.21593945 0.35614592 -0.82342643 171 154 143
-0.21450618 0.35556421 -0.82113785 162 145 141
-0.21588172 0.35615936 -0.82334262 170 154 143
-0.21603705 0.35647872 -0.82359892 175 158 146
-0.21499532 0.35598454 -0.82192791 168 151 144
-0.21434742 0.35733256 -0.82093644 187 168 165
-0.21449108 0.355138 -0.82110149 156 139 136
-0.21430863 0.35694981 -0.82086372 182 163 160
-0.21689221 0.35216165 -0.82445747 157 128 126
-0.21678011 0.3531585 -0.82433975 155 129 125
-0.21504758 0.34973475 -0.82173419 159 129 126
-0.21532582 0.35077968 -0.82219213 157 129 126
-0.2155554 0.35139257 -0.82255012 156 129 125
-0.21646191 0.35089639 -0.82373071 159 129 127
-0.21484703 0.35012519 -0.82149541 158 129 126
-0.21429858 0.35040495 -0.8207227 153 127 124
-0.21510819 0.3531563 -0.82192379 142 123 119
-0.21533388 0.35199532 -0.82224494 151 127 123
-0.2143286 0.35204592 -0.82077813 142 122 119
-0.21505649 0.35134965 -0.82183552 153 128 124
-0.21505013 0.35245982 -0.82183409 146 124 121
-0.21628138 0.34881523 -0.82342041 158 126 124
-0.21625249 0.34833851 -0.82337379 159 130 126
-0.21520741 0.34618604 -0.82202661 151 130 119
-0.21558331 0.34654421 -0.82250178 155 133 123
-0.21484102 0.34595424 -0.8215661 146 126 115
-0.2158998 0.34873047 -0.82291305 156 126 123
-0.21508609 0.34824982 -0.82184064 152 125 120
-0.21569368 0.34938696 -0.82260442 159 128 126
-0.21447465 0.34758168 -0.82104933 147 123 116
-0.21624683 0.34902772 -0.82336605 158 127 125
-0.21521027 0.34519136 -0.82197845 159 142 125
-0.21479818 0.34475544 -0.82143158 157 142 124
-0.2147218 0.3451446 -0.82136774 152 134 119
-0.21483131 0.34552127 -0.82153386 149 130 117
-0.21955781 0.37014821 -0.83630252 208 192 194
-0.21735841 0.36968815 -0.83556223 143 118 120
-0.21903196 0.36933067 -0.83597356 174 154 154
-0.2199887 0.36930808 -0.83625156 197 180 180
-0.21730913 0.36975041 -0.83556235 144 119 120
-0.21647951 0.36932993 -0.83571362 126 100 100
-0.21659786 0.3699097 -0.83570397 140 114 116
-0.22480907 0.36864808 -0.83455807 195 177 180
-0.22477312 0.36722511 -0.83525127 160 141 144
-0.22469959 0.36814031 -0.83431786 182 165 168
-0.2246905 0.36691499 -0.83502501 152 134 137
-0.22457251 0.36641553 -0.83514476 141 122 125
-0.22456692 0.36663505 -0.83497751 146 128 131
-0.22456762 0.3667241 -0.83491474 148 130 133
-0.22445792 0.36790058 -0.83388603 180 162 164
-0.22413276 0.36560524 -0.83499444 129 109 111
-0.2245291 0.3671599 -0.83453715 160 142 144
-0.21771941 0.3686555 -0.83553171 133 108 106
-0.21967003 0.36663544 -0.83607429 168 149 137
-0.21867703 0.36798444 -0.83580369 152 130 125
-0.21950561 0.36811408 -0.83605129 174 154 149
-0.21948472 0.36870545 -0.83605534 177 158 155
-0.21777339 0.36588022 -0.83493775 140 107 112
-0.21772686 0.36791921 -0.83545434 131 105 102
-0.21902524 0.36544865 -0.83551264 159 134 128
-0.21864435 0.36626184 -0.83551902 151 125 120
-0.21813078 0.36527523 -0.83497375 147 115 119
-0.2168875 0.36662796 -0.83464861 124 89 99
-0.21584164 0.3670893 -0.83579057 140 109 116
-0.21590787 0.36800694 -0.83601612 137 108 112
-0.21525323 0.36611369 -0.83607709 152 122 132
-0.21552441 0.36530203 -0.83554262 149 116 129
-0.21666914 0.36896062 -0.83538049 117 89 90
-0.21609184 0.36883569 -0.83607656 131 104 105
-0.22155364 0.36253747 -0.83279711 172 154 147
-0.22169767 0.36242083 -0.83261722 170 151 146
-0.2217375 0.36325377 -0.83324319 168 149 143
-0.2230922 0.36490512 -0.83381087 143 122 120
-0.22378543 0.36471093 -0.83511662 133 112 113
-0.2219315 0.36267933 -0.83411664 167 149 144
-0.22434282 0.36481535 -0.83591187 124 103 107
-0.22415979 0.36461523 -0.83581275 127 106 110
-0.22156368 0.36282772 -0.83337957 172 154 147
-0.22160831 0.36427626 -0.83576381 170 154 141
-0.2207516 0.3649497 -0.83624035 184 169 148
-0.22255939 0.36352822 -0.8352344 156 137 133
-0.22294992 0.36449656 -0.83599579 148 129 124
-0.22323823 0.36520866 -0.83378762 137 116 115
-0.21918643 0.363399 -0.83418298 165 140 138
-0.21935914 0.36289203 -0.83389252 168 144 142
-0.21845242 0.36474255 -0.83479524 153 123 125
-0.21798015 0.36516529 -0.83485019 145 112 118
-0.21945706 0.36499193 -0.83555967 167 143 135
-0.21770549 0.36411709 -0.83397079 145 110 120
-0.21771386 0.36418399 -0.83399743 144 110 119
-0.21807165 0.36249274 -0.83342582 162 136 134
-0.21779346 0.36149684 -0.83300179 169 148 139
-0.21697553 0.36318356 -0.83348936 149 118 121
-0.21768549 0.36387789 -0.83387733 147 114 121
-0.21514037 0.36512354 -0.83586961 157 126 138
-0.21662083 0.36235091 -0.83332342 158 132 129
-0.21660107 0.36271882 -0.83348173 155 127 126
-0.21641167 0.36376381 -0.83406693 148 117 123
-0.20662431 0.3708204 -0.81187481 139 111 108
-0.20708725 0.37062395 -0.81232417 139 108 108
-0.20752941 0.37005547 -0.81272787 133 102 106
-0.20380197 0.36979493 -0.80924511 167 129 135
-0.20772777 0.36619511 -0.81256688 122 80 92
-0.20762327 0.3666648 -0.81250232 123 83 95
-0.20687272 0.36772707 -0.81180602 134 93 108
-0.20777498 0.36851212 -0.81285024 122 89 97
-0.20632993 0.36729166 -0.81117249 138 93 112
-0.20718515 0.3657434 -0.8119148 117 77 88
-0.20661511 0.36554119 -0.81124938 109 74 82
-0.20688923 0.36630946 -0.81166214 125 83 97
-0.20525081 0.36696619 -0.80992067 124 87 100
-0.20526122 0.36557341 -0.80973977 100 71 75
-0.20389485 0.3691107 -0.80922818 166 123 138
-0.20646949 0.3650471 -0.81102979 106 74 79
-0.20662002 0.36366785 -0.81109226 128 103 102
-0.20687239 0.3636426 -0.81137258 130 104 104
-0.20693038 0.36418521 -0.81147903 122 93 95
-0.20691083 0.36515477 -0.8115316 108 72 79
-0.20717531 0.36307094 -0.81166744 141 116 115
-0.20688471 0.36191127 -0.81121469 164 137 137
-0.2056991 0.36337548 -0.81000328 132 104 107
-0.20665929 0.36329463 -0.81110513 134 110 109
-0.2055797 0.36337453 -0.80986512 132 103 107
-0.20642449 0.36319986 -0.81082314 136 111 111
-0.20631158 0.36189425 -0.81054986 164 134 137
-0.20710193 0.36256224 -0.81153709 150 126 124
-0.20501991 0.36190432 -0.80909419 163 127 135
-0.20491426 0.36335272 -0.80918765 132 101 107
-0.20531392 0.35877463 -0.80900544 153 119 127
-0.20635921 0.35871252 -0.81020719 153 124 128
-0.20593539 0.3597284 -0.80984741 162 129 135
-0.2063477 0.36012846 -0.81037569 165 135 139
-0.20525484 0.36037943 -0.80914372 167 131 140
-0.20547609 0.35777202 -0.80906487 145 111 119
-0.20545353 0.35776055 -0.80903733 144 111 119
-0.2071117 0.36010897 -0.81125695 165 139 140
-0.20793749 0.35885283 -0.81241041 167 136 144
-0.20693757 0.35918549 -0.81097847 159 131 134
-0.20555404 0.35752106 -0.80913156 143 110 118
-0.20597509 0.35797578 -0.80969691 147 116 123
-0.20664768 0.35886136 -0.81058997 155 127 130
-0.20797122 0.3589133 -0.81245416 167 137 145
-0.20735469 0.35874349 -0.81159496 161 131 138
-0.20712644 0.35496637 -0.81136847 153 132 133
-0.20612302 0.35358825 -0.80998188 146 135 125
-0.20618148 0.35421175 -0.81007373 149 135 129
-0.2065381 0.35390225 -0.81055021 147 133 127
-0.20769602 0.35607398 -0.81216222 159 130 139
-0.20819993 0.35636887 -0.81285042 161 128 141
-0.20696075 0.35739163 -0.81112331 155 120 133
-0.20624761 0.35731325 -0.81011873 149 115 125
-0.20688871 0.35607842 -0.81104916 155 130 135
-0.20588063 0.35639337 -0.8096202 146 120 123
-0.20605704 0.35511822 -0.80989581 149 131 128
-0.20677705 0.35618609 -0.81088942 154 128 134
-0.20724821 0.35680225 -0.81154132 158 127 137
-0.20814243 0.35035011 -0.81271088 123 79 103
-0.20739403 0.35092172 -0.81159264 118 85 98
-0.20825984 0.35142794 -0.81288093 132 95 112
-0.20704293 0.34975803 -0.81107461 105 67 86
-0.20727412 0.34981737 -0.81141895 108 69 89
-0.20758328 0.35339764 -0.81194693 145 125 124
-0.20616333 0.35326728 -0.81001318 142 130 121
-0.20634259 0.3519755 -0.81014258 123 103 102
-0.20595227 0.35223693 -0.80963707 126 110 106
-0.2066409 0.35196441 -0.81054544 123 102 102
-0.20742477 0.34692922 -0.81182623 116 89 97
-0.20758876 0.34776855 -0.81200743 115 80 97
-0.20709322 0.34607247 -0.81138593 114 93 96
-0.207076 0.34593925 -0.81137085 115 95 96
-0.20799969 0.34682983 -0.81272918 128 108 104
-0.20773371 0.34741953 -0.81226355 120 90 99
-0.20808183 0.34798843 -0.81275493 124 91 102
-0.20693398 0.34877059 -0.81094867 102 63 86
-0.20752759 0.34908038 -0.81182033 110 66 92
-0.20761949 0.34929129 -0.81194836 111 67 93
-0.20716414 0.34926891 -0.81127048 105 65 87
-0.22015782 0.36723214 -0.82748377 171 150 148
-0.22012582 0.36651462 -0.82757479 156 132 128
-0.21936776 0.3655608 -0.82688642 151 125 118
-0.2201419 0.36535624 -0.82784784 138 110 104
-0.2182007 0.36646497 -0.82529438 177 156 148
-0.21856643 0.36672154 -0.82566398 175 154 147
-0.21925831 0.36314619 -0.82706952 155 130 124
-0.21715249 0.36146793 -0.82477319 185 167 154
-0.22053702 0.3637124 -0.82851541 139 111 108
-0.22013973 0.36155054 -0.82829195 154 127 128
-0.22015625 0.36205241 -0.8282544 151 125 124
-0.21726619 0.3624849 -0.82479388 181 162 149
-0.21717253 0.36234245 -0.8246994 183 163 151
-0.21921898 0.36380586 -0.8269484 152 128 119
-0.2171942 0.35785139 -0.82555854 190 171 161
-0.21747139 0.35818869 -0.82593888 191 171 163
-0.21757847 0.35901752 -0.82595795 191 171 164
-0.21696165 0.36027706 -0.82471609 188 170 157
-0.2175052 0.3602916 -0.82562691 190 170 162
-0.21785991 0.36060873 -0.82592082 184 163 156
-0.2174211 0.36087084 -0.82529461 187 167 157
-0.21825011 0.3599177 -0.8266663 185 163 160
-0.21718365 0.36130929 -0.82483357 186 167 155
-0.21723437 0.35563189 -0.82544863 174 151 146
-0.21810554 0.35358739 -0.82714564 154 110 127
-0.21737023 0.34972674 -0.8252942 160 126 127
-0.21828742 0.3503578 -0.82749867 157 129 125
-0.21818323 0.35033458 -0.8272469 157 128 126
-0.21870613 0.3517758 -0.82847416 154 118 126
-0.21765608 0.35056549 -0.82596374 158 120 127
-0.21783414 0.35325703 -0.82654929 153 113 126
-0.21712834 0.35028034 -0.82476228 159 124 127
-0.21846648 0.35287255 -0.82786477 154 103 127
-0.21764605 0.35305935 -0.82612872 154 116 126
-0.21766232 0.35150236 -0.82601786 157 116 127
-0.21805815 0.35250807 -0.826958 155 109 127
-0.21904565 0.34764069 -0.82849681 168 146 141
-0.21721104 0.34913895 -0.82489526 162 130 129
-0.21830441 0.34942257 -0.82755369 158 140 125
0 0 0 1 0 0 0 1 0 0 0 1 0 0 0 0 0 547 1 0 0
