ply
format ascii 1.0
comment PCL generated
element vertex 130
property float x
property float y
property float z
property uchar red
property uchar green
property uchar blue
element camera 1
property float view_px
property float view_py
property float view_pz
property float x_axisx
property float x_axisy
property float x_axisz
property float y_axisx
property float y_axisy
property float y_axisz
property float z_axisx
property float z_axisy
property float z_axisz
property float focal
property float scalex
property float scaley
property float centerx
property float centery
property int viewportx
property int viewporty
property float k1
property float k2
end_header
0.25108454 0.049522813 -0.91401428 95 67 60
0.25253645 0.049492683 -0.9140901 93 65 52
0.2529611 0.049881384 -0.91444474 86 59 48
0.24952659 0.048179913 -0.91417581 79 56 58
0.24952929 0.047343027 -0.91371679 73 53 52
0.24930429 0.046842404 -0.91354233 68 50 49
0.24805853 0.047451794 -0.91431737 60 41 54
0.24897264 0.047291454 -0.91389632 68 48 52
0.25022122 0.046876393 -0.91333264 79 59 51
0.2500788 0.045712844 -0.91330808 81 61 54
0.24911948 0.045861382 -0.91317362 62 47 45
0.25193053 0.045659237 -0.91356862 117 87 71
0.25097412 0.047712896 -0.9134419 89 66 54
0.2517736 0.045016818 -0.91354406 117 88 73
0.25251275 0.046410065 -0.9139635 112 83 67
0.25265074 0.046594091 -0.9140572 110 82 66
0.25206152 0.046377499 -0.91365081 113 84 68
0.25235519 0.047491547 -0.91386139 107 79 63
0.25102958 0.042641353 -0.91329986 61 45 37
0.251854 0.042709928 -0.9133296 69 50 42
0.25109977 0.042755805 -0.91331398 64 47 39
0.25158596 0.042761475 -0.91332781 68 50 42
0.25174594 0.042597432 -0.91331464 65 48 40
0.24823955 0.041436147 -0.91306931 8 6 6
0.2489571 0.042538941 -0.91316301 35 27 23
0.24911654 0.044303887 -0.91317368 59 45 43
0.25101465 0.044710319 -0.91343826 100 76 64
0.24898125 0.04312076 -0.91316253 43 32 29
0.25329131 0.041326255 -0.91442662 49 38 33
0.2524679 0.042464878 -0.91364568 61 44 38
0.25199765 0.041868571 -0.91327143 50 36 31
0.25210664 0.042477354 -0.91340762 63 46 39
0.24959141 0.048842601 -0.92383456 106 70 77
0.24948794 0.049444243 -0.92260098 113 81 85
0.25022936 0.049008925 -0.9229129 115 83 84
0.2492117 0.04908555 -0.92363077 105 70 77
0.2538428 0.046163477 -0.92435122 111 92 79
0.25472254 0.045727991 -0.92507321 100 81 69
0.25218222 0.046069596 -0.92368114 137 118 101
0.25544813 0.045013092 -0.92593789 91 75 63
0.25350645 0.045097265 -0.9250077 120 104 88
0.25489438 0.045888077 -0.92482787 97 78 66
0.25507909 0.046518728 -0.92378104 93 72 59
0.25267717 0.047340415 -0.92288488 124 101 89
0.25262177 0.047600679 -0.92247617 125 100 88
0.2537322 0.047350623 -0.92268169 110 86 73
0.25544533 0.046764601 -0.92332083 87 65 52
0.25245619 0.042156085 -0.92603385 139 136 94
0.25279626 0.044554915 -0.9250111 132 118 97
0.25284564 0.043530483 -0.92553651 132 123 93
0.25517574 0.044490308 -0.92612612 96 82 66
0.25254568 0.042633872 -0.92584008 138 132 95
0.25234872 0.044470705 -0.92484868 139 126 103
0.25186774 0.050741822 -0.91945016 92 63 60
0.25035787 0.050199527 -0.92100626 103 73 74
0.24988687 0.050822008 -0.92042655 93 63 67
0.24934298 0.04967095 -0.92224336 114 83 87
0.24980463 0.050489329 -0.92091221 99 69 72
0.25091225 0.050555021 -0.92024177 96 67 66
0.2514458 0.049796604 -0.92096931 108 79 76
0.2483397 0.051665016 -0.91843736 92 69 65
0.2480576 0.050833497 -0.92057407 101 74 77
0.24930531 0.051047873 -0.91991025 94 66 67
0.24954686 0.051153541 -0.91961896 92 64 65
0.24983785 0.051278267 -0.91927457 89 62 62
0.24911751 0.051267002 -0.91937238 92 66 66
0.25428745 0.048963163 -0.92004484 105 78 66
0.25346979 0.04895645 -0.92053658 112 87 74
0.25237271 0.05081236 -0.9189778 88 60 55
0.25300625 0.050701585 -0.91867054 85 57 52
0.25516155 0.04971933 -0.91836452 86 61 51
0.25337982 0.04951714 -0.91985637 104 78 68
0.25407323 0.050289195 -0.91842884 84 58 50
0.25437054 0.049617574 -0.91904151 94 69 58
0.25204512 0.050393768 -0.91971803 98 70 64
0.25593755 0.04897543 -0.91872942 91 64 51
0.25436562 0.04788975 -0.92207044 98 73 61
0.25293398 0.047826704 -0.92219359 119 94 82
0.2537351 0.048608147 -0.92108583 109 83 70
0.25570753 0.048673127 -0.91980642 91 63 49
0.25515088 0.04781324 -0.92181933 90 65 52
0.25552219 0.047518693 -0.92218065 84 60 47
0.25908759 0.042027883 -0.93013918 86 67 52
0.248844 0.051747039 -0.91819841 88 65 61
0.25045881 0.049400512 -0.9147172 96 69 66
0.25045949 0.050387885 -0.91538233 88 60 59
0.24936037 0.050793868 -0.91660702 92 67 64
0.24933536 0.050483111 -0.91641915 95 70 66
0.25077301 0.050745647 -0.91535228 82 54 53
0.2508308 0.050270446 -0.9149819 86 58 57
0.24808808 0.049455751 -0.91636187 64 45 54
0.24810797 0.049749274 -0.9166069 69 49 56
0.2499415 0.048831042 -0.91468513 95 69 68
0.25356129 0.050126206 -0.91528076 81 54 45
0.25343171 0.049164765 -0.91485608 94 66 53
0.25541794 0.049242735 -0.91745031 86 59 48
0.25420743 0.049993102 -0.91807336 84 56 49
0.25474179 0.049610879 -0.91803455 86 58 49
0.25439945 0.049996223 -0.91769266 82 55 47
0.25464237 0.049835254 -0.91764164 83 55 47
0.25305715 0.050897814 -0.91833222 80 53 48
0.25497907 0.046748769 -0.91605604 89 63 57
0.25461569 0.047775257 -0.9159382 92 66 55
0.25395873 0.048462261 -0.91532326 95 69 56
0.25387344 0.048235428 -0.91513473 95 69 56
0.2556707 0.047297895 -0.91714096 88 62 54
0.25553933 0.04769484 -0.91710722 89 62 54
0.25505832 0.047931828 -0.91656548 91 64 54
0.25410137 0.046907142 -0.91516048 96 69 60
0.25530356 0.045145232 -0.91611308 89 63 60
0.25515962 0.045862004 -0.91601169 88 62 58
0.25415328 0.044969507 -0.91515499 103 76 67
0.25416529 0.047035679 -0.91521674 95 68 59
0.25574356 0.043712486 -0.91666335 98 77 71
0.25390008 0.044242993 -0.91505116 114 88 75
0.25579122 0.044285215 -0.91661239 91 68 65
0.25584501 0.043258265 -0.91681921 102 83 76
0.25524187 0.044883031 -0.91606253 91 65 62
0.25346947 0.042429388 -0.91461849 74 57 49
0.25335094 0.042609941 -0.91449153 73 56 48
0.25462011 0.041266929 -0.91585279 91 79 68
0.25407621 0.042431846 -0.9152714 94 77 65
0.25475821 0.042565603 -0.91600567 118 100 85
0.2547527 0.043855529 -0.92623198 103 92 69
0.25513151 0.04213731 -0.92728442 110 91 69
0.25347835 0.042472392 -0.92632562 124 118 82
0.25240183 0.041231398 -0.9264484 142 140 93
0.25393647 0.042683885 -0.92643547 118 110 78
0.25446054 0.042646199 -0.92670435 114 101 74
0.25458592 0.043634459 -0.92625803 106 96 71
0 0 0 1 0 0 0 1 0 0 0 1 0 0 0 0 0 130 1 0 0
