ply
format ascii 1.0
comment PCL generated
element vertex 158
property float x
property float y
property float z
property uchar red
property uchar green
property uchar blue
element camera 1
property float view_px
property float view_py
property float view_pz
property float x_axisx
property float x_axisy
property float x_axisz
property float y_axisx
property float y_axisy
property float y_axisz
property float z_axisx
property float z_axisy
property float z_axisz
property float focal
property float scalex
property float scaley
property float centerx
property float centery
property int viewportx
property int viewporty
property float k1
property float k2
end_header
-0.10161075 -0.12393721 -0.7268154 144 107 103
-0.10253685 -0.12461465 -0.72680032 145 105 100
-0.10477292 -0.10954041 -0.72886258 109 96 108
-0.10389208 -0.11061031 -0.73026174 115 93 97
-0.1060551 -0.11006996 -0.7296387 97 78 91
-0.1055614 -0.11076098 -0.73054606 100 75 84
-0.10416825 -0.10967556 -0.72901529 114 101 110
-0.10478561 -0.11016889 -0.72971028 108 89 98
-0.10509828 -0.11096555 -0.73079926 104 77 83
-0.1056419 -0.10898686 -0.72794569 110 102 122
-0.10664416 -0.11020423 -0.72979438 94 73 88
-0.1066665 -0.11012115 -0.72965264 95 75 91
-0.10541116 -0.10883654 -0.72773576 112 105 125
-0.10138585 -0.10955908 -0.72889137 102 81 95
-0.10064189 -0.11062913 -0.73020375 117 83 91
-0.10324392 -0.11092851 -0.73067546 116 90 93
-0.10089751 -0.11046478 -0.73000747 114 83 92
-0.10026149 -0.11051345 -0.73004472 116 82 91
-0.10059699 -0.10988032 -0.72926438 108 80 94
-0.10286626 -0.11039172 -0.72997236 113 90 96
-0.1034421 -0.11030848 -0.72983932 118 99 104
-0.10311325 -0.11062648 -0.7302798 115 91 95
-0.099091835 -0.1111877 -0.73077399 129 89 91
-0.098917283 -0.11092163 -0.7304101 126 89 93
-0.097723752 -0.11077984 -0.73025191 129 95 94
-0.097926818 -0.11066612 -0.7301864 126 91 92
-0.09982878 -0.11379728 -0.73078984 133 100 94
-0.098364174 -0.11163456 -0.73078793 135 98 95
-0.099146843 -0.11217463 -0.73084658 132 95 93
-0.099334158 -0.1137889 -0.73069137 135 103 95
-0.10494849 -0.11817405 -0.73074782 118 80 79
-0.10588465 -0.11884521 -0.73074836 114 76 72
-0.10385852 -0.11762594 -0.7306484 121 85 86
-0.10255587 -0.1168666 -0.73062366 126 93 91
-0.10342994 -0.11800473 -0.73036188 120 85 88
-0.10061845 -0.11571071 -0.73062468 134 105 95
-0.10049189 -0.11780683 -0.7295953 137 105 97
-0.10050248 -0.1188112 -0.72910815 139 106 99
-0.1004685 -0.11762008 -0.72967911 136 105 97
-0.10210815 -0.11846231 -0.72978741 126 92 91
-0.10009154 -0.11793323 -0.72940671 140 108 99
-0.10962172 -0.12142169 -0.73069715 142 103 81
-0.10759335 -0.12175095 -0.72988117 134 89 71
-0.10832603 -0.12279804 -0.72961026 147 101 78
-0.10754368 -0.12145382 -0.73000926 132 87 70
-0.10817593 -0.12025473 -0.7307955 125 84 70
-0.10428338 -0.11941345 -0.7300036 118 80 82
-0.10479808 -0.11940189 -0.73016602 117 79 79
-0.10642436 -0.11983214 -0.73045266 119 78 71
-0.10649852 -0.12129404 -0.72976607 131 87 74
-0.10741661 -0.12237386 -0.72952193 139 91 72
-0.1044641 -0.12020432 -0.72966999 124 84 82
-0.1051622 -0.12083817 -0.72957796 128 87 80
-0.10594518 -0.12251256 -0.72896558 137 88 77
-0.10505112 -0.12118897 -0.7293539 129 86 80
-0.10631017 -0.12201586 -0.72935504 137 91 77
-0.10419367 -0.1224278 -0.72840095 129 79 79
-0.10079046 -0.12173641 -0.72765905 141 103 100
-0.10163578 -0.12279302 -0.72736746 136 95 95
-0.10049038 -0.12107259 -0.72791678 142 106 101
-0.10087954 -0.12212982 -0.72747773 140 102 100
-0.10095304 -0.12149944 -0.72783804 140 101 98
-0.1034546 -0.1205814 -0.72912145 121 79 84
-0.10032312 -0.11930848 -0.72880179 141 107 100
-0.10181975 -0.12073652 -0.72852141 134 92 91
-0.10293282 -0.12238044 -0.72800547 130 80 83
-0.10251191 -0.12167754 -0.72824341 131 85 86
-0.10254262 -0.1214559 -0.72837037 130 85 86
-0.10742771 -0.12373312 -0.72890139 150 104 82
-0.10914084 -0.12369072 -0.72948146 154 113 90
-0.1084036 -0.12305659 -0.72951382 149 104 79
-0.10476046 -0.1240542 -0.72783411 141 94 90
-0.10606246 -0.12371041 -0.72843629 144 97 84
-0.1073832 -0.12306071 -0.72917759 144 95 74
-0.10420498 -0.12351503 -0.72787476 134 84 84
-0.10441095 -0.12321876 -0.72807485 133 81 80
-0.10377206 -0.12318869 -0.72786564 130 78 81
-0.10321403 -0.12367201 -0.72745061 134 85 87
-0.10322451 -0.12347268 -0.72754645 132 83 85
-0.104053 -0.11128506 -0.73117083 116 88 88
-0.10514617 -0.11117048 -0.73110247 106 78 80
-0.10117232 -0.11128022 -0.73103106 124 88 90
-0.10339866 -0.11127102 -0.73111099 120 92 92
-0.1128315 -0.11304568 -0.73276687 92 61 75
-0.11244977 -0.11458342 -0.73339653 117 83 79
-0.11226288 -0.11506245 -0.73357236 124 90 81
-0.11377221 -0.11409579 -0.73355585 112 78 81
-0.11174987 -0.11479703 -0.73329073 118 85 78
-0.11317109 -0.11313801 -0.73290431 94 63 76
-0.11363763 -0.11303271 -0.73284316 95 66 78
-0.11389882 -0.11287219 -0.73273325 93 67 79
-0.11484934 -0.11369766 -0.73338377 110 82 85
-0.10782917 -0.11380951 -0.73227489 112 81 76
-0.11020489 -0.11454104 -0.73295289 118 85 76
-0.11074402 -0.11496417 -0.73318273 122 89 78
-0.10806724 -0.11334387 -0.73218352 108 77 73
-0.10809713 -0.11473876 -0.73260176 120 90 80
-0.10958934 -0.11360076 -0.73255521 110 77 72
-0.11085501 -0.11449612 -0.73301613 116 83 76
-0.11024079 -0.11305653 -0.73231602 97 65 70
-0.11012369 -0.11286566 -0.73222291 94 63 70
-0.10474673 -0.11315105 -0.73169929 123 93 89
-0.10378078 -0.11314303 -0.73144543 124 92 91
-0.10416853 -0.11265301 -0.73149598 122 93 90
-0.10466965 -0.11473574 -0.73184425 126 93 89
-0.10492446 -0.11366148 -0.73179907 124 93 89
-0.10602929 -0.11453538 -0.73217946 124 94 86
-0.10498507 -0.11278052 -0.73171997 122 93 88
-0.10668246 -0.11348028 -0.73204637 115 85 80
-0.10714618 -0.1132092 -0.73199886 109 79 75
-0.107243 -0.11304677 -0.73195767 107 76 74
-0.1052777 -0.11252978 -0.73166639 117 89 85
-0.10037134 -0.11300338 -0.73102021 130 93 91
-0.10087411 -0.11489606 -0.73093736 133 103 95
-0.10298706 -0.11478504 -0.73150587 128 91 91
-0.10115967 -0.1117411 -0.73112333 125 88 90
-0.10152327 -0.1124296 -0.73121154 126 89 90
-0.10337698 -0.11176052 -0.73122573 122 92 91
-0.10199738 -0.11235046 -0.73122478 125 90 90
-0.10160719 -0.11272709 -0.73124629 126 89 90
-0.098826252 -0.11157114 -0.73086834 133 94 93
-0.11153903 -0.11774158 -0.73278064 130 92 78
-0.11255231 -0.11734587 -0.73325098 136 100 84
-0.11277673 -0.11884076 -0.73293155 141 101 85
-0.11263528 -0.11900114 -0.73283768 140 100 84
-0.11237597 -0.1178306 -0.7330578 136 98 83
-0.1126589 -0.11548515 -0.73372173 130 95 83
-0.11479398 -0.11544523 -0.73436785 135 99 89
-0.11379816 -0.11607926 -0.73393923 136 101 88
-0.11036987 -0.11863649 -0.7322244 128 88 75
-0.10849824 -0.11671013 -0.73238301 125 91 79
-0.10930676 -0.11846293 -0.7319575 123 84 72
-0.11095913 -0.11881006 -0.73234236 131 90 76
-0.10796412 -0.11867888 -0.73145163 116 75 67
-0.10746358 -0.11794925 -0.73157716 116 78 69
-0.10995448 -0.11656506 -0.73275274 127 92 79
-0.10951956 -0.11530726 -0.73300499 125 93 81
-0.11114149 -0.11654007 -0.73299015 127 90 78
-0.10838024 -0.11610164 -0.73257095 126 94 82
-0.11013795 -0.11710635 -0.73264349 128 92 79
-0.10768797 -0.11537329 -0.73263139 125 95 83
-0.10520952 -0.11746405 -0.73114216 119 81 78
-0.10438974 -0.11723491 -0.73098183 121 85 83
-0.10719068 -0.11906709 -0.7310611 112 71 64
-0.10715833 -0.11810029 -0.73143649 115 76 69
-0.10715163 -0.11766557 -0.73160326 117 79 71
-0.10412207 -0.11556944 -0.7316227 126 90 88
-0.10702693 -0.11570385 -0.73233134 123 92 82
-0.10493318 -0.11547671 -0.73187107 126 91 87
-0.10246534 -0.1160113 -0.73097116 128 96 92
-0.10339145 -0.11557466 -0.73140937 127 92 91
-0.11234824 -0.11926849 -0.7326358 139 98 82
-0.10845818 -0.12019826 -0.73091662 126 86 71
-0.10835356 -0.11965782 -0.73114842 121 80 68
-0.1109603 -0.12003683 -0.73178726 137 97 79
-0.11119989 -0.12029302 -0.73174042 141 101 81
-0.1104973 -0.12078542 -0.73128474 141 102 82
-0.11032764 -0.11924454 -0.73196614 127 85 73
0 0 0 1 0 0 0 1 0 0 0 1 0 0 0 0 0 158 1 0 0
