ply
format ascii 1.0
comment PCL generated
element vertex 184
property float x
property float y
property float z
property uchar red
property uchar green
property uchar blue
element camera 1
property float view_px
property float view_py
property float view_pz
property float x_axisx
property float x_axisy
property float x_axisz
property float y_axisx
property float y_axisy
property float y_axisz
property float z_axisx
property float z_axisy
property float z_axisz
property float focal
property float scalex
property float scaley
property float centerx
property float centery
property int viewportx
property int viewporty
property float k1
property float k2
end_header
-0.064705878 -0.5207575 -0.70303118 146 126 138
-0.06392695 -0.52002734 -0.70272422 141 119 136
-0.06624072 -0.52174264 -0.70341015 142 122 141
-0.0724601 -0.53988147 -0.71221477 139 130 146
-0.073259503 -0.54068363 -0.71260679 137 128 147
-0.073423728 -0.54070073 -0.71260744 137 128 147
-0.07360249 -0.54041821 -0.7124455 137 127 146
-0.074832045 -0.53996009 -0.71213251 134 123 141
-0.074425057 -0.53971136 -0.71201992 135 124 141
-0.068418995 -0.5394066 -0.71212137 143 133 146
-0.071796477 -0.54099566 -0.71283734 141 132 150
-0.070864722 -0.54093444 -0.71282578 143 135 149
-0.069383025 -0.540892 -0.71283448 146 139 148
-0.068998449 -0.54065615 -0.71272588 146 139 148
-0.070675045 -0.5389868 -0.71183532 138 127 145
-0.071548849 -0.53856653 -0.71155655 139 128 143
-0.071347162 -0.5387786 -0.71168315 139 128 144
-0.071994476 -0.54054016 -0.71259689 139 130 149
-0.068115741 -0.53787482 -0.71137798 135 120 142
-0.073231906 -0.543468 -0.71397853 134 120 145
-0.073128261 -0.54327631 -0.71388942 135 121 146
-0.072291724 -0.54194981 -0.71327263 140 130 151
-0.07361389 -0.54479122 -0.71459413 132 115 143
-0.072300866 -0.54363877 -0.7140587 141 130 153
-0.074492663 -0.54229707 -0.71338415 129 114 139
-0.075412899 -0.5412153 -0.71277744 132 121 143
-0.07594531 -0.54156077 -0.71292824 129 117 140
-0.070120499 -0.54427761 -0.71447808 142 138 151
-0.07020323 -0.54426646 -0.71446627 142 137 151
-0.068658486 -0.54288357 -0.713862 144 143 148
-0.068579897 -0.54237455 -0.71360397 146 143 148
-0.070172302 -0.54352188 -0.71408266 144 137 151
-0.071022846 -0.54430681 -0.71442759 143 135 152
-0.072120436 -0.54397422 -0.71421778 142 131 153
-0.072178274 -0.54450655 -0.71446437 142 131 154
-0.071119592 -0.54166293 -0.713162 143 134 150
-0.070785984 -0.54117972 -0.71294373 143 135 150
-0.071763173 -0.54423589 -0.71434671 143 132 153
-0.072143279 -0.54302704 -0.71377647 141 131 152
-0.068256639 -0.54223835 -0.71355706 144 141 146
-0.068035685 -0.54220599 -0.71355671 141 137 142
-0.068049997 -0.541318 -0.71309555 144 137 143
-0.068354949 -0.54301947 -0.71395445 143 143 147
-0.073180005 -0.54507565 -0.71474403 134 118 145
-0.070709437 -0.54571104 -0.71522385 132 125 142
-0.070088327 -0.54522723 -0.7149893 137 132 145
-0.069347374 -0.54497558 -0.71489888 138 139 148
-0.068217792 -0.54522139 -0.71512401 134 135 140
-0.076672763 -0.53168845 -0.70782393 133 110 153
-0.072319128 -0.53086507 -0.70752156 171 157 182
-0.072852246 -0.53148425 -0.70779175 164 147 178
-0.07248532 -0.53233063 -0.70821214 170 158 185
-0.074420825 -0.53217256 -0.70804662 142 115 161
-0.074993685 -0.53152001 -0.70776117 142 119 162
-0.075758077 -0.53230727 -0.70808423 129 98 152
-0.075233325 -0.53077585 -0.70744699 147 129 165
-0.070982866 -0.5330978 -0.70866299 166 156 181
-0.070904486 -0.53225929 -0.70823359 168 159 187
-0.070341468 -0.53201091 -0.70813984 166 156 185
-0.068563573 -0.53182882 -0.70815557 156 143 174
-0.071850263 -0.53221786 -0.70818192 171 162 187
-0.069097772 -0.530837 -0.70761228 162 151 184
-0.070957407 -0.53218991 -0.70819724 169 160 187
-0.070829958 -0.53082359 -0.70755035 167 155 184
-0.06579081 -0.53178561 -0.70830458 146 131 152
-0.065259561 -0.53242058 -0.70862997 141 126 146
-0.064748108 -0.53134584 -0.70813596 144 129 147
-0.066526555 -0.53180146 -0.70828259 149 134 157
-0.064765438 -0.53154683 -0.70823145 144 128 146
-0.067819901 -0.53040785 -0.70747215 158 146 178
-0.068129092 -0.53214419 -0.70834863 153 139 168
-0.065906487 -0.53020674 -0.70750958 153 139 163
-0.067111433 -0.53092796 -0.70779401 154 141 168
-0.064352311 -0.53056079 -0.70778137 146 130 148
-0.064326249 -0.53073424 -0.70786685 145 129 147
-0.063752905 -0.52971745 -0.70743364 144 127 145
-0.073483281 -0.5349288 -0.70947808 148 132 162
-0.073117808 -0.53552765 -0.70981836 146 131 155
-0.073262654 -0.53417146 -0.70909047 157 142 173
-0.075001165 -0.53454024 -0.70919937 131 103 150
-0.074089773 -0.53422886 -0.70908141 145 124 163
-0.070484325 -0.53684551 -0.71069455 137 123 142
-0.069102615 -0.53596222 -0.71031618 139 124 148
-0.06931074 -0.53552717 -0.71006662 141 127 150
-0.071612135 -0.53686953 -0.71062732 138 126 140
-0.070102416 -0.53637636 -0.71046853 138 125 144
-0.07135766 -0.53699332 -0.71071213 137 125 139
-0.069931991 -0.53328049 -0.70882368 158 147 172
-0.072169423 -0.53468603 -0.70943069 159 150 169
-0.070305564 -0.5350495 -0.70973885 144 132 151
-0.071769275 -0.53658938 -0.71046513 139 128 141
-0.071717732 -0.53510779 -0.7096824 153 142 160
-0.070364237 -0.53444976 -0.70941716 150 138 160
-0.067668237 -0.53683746 -0.71086907 131 113 138
-0.065608382 -0.53494751 -0.70993191 130 113 133
-0.06765084 -0.5359962 -0.7104159 135 119 144
-0.065704279 -0.53408837 -0.70946455 136 120 141
-0.068098992 -0.53357232 -0.70908976 147 133 159
-0.067739137 -0.53336775 -0.70899385 146 132 158
-0.066392668 -0.53376526 -0.70926249 140 125 147
-0.065968253 -0.53457862 -0.70971853 135 119 140
-0.071402609 -0.5379433 -0.71122569 139 127 141
-0.071529053 -0.53795433 -0.71122414 139 128 141
-0.068508893 -0.53775311 -0.71129662 136 123 144
-0.067495041 -0.53739613 -0.71116817 128 110 134
-0.073111199 -0.52500939 -0.70469368 150 133 147
-0.073259048 -0.52448791 -0.70442683 142 123 141
-0.073680326 -0.52504706 -0.70470178 149 133 146
-0.069980003 -0.52532125 -0.70493454 162 149 158
-0.071630225 -0.52513778 -0.70479983 157 141 153
-0.069976062 -0.52440423 -0.70449567 152 138 152
-0.0694713 -0.52376753 -0.70420521 146 132 149
-0.069683976 -0.52340353 -0.70402485 142 127 147
-0.071969621 -0.52510673 -0.70477402 156 140 152
-0.071144767 -0.52402788 -0.70426953 144 126 145
-0.06600026 -0.52345115 -0.70424002 160 143 152
-0.065897018 -0.52417213 -0.70458466 160 146 155
-0.065640926 -0.52338767 -0.70423108 159 142 152
-0.065206572 -0.52453816 -0.70479667 159 146 157
-0.065622047 -0.52304113 -0.70406944 159 141 150
-0.065290347 -0.52290452 -0.70402461 158 140 149
-0.066825792 -0.52316642 -0.7040512 153 137 150
-0.066825464 -0.52235079 -0.70366073 144 127 145
-0.066799335 -0.52300191 -0.70397419 151 135 149
-0.06439738 -0.52474743 -0.7049436 157 146 157
-0.063283026 -0.52413827 -0.70475394 147 136 152
-0.063425228 -0.52366525 -0.70451963 148 135 150
-0.063086368 -0.52285701 -0.70416957 145 129 145
-0.062491417 -0.52396113 -0.70474339 141 127 146
-0.076600805 -0.52803832 -0.70615989 150 142 160
-0.073810413 -0.52702188 -0.70570081 157 146 162
-0.072363794 -0.52665687 -0.70551544 162 147 162
-0.073230267 -0.52920181 -0.70675087 166 154 177
-0.07255999 -0.52712417 -0.70574254 163 148 165
-0.075072043 -0.52929515 -0.70680737 159 153 174
-0.075592227 -0.52928811 -0.70680714 157 152 173
-0.075452127 -0.52713042 -0.70572668 152 144 159
-0.074280821 -0.52717358 -0.70577115 156 146 162
-0.074323624 -0.52725321 -0.70581084 156 146 162
-0.073667102 -0.52636147 -0.70536983 156 144 157
-0.073119074 -0.52552044 -0.70495254 156 142 152
-0.073922247 -0.52561551 -0.70498544 154 140 151
-0.069255419 -0.52748245 -0.70598692 166 154 175
-0.069624104 -0.52772105 -0.70609313 167 154 175
-0.069836468 -0.52693397 -0.70571715 167 155 169
-0.070265256 -0.52909893 -0.70673317 167 154 184
-0.071862437 -0.52901465 -0.70666468 170 155 179
-0.068619512 -0.52914524 -0.70678461 164 152 189
-0.068518758 -0.52552974 -0.70507652 166 154 162
-0.070075586 -0.52668452 -0.70559049 166 154 167
-0.069101058 -0.52549994 -0.70504558 165 153 161
-0.071997449 -0.52745318 -0.7059074 165 150 168
-0.071327187 -0.52802342 -0.70620209 168 154 173
-0.07133764 -0.52711451 -0.70576245 165 151 167
-0.064616963 -0.52862924 -0.70682645 155 141 158
-0.064535551 -0.52604395 -0.70555681 157 147 160
-0.065446526 -0.52734536 -0.70612735 158 147 167
-0.067271106 -0.52900362 -0.70680195 161 149 181
-0.065009356 -0.52609354 -0.70554394 158 149 165
-0.064945713 -0.52709484 -0.70604318 157 146 163
-0.067490377 -0.52768171 -0.70614767 163 151 178
-0.066736609 -0.5257442 -0.7052753 162 152 164
-0.068341896 -0.52785301 -0.7061792 164 153 180
-0.065263093 -0.52584672 -0.70540947 159 149 164
-0.068222202 -0.5287441 -0.70660752 164 152 186
-0.067132056 -0.52616507 -0.70545137 163 152 167
-0.063199446 -0.52615803 -0.70573807 147 130 149
-0.063708879 -0.52653974 -0.70587832 151 136 153
-0.063765176 -0.52703828 -0.70611912 151 135 153
-0.064154968 -0.52591717 -0.70552891 155 143 157
-0.07293997 -0.53052849 -0.70736414 167 154 180
-0.075354703 -0.5302707 -0.70723301 151 138 169
-0.072825924 -0.53009284 -0.70716536 169 156 180
-0.074601501 -0.52962041 -0.70695609 161 154 176
-0.068762861 -0.53028065 -0.70735931 161 149 183
-0.07162381 -0.53014463 -0.70720619 169 155 182
-0.068875514 -0.53011304 -0.7072714 161 150 184
-0.068853661 -0.53003359 -0.70723087 162 150 184
-0.066744223 -0.52983803 -0.70725781 157 144 173
-0.0658684 -0.52955186 -0.70717841 156 141 167
-0.068994753 -0.54654717 -0.7158283 122 116 128
-0.069545716 -0.545636 -0.7152651 132 129 140
-0.070894279 -0.54590487 -0.7153244 130 122 141
-0.068070844 -0.54550838 -0.71530026 129 127 133
0 0 0 1 0 0 0 1 0 0 0 1 0 0 0 0 0 184 1 0 0
