ply
format ascii 1.0
comment PCL generated
element vertex 102
property float x
property float y
property float z
property uchar red
property uchar green
property uchar blue
element camera 1
property float view_px
property float view_py
property float view_pz
property float x_axisx
property float x_axisy
property float x_axisz
property float y_axisx
property float y_axisy
property float y_axisz
property float z_axisx
property float z_axisy
property float z_axisz
property float focal
property float scalex
property float scaley
property float centerx
property float centery
property int viewportx
property int viewporty
property float k1
property float k2
end_header
0.015160728 -0.091547467 -0.72379988 111 126 195
0.014805499 -0.091618605 -0.72377402 108 123 195
0.01723909 -0.090642884 -0.72312248 159 170 217
0.016449569 -0.091733396 -0.72464734 96 110 179
0.015726093 -0.090971 -0.72308332 144 156 212
0.020365112 -0.091470145 -0.72544312 92 96 157
0.01974502 -0.091696098 -0.72570038 82 86 151
0.019904446 -0.09158352 -0.7255252 88 93 156
0.019318324 -0.091384307 -0.72494227 104 114 175
0.018556526 -0.09176261 -0.72545981 85 94 160
0.018541582 -0.090555571 -0.72328961 158 171 216
0.01840844 -0.090689078 -0.72349191 151 163 211
0.018846447 -0.091109805 -0.72428566 124 138 194
0.022914054 -0.091732651 -0.72685391 62 48 111
0.021860793 -0.09173245 -0.72645414 67 61 125
0.024754668 -0.091312744 -0.72664571 82 64 124
0.024406949 -0.091330864 -0.72655797 82 66 126
0.021502586 -0.091289885 -0.7254408 96 97 155
0.022002237 -0.091680378 -0.72640038 70 63 127
0.0089354422 -0.093333609 -0.72520089 87 84 128
0.0094615305 -0.092510916 -0.72356439 100 109 169
0.0085075414 -0.093656048 -0.72575277 83 76 113
0.0086841425 -0.094024092 -0.72665119 75 62 94
0.0083348639 -0.092583969 -0.72326666 99 106 166
0.01336123 -0.091903567 -0.7237007 100 115 192
0.013554001 -0.092816293 -0.72554469 86 90 153
0.013533199 -0.093367405 -0.72660726 78 76 129
0.013184251 -0.093028978 -0.72582167 85 86 144
0.012424658 -0.092692442 -0.72489542 92 98 160
0.010894539 -0.092500865 -0.72398221 97 106 170
0.01039761 -0.093040608 -0.72503948 88 89 143
0.0098251514 -0.09352199 -0.72597474 80 72 118
0.01185142 -0.093459874 -0.726354 79 74 124
0.010664791 -0.093331769 -0.72576225 82 79 129
0.010025345 -0.092714109 -0.72421038 94 100 159
0.010328894 -0.093706079 -0.7265175 76 66 110
0.014801336 -0.092796817 -0.72598064 81 85 144
0.014532462 -0.092523679 -0.72534788 86 93 158
0.016939558 -0.092597969 -0.72640884 75 80 136
0.015746884 -0.092697352 -0.72614759 79 83 141
0.01383746 -0.093262568 -0.72651803 79 77 132
0.017225742 -0.091940269 -0.72533518 88 99 165
0.017076194 -0.091816574 -0.72504938 91 104 172
0.01671722 -0.092509732 -0.72615701 78 83 142
0.018234819 -0.092129819 -0.72604698 79 84 145
0.017708007 -0.092568524 -0.72666293 73 77 132
0.019986628 -0.091881 -0.72616726 72 72 136
0.0097529534 -0.090506367 -0.7205295 180 193 227
0.010510801 -0.090211473 -0.72039163 190 201 231
0.011209758 -0.090362564 -0.72082365 181 192 227
0.012505869 -0.091277063 -0.72246385 134 148 210
0.011244221 -0.090223789 -0.72065163 187 197 229
0.011272795 -0.090510793 -0.72104073 174 185 225
0.012957664 -0.090479866 -0.72149241 167 177 222
0.012781468 -0.090321317 -0.72121614 174 185 225
0.013401502 -0.089260571 -0.71986121 216 222 240
0.011834683 -0.09032429 -0.72096086 179 190 227
0.012920742 -0.090564817 -0.72160441 163 174 220
0.016114 -0.090294406 -0.72216988 168 178 221
0.016877417 -0.090633303 -0.72297567 159 171 218
0.013948372 -0.091187753 -0.72277725 131 144 209
0.017465103 -0.089226291 -0.72099417 207 213 235
0.015299508 -0.090522692 -0.72223032 158 168 218
0.016142696 -0.089055769 -0.72027385 211 216 237
0.014048561 -0.089792497 -0.72079653 190 198 230
0.014661967 -0.089751437 -0.72089469 189 196 229
0.014428102 -0.090255365 -0.72155923 168 178 222
0.015184354 -0.08912006 -0.72012079 213 218 238
0.015132485 -0.089904748 -0.72123557 180 188 226
0.018548183 -0.089548208 -0.72169971 195 204 232
0.018162597 -0.090437457 -0.72302234 167 178 221
0.0081697283 -0.092221811 -0.72248423 112 125 186
0.0072013699 -0.092583172 -0.72283685 102 109 167
0.024332954 -0.091647863 -0.72717273 65 44 106
0.0090817157 -0.094367899 -0.72750127 76 59 86
0.01313102 -0.094128586 -0.72794998 83 71 105
0.013832838 -0.094070613 -0.72796988 84 72 107
0.016326286 -0.093473509 -0.72772616 78 71 111
0.015720868 -0.093230128 -0.72713679 74 72 120
0.015132584 -0.093857266 -0.72796971 81 70 106
0.01755436 -0.092977397 -0.72731066 73 72 118
0.020843651 -0.092798501 -0.72802579 69 53 95
0.02113517 -0.093362316 -0.72904044 76 54 83
0.020275841 -0.09326154 -0.72860628 75 56 87
0.020259367 -0.092359446 -0.72713035 64 56 110
0.020161461 -0.093063727 -0.72824669 73 55 92
0.018190028 -0.092677429 -0.72701669 69 69 121
0.018552024 -0.093238272 -0.72803986 76 65 102
0.019927848 -0.092499584 -0.72725731 66 58 110
0.018806163 -0.093357921 -0.72831213 77 63 96
0.018094741 -0.093868472 -0.72892606 84 66 89
0.023540892 -0.092196465 -0.72792834 62 42 94
0.02349966 -0.091824464 -0.72723556 59 40 102
0.024480836 -0.092404351 -0.72861826 64 40 85
0.022270691 -0.092278756 -0.72767776 62 48 99
0.023357904 -0.092658028 -0.72872198 66 46 86
0.022660183 -0.093613312 -0.73002374 77 51 71
0.023737075 -0.093375124 -0.73005754 74 48 69
0.021868469 -0.092741773 -0.72828478 68 51 92
0.022400152 -0.092797302 -0.728585 68 49 88
0.02331946 -0.092721865 -0.7288233 66 47 85
0.023213606 -0.092881769 -0.72904348 68 47 82
0 0 0 1 0 0 0 1 0 0 0 1 0 0 0 0 0 102 1 0 0
