ply
format ascii 1.0
comment PCL generated
element vertex 112
property float x
property float y
property float z
property uchar red
property uchar green
property uchar blue
element camera 1
property float view_px
property float view_py
property float view_pz
property float x_axisx
property float x_axisy
property float x_axisz
property float y_axisx
property float y_axisy
property float y_axisz
property float z_axisx
property float z_axisy
property float z_axisz
property float focal
property float scalex
property float scaley
property float centerx
property float centery
property int viewportx
property int viewporty
property float k1
property float k2
end_header
-0.2369878 0.14712536 -0.83676291 68 52 58
-0.23672773 0.14721039 -0.83693552 58 43 49
-0.23480284 0.15443921 -0.83224714 34 22 27
-0.23558523 0.15083435 -0.83119226 93 76 80
-0.23510492 0.15041123 -0.82941628 121 101 107
-0.23536782 0.15140942 -0.83115888 85 68 73
-0.23502511 0.15095806 -0.82974148 109 89 96
-0.23527174 0.15133393 -0.83081275 90 73 78
-0.23572294 0.15047072 -0.83121401 99 81 85
-0.23480211 0.15159784 -0.82959139 105 86 93
-0.23483513 0.15267009 -0.83028978 90 74 80
-0.23482424 0.15101033 -0.82877851 130 109 117
-0.23483454 0.15220888 -0.82984382 102 85 92
-0.23485707 0.15196957 -0.82936788 119 100 108
-0.23544171 0.14710987 -0.83045638 95 75 80
-0.23564936 0.14724906 -0.83130485 86 66 71
-0.23548014 0.14664829 -0.83079803 89 69 74
-0.23574364 0.14670855 -0.83191878 77 58 62
-0.23570995 0.1473134 -0.83154345 84 64 69
-0.2350453 0.14817277 -0.82899195 117 95 101
-0.23508781 0.14716686 -0.82900441 112 90 96
-0.23545487 0.14964753 -0.83030087 108 88 93
-0.23487514 0.14964028 -0.82866985 127 105 113
-0.23491888 0.14880215 -0.82870352 123 101 108
-0.23495144 0.14751428 -0.82865793 118 95 102
-0.23390712 0.14284182 -0.82947618 66 49 67
-0.23459356 0.14430259 -0.83085048 65 47 60
-0.23326996 0.14277098 -0.8307209 50 31 53
-0.23441866 0.14329049 -0.82924521 74 58 72
-0.23388214 0.14381441 -0.831438 53 34 51
-0.23308349 0.14327686 -0.83211809 39 18 40
-0.23396958 0.14354898 -0.83072752 59 40 57
-0.23472942 0.14450738 -0.82942277 84 66 77
-0.23529299 0.14573927 -0.83073395 82 63 70
-0.23522387 0.14527948 -0.83085752 76 58 66
-0.23480107 0.14519304 -0.82910216 95 75 85
-0.23497599 0.14591083 -0.82920015 101 80 88
-0.23462887 0.14449917 -0.82899398 89 70 82
-0.23246497 0.14216682 -0.83077002 31 11 35
-0.23275585 0.1422016 -0.83024997 39 19 42
-0.23271115 0.14169024 -0.8287046 36 19 39
-0.23322639 0.16071901 -0.83498108 62 51 58
-0.23303916 0.16132013 -0.83526772 59 59 58
-0.2324442 0.16076395 -0.83615655 44 47 48
-0.23277169 0.16003591 -0.83565801 50 39 49
-0.23355903 0.1610038 -0.83448386 70 58 63
-0.23295651 0.16095519 -0.8353886 56 53 55
-0.23414826 0.15862712 -0.83349675 71 56 61
-0.23356405 0.15877168 -0.83441329 62 41 54
-0.23392057 0.16037832 -0.83392966 77 53 65
-0.23429573 0.15848643 -0.83326072 73 59 63
-0.23388869 0.1604251 -0.83398139 77 52 65
-0.23364943 0.15718578 -0.8354401 42 22 39
-0.23485111 0.15706995 -0.83369333 60 51 52
-0.2345062 0.1573716 -0.83388418 60 48 52
-0.23409066 0.15649971 -0.8355431 37 20 34
-0.23486444 0.1568656 -0.8339088 57 47 49
-0.23378895 0.15788366 -0.83441448 58 40 51
-0.23312879 0.15799351 -0.83532071 49 25 44
-0.23506649 0.15499859 -0.8349005 29 19 26
-0.23481353 0.15479255 -0.83263284 31 20 24
-0.23500073 0.15479425 -0.83432525 27 17 24
-0.23503724 0.15529625 -0.83460778 34 24 30
-0.23499915 0.15606752 -0.83419031 46 37 40
-0.23544858 0.15325023 -0.8353737 33 21 30
-0.23561673 0.15245785 -0.83467597 45 32 39
-0.23541366 0.1515688 -0.83524609 34 22 28
-0.23564105 0.15119477 -0.83440542 49 36 41
-0.23570766 0.15130176 -0.8341912 53 40 45
-0.23587003 0.15042563 -0.83350104 66 51 54
-0.23583454 0.15158673 -0.83315331 65 51 55
-0.23543978 0.1531799 -0.83473229 37 25 32
-0.23553631 0.15285407 -0.83455235 42 30 37
-0.23546644 0.15279925 -0.83374345 45 32 38
-0.23575172 0.1519006 -0.83341891 60 46 50
-0.23552729 0.15235302 -0.83285153 54 40 44
-0.23673669 0.14763138 -0.83561176 62 47 52
-0.23642553 0.14761415 -0.83497792 57 41 45
-0.23758397 0.14669789 -0.83590025 95 77 83
-0.23662156 0.14730397 -0.83490652 66 50 54
-0.23642965 0.1440711 -0.83543599 30 23 25
-0.23687755 0.14605169 -0.83458245 78 61 65
-0.23705953 0.14554662 -0.83537948 71 57 61
-0.23644879 0.14429045 -0.83528191 35 26 29
-0.23484971 0.14939372 -0.82822317 131 109 117
-0.2348489 0.14947864 -0.82818782 131 110 118
-0.2349848 0.14700766 -0.82756662 126 106 113
-0.234521 0.14275371 -0.82781082 90 74 86
-0.23543014 0.14478892 -0.82690799 129 108 109
-0.23552699 0.14432664 -0.8265391 132 111 111
-0.23468155 0.14344467 -0.82778454 98 80 90
-0.23475125 0.14503314 -0.82829052 104 84 93
-0.23477733 0.14400691 -0.82782906 103 84 93
-0.23558249 0.14456122 -0.82609254 138 119 117
-0.235577 0.14470871 -0.82563525 142 125 124
-0.2356481 0.14456642 -0.82511002 147 131 129
-0.23557565 0.14466742 -0.82580578 141 122 121
-0.23467013 0.14228474 -0.82663745 100 82 88
-0.23440501 0.14216241 -0.82679683 92 74 81
-0.23425201 0.14223582 -0.82729167 85 68 78
-0.23588003 0.14061153 -0.82610595 134 113 113
-0.23472767 0.14146787 -0.82654053 101 82 87
-0.23301165 0.1413113 -0.82809496 47 28 45
-0.23549424 0.14227849 -0.82537693 130 111 107
-0.23546937 0.14225958 -0.82540995 129 110 107
-0.23577145 0.14207144 -0.82527304 137 118 114
-0.23546711 0.14014541 -0.82675147 118 97 102
-0.23350152 0.1410843 -0.8278234 61 42 57
-0.2325666 0.14101583 -0.82814848 33 16 34
-0.23356578 0.14034992 -0.82778919 62 43 57
-0.23271658 0.14115703 -0.82832956 37 19 38
-0.2326629 0.14060627 -0.82777721 37 21 36
0 0 0 1 0 0 0 1 0 0 0 1 0 0 0 0 0 112 1 0 0
