ply
format ascii 1.0
comment PCL generated
element vertex 148
property float x
property float y
property float z
property uchar red
property uchar green
property uchar blue
element camera 1
property float view_px
property float view_py
property float view_pz
property float x_axisx
property float x_axisy
property float x_axisz
property float y_axisx
property float y_axisy
property float y_axisz
property float z_axisx
property float z_axisy
property float z_axisz
property float focal
property float scalex
property float scaley
property float centerx
property float centery
property int viewportx
property int viewporty
property float k1
property float k2
end_header
-0.15818864 -0.33671486 -0.72648096 83 57 64
-0.15533525 -0.33761653 -0.72345769 100 92 78
-0.15525107 -0.33755258 -0.72337055 100 92 77
-0.15780428 -0.33646616 -0.72608227 84 59 63
-0.15643403 -0.3377533 -0.72461075 95 82 75
-0.15638822 -0.33640727 -0.72459352 89 73 67
-0.1564112 -0.33747333 -0.7245931 94 80 74
-0.15569311 -0.33683151 -0.72384077 93 81 71
-0.15542303 -0.33670264 -0.72352844 90 79 69
-0.1555015 -0.337019 -0.72363192 95 84 72
-0.15626179 -0.33555144 -0.7244277 80 61 58
-0.1584603 -0.33824259 -0.72681808 88 66 68
-0.15790136 -0.34145287 -0.72641045 109 109 82
-0.15669002 -0.34178847 -0.72515237 93 85 72
-0.15592739 -0.34152684 -0.72432578 79 62 63
-0.15759347 -0.33986738 -0.72596836 93 79 73
-0.15730135 -0.3403492 -0.7256943 92 79 72
-0.15776964 -0.34145021 -0.72627079 107 106 81
-0.15706101 -0.33942762 -0.72537231 82 60 66
-0.15664299 -0.3386257 -0.72487688 87 69 70
-0.15546206 -0.33850306 -0.72362602 94 83 75
-0.15496536 -0.33955184 -0.72317398 85 70 68
-0.15702616 -0.33878469 -0.72529083 84 63 68
-0.155247 -0.33847678 -0.72339797 95 85 75
-0.15752874 -0.33847517 -0.72579885 85 63 69
-0.15794997 -0.34349376 -0.7266444 103 110 79
-0.15776928 -0.34355444 -0.72645873 100 106 77
-0.15636589 -0.34255415 -0.72488004 84 75 66
-0.15792479 -0.34274784 -0.72654861 106 112 81
-0.15670806 -0.34411722 -0.72538722 81 79 65
-0.15677898 -0.34563169 -0.7255649 83 80 61
-0.15726253 -0.34489048 -0.72604322 86 90 68
-0.15691389 -0.34450498 -0.72563773 83 83 66
-0.15783514 -0.34721643 -0.72685826 84 86 68
-0.1577227 -0.34689543 -0.72670656 85 87 67
-0.15497971 -0.33602193 -0.72298801 81 69 61
-0.15450223 -0.33678898 -0.72246718 90 80 70
-0.1538052 -0.33768034 -0.72174966 90 79 69
-0.15415724 -0.33495826 -0.72193414 73 56 55
-0.15296118 -0.33704063 -0.72072774 74 57 57
-0.15334965 -0.3364442 -0.72112602 74 57 57
-0.15441565 -0.33825728 -0.72248733 95 86 74
-0.15402862 -0.33961803 -0.72215283 80 63 62
-0.1538455 -0.33847138 -0.72186512 92 82 71
-0.15399802 -0.33997846 -0.72214407 77 58 59
-0.15397567 -0.33840823 -0.7220071 93 83 71
-0.15314829 -0.33882624 -0.7210958 84 70 64
-0.15272085 -0.33893657 -0.72061437 78 63 60
-0.15338483 -0.33890557 -0.72137487 87 75 66
-0.16613168 -0.34037831 -0.73637027 93 76 77
-0.16660227 -0.34178677 -0.73707515 89 82 74
-0.16583018 -0.34113804 -0.7358771 95 81 78
-0.1658915 -0.34117541 -0.73595595 95 81 78
-0.16518137 -0.3411395 -0.73501951 101 84 85
-0.16490616 -0.34077591 -0.73479784 101 87 87
-0.16651219 -0.3421385 -0.73693049 90 82 75
-0.1673196 -0.3426578 -0.73831344 83 81 73
-0.16747077 -0.34316456 -0.73858285 81 80 73
-0.16736062 -0.34203455 -0.73836702 84 81 73
-0.16634275 -0.3441762 -0.73683482 90 85 75
-0.1660213 -0.34487042 -0.73645037 93 88 75
-0.16685893 -0.34493032 -0.73767257 85 83 74
-0.16525047 -0.34461272 -0.73547906 92 85 69
-0.16562437 -0.34548274 -0.73603755 93 88 72
-0.16576089 -0.3430585 -0.73591787 93 84 73
-0.16575691 -0.34216806 -0.7357949 94 84 76
-0.16504793 -0.34315494 -0.73501015 97 86 76
-0.16680413 -0.34578001 -0.73769563 85 84 73
-0.1648398 -0.34593543 -0.7351473 89 82 65
-0.16458425 -0.34681979 -0.73498863 83 73 60
-0.16471736 -0.34579733 -0.73497415 90 83 64
-0.16056001 -0.33695832 -0.72968346 87 71 78
-0.16041641 -0.33706132 -0.72948647 87 70 77
-0.15990244 -0.33742535 -0.7287811 88 68 75
-0.15871815 -0.3374688 -0.72713137 83 58 63
-0.16147825 -0.33934492 -0.73079485 107 85 96
-0.15965489 -0.34069481 -0.72855365 111 105 88
-0.16118538 -0.33853436 -0.73057222 104 89 96
-0.15960269 -0.34054762 -0.72851437 110 105 88
-0.16045685 -0.34014449 -0.72953361 109 96 91
-0.16158068 -0.34150299 -0.73062217 114 82 93
-0.16052173 -0.33945972 -0.72969848 107 96 93
-0.16160925 -0.34108117 -0.7307108 113 82 94
-0.15926012 -0.33904463 -0.72799069 98 84 79
-0.15861981 -0.33944497 -0.72712123 97 84 73
-0.15968294 -0.33988518 -0.7286517 107 102 88
-0.159695 -0.33977634 -0.72866011 106 100 88
-0.15895064 -0.338027 -0.7274754 88 65 70
-0.15859957 -0.34001827 -0.7271378 101 93 76
-0.1588887 -0.33993176 -0.72753775 102 95 79
-0.15869434 -0.34560153 -0.7276358 95 108 76
-0.1586519 -0.34512159 -0.72754407 97 110 77
-0.15864712 -0.34430209 -0.72745878 102 114 80
-0.15881421 -0.345368 -0.72773945 96 109 77
-0.15920682 -0.34417018 -0.72804064 103 113 82
-0.15903519 -0.34306878 -0.72776681 108 115 83
-0.15932515 -0.34403285 -0.72815508 104 113 83
-0.16032396 -0.34479794 -0.72928047 101 110 85
-0.16147366 -0.34429908 -0.7305249 104 100 89
-0.16083473 -0.34450135 -0.72980785 103 109 87
-0.16008383 -0.34182835 -0.72889191 114 99 88
-0.16001257 -0.34283051 -0.7288366 110 107 86
-0.16085814 -0.34192669 -0.72976953 114 91 90
-0.16097829 -0.34342578 -0.72994304 108 100 89
-0.16017176 -0.34190157 -0.72899312 114 98 88
-0.15944514 -0.34732842 -0.72873884 84 88 71
-0.16018887 -0.34650356 -0.72937155 91 97 78
-0.16097523 -0.34693769 -0.73028201 89 92 79
-0.15981747 -0.3467893 -0.72903228 89 94 75
-0.1596611 -0.34742057 -0.72898388 84 87 71
-0.15869616 -0.3470867 -0.72783619 86 90 70
-0.16261388 -0.33584809 -0.73234349 82 72 75
-0.16220774 -0.33656612 -0.7318784 93 87 88
-0.16351625 -0.33746216 -0.73357397 98 87 91
-0.16206971 -0.33763316 -0.73176873 106 102 104
-0.16177103 -0.33637458 -0.73130023 88 76 81
-0.16322944 -0.33834502 -0.73315626 105 97 100
-0.16418524 -0.3397024 -0.73410189 103 91 92
-0.16368102 -0.33845437 -0.73370206 103 93 96
-0.16315895 -0.33914348 -0.73291922 107 100 100
-0.16452985 -0.33865809 -0.73472834 99 86 90
-0.16426072 -0.34087232 -0.73398036 105 93 91
-0.16452672 -0.34169987 -0.73416764 105 89 88
-0.16305017 -0.3416017 -0.73236603 113 88 95
-0.16312985 -0.34174213 -0.73244035 113 87 95
-0.16236477 -0.3415229 -0.73153538 116 87 99
-0.1626537 -0.33949101 -0.73223555 110 98 102
-0.16202998 -0.34084389 -0.7312479 115 89 100
-0.16174525 -0.34080192 -0.73090863 113 82 95
-0.16177692 -0.33965409 -0.73112798 110 89 99
-0.16357678 -0.34312975 -0.73317724 105 85 84
-0.16375904 -0.34385037 -0.73350751 102 85 79
-0.16423371 -0.34270552 -0.73392385 103 87 84
-0.16477856 -0.34236309 -0.73454446 102 88 83
-0.16353133 -0.34385198 -0.73322737 103 85 80
-0.16410813 -0.34250808 -0.73374021 105 87 85
-0.16360047 -0.34506059 -0.73338455 97 90 75
-0.16329668 -0.34378132 -0.73291713 105 85 82
-0.16313492 -0.34350738 -0.73267961 106 85 84
-0.16238378 -0.34319961 -0.73160362 111 91 93
-0.16247973 -0.34372684 -0.73175472 108 93 91
-0.16197604 -0.34260252 -0.73104644 114 88 96
-0.16254467 -0.34578517 -0.73191869 98 104 84
-0.16315147 -0.34651911 -0.73292893 90 89 74
-0.16336399 -0.34762222 -0.73345321 81 73 65
-0.16285305 -0.34603891 -0.73240805 95 98 80
-0.16333836 -0.34619537 -0.7331292 92 91 74
-0.16151908 -0.34733906 -0.73093623 88 88 79
0 0 0 1 0 0 0 1 0 0 0 1 0 0 0 0 0 148 1 0 0
