ply
format ascii 1.0
comment PCL generated
element vertex 142
property float x
property float y
property float z
property uchar red
property uchar green
property uchar blue
element camera 1
property float view_px
property float view_py
property float view_pz
property float x_axisx
property float x_axisy
property float x_axisz
property float y_axisx
property float y_axisy
property float y_axisz
property float z_axisx
property float z_axisy
property float z_axisz
property float focal
property float scalex
property float scaley
property float centerx
property float centery
property int viewportx
property int viewporty
property float k1
property float k2
end_header
-0.10410575 -0.10645436 -0.72444153 170 180 201
-0.10358281 -0.10642818 -0.72450352 167 178 197
-0.10229636 -0.10679229 -0.72496027 142 151 177
-0.099667668 -0.10701815 -0.72545123 99 92 132
-0.10110196 -0.10725238 -0.72571558 108 107 141
-0.10156297 -0.10688848 -0.72514665 129 133 163
-0.10167573 -0.10713619 -0.72550881 120 124 154
-0.10192352 -0.10555565 -0.72331882 181 189 213
-0.10308215 -0.10619751 -0.72419906 170 181 200
-0.10242179 -0.1063652 -0.7244007 158 167 191
-0.10150605 -0.10589833 -0.72375834 165 172 199
-0.096351154 -0.10739668 -0.72684264 82 68 88
-0.097867325 -0.10731272 -0.72633177 85 74 104
-0.099133641 -0.10594188 -0.72397202 141 140 175
-0.098194607 -0.10661836 -0.72521561 114 107 137
-0.09886197 -0.10687748 -0.72543335 103 96 131
-0.097942725 -0.10647288 -0.72506237 119 113 142
-0.0981436 -0.10554342 -0.72344267 154 158 189
-0.098415293 -0.10552614 -0.72338575 156 159 191
-0.097090788 -0.10644466 -0.72516567 119 113 138
-0.096339189 -0.10590924 -0.72427285 136 138 163
-0.096531034 -0.10639637 -0.72513187 119 115 139
-0.098516248 -0.10585635 -0.72397083 144 143 174
-0.092504032 -0.10673064 -0.72614491 97 79 106
-0.09200488 -0.10598589 -0.72493744 119 109 136
-0.093656518 -0.10673418 -0.72605997 99 85 108
-0.092860661 -0.10568597 -0.7243678 128 126 150
-0.092034027 -0.10572652 -0.72450083 126 121 147
-0.09285941 -0.10671408 -0.72608918 98 82 107
-0.093877651 -0.10566929 -0.72419399 133 134 158
-0.093437217 -0.10537431 -0.72373343 141 145 170
-0.095297456 -0.10641219 -0.72530407 114 110 131
-0.094403952 -0.10593885 -0.72459501 126 126 148
-0.093704917 -0.10591705 -0.72466791 123 121 144
-0.092369005 -0.10496981 -0.72317642 150 156 182
-0.088200554 -0.10497974 -0.72341681 135 130 167
-0.089980923 -0.10683487 -0.7265839 97 75 100
-0.088861555 -0.1061257 -0.72543818 113 99 126
-0.08939261 -0.10694252 -0.72687018 97 76 96
-0.08925809 -0.10571086 -0.72461224 118 107 140
-0.091340311 -0.10691716 -0.72653461 90 65 96
-0.090464599 -0.10588268 -0.72483355 116 104 136
-0.088901803 -0.1052215 -0.7237882 130 124 159
-0.089767948 -0.10557765 -0.72435033 123 113 147
-0.090481058 -0.10541344 -0.72404724 130 125 156
-0.088777617 -0.10528839 -0.72390509 127 120 156
-0.090540998 -0.10610158 -0.72519702 110 95 128
-0.084545426 -0.10601752 -0.72556907 124 115 134
-0.086270407 -0.10613634 -0.72579283 115 103 124
-0.087480307 -0.10672413 -0.72672391 107 90 105
-0.086640939 -0.10647885 -0.72632736 112 98 114
-0.084630415 -0.10599759 -0.72554058 124 114 134
-0.085689254 -0.10654026 -0.72639883 117 103 116
-0.08561483 -0.10541911 -0.72467607 119 113 143
-0.087217003 -0.10613332 -0.7257148 114 102 123
-0.084767267 -0.10484675 -0.7237668 125 124 161
-0.086746201 -0.10481821 -0.72336549 134 132 169
-0.087469652 -0.10539132 -0.72429806 127 121 151
-0.084880754 -0.10461865 -0.72332489 129 130 169
-0.083763264 -0.10685433 -0.72683918 126 109 114
-0.080687359 -0.10522378 -0.72444618 105 78 116
-0.081579961 -0.1063987 -0.72607774 121 98 111
-0.080107398 -0.10506579 -0.72419459 103 74 115
-0.081613377 -0.10539911 -0.72474521 106 83 117
-0.082913317 -0.10646602 -0.72626108 121 101 114
-0.080162629 -0.1053226 -0.72454137 107 78 114
-0.082197964 -0.10482717 -0.72385156 111 96 137
-0.083703548 -0.1051666 -0.72426897 126 121 152
-0.083660543 -0.10625372 -0.72594041 124 110 126
-0.08036916 -0.1043262 -0.72320843 93 66 122
-0.082888365 -0.10551158 -0.72485447 117 102 132
-0.081627101 -0.10460807 -0.72355455 106 87 134
-0.081211649 -0.10493769 -0.72408897 101 76 120
-0.10470465 -0.10815115 -0.72672695 126 126 147
-0.10410949 -0.1081439 -0.72681421 125 125 143
-0.10378326 -0.10811467 -0.72682172 125 126 142
-0.10358195 -0.10800191 -0.7266888 125 129 144
-0.10199811 -0.10780666 -0.72646791 113 112 134
-0.10086427 -0.10791497 -0.7266773 101 93 118
-0.10248168 -0.10757758 -0.72610426 120 125 148
-0.10074559 -0.10764444 -0.72629988 98 92 123
-0.099432051 -0.10752512 -0.72624511 82 71 110
-0.099035032 -0.10784741 -0.72679639 85 70 99
-0.10177406 -0.1052893 -0.72296792 188 195 219
-0.10162935 -0.10450094 -0.72198176 207 208 227
-0.10083817 -0.10488947 -0.72244382 189 191 217
-0.10065508 -0.10474065 -0.72223836 194 196 220
-0.097848542 -0.10489178 -0.72248816 180 187 211
-0.099005982 -0.10429589 -0.72160643 210 214 229
-0.097736895 -0.10505692 -0.7227177 172 180 207
-0.099421613 -0.10532993 -0.72296488 166 169 204
-0.099023208 -0.1048796 -0.72238868 184 189 214
-0.093643717 -0.1045941 -0.72236603 175 182 203
-0.093582638 -0.10459866 -0.72238237 175 182 203
-0.092455953 -0.10474511 -0.72278506 161 167 191
-0.08470463 -0.10431773 -0.72282636 137 140 180
-0.0844924 -0.10412952 -0.7225545 141 146 187
-0.083380654 -0.10418961 -0.7227788 129 128 173
-0.081560999 -0.10414455 -0.72283757 109 94 146
-0.083262153 -0.10385831 -0.72225308 138 139 184
-0.081015624 -0.10371252 -0.72219974 110 94 154
-0.088766351 -0.1070345 -0.72709739 100 79 94
-0.088371813 -0.10740393 -0.7276383 109 87 91
-0.090848535 -0.10723474 -0.72715938 89 62 86
-0.086771458 -0.10730537 -0.72752243 117 97 99
-0.08741039 -0.10688775 -0.72697109 107 90 101
-0.099926397 -0.10903318 -0.72817856 98 75 96
-0.10134511 -0.10819905 -0.72707218 102 93 114
-0.10120077 -0.108119 -0.72696948 101 92 114
-0.10316739 -0.10888761 -0.72793418 118 111 123
-0.098976456 -0.10808586 -0.72710967 88 71 96
-0.099389225 -0.10826023 -0.72722077 90 72 98
-0.098190002 -0.10860185 -0.72785717 96 75 93
-0.097674757 -0.10901064 -0.72842687 102 78 90
-0.096480899 -0.10774876 -0.72724921 86 69 86
-0.098822936 -0.10821331 -0.7272858 90 72 95
-0.098478779 -0.10846876 -0.72764647 94 74 94
-0.096494377 -0.10969783 -0.72912562 117 91 93
-0.095867448 -0.108311 -0.72783291 96 77 87
-0.096383438 -0.10890396 -0.72842503 104 81 89
-0.096841998 -0.10756341 -0.72695714 83 67 87
-0.092235394 -0.10873317 -0.72819382 106 77 89
-0.0919507 -0.10975826 -0.72874248 125 97 97
-0.09299574 -0.10872768 -0.72833931 105 76 89
-0.09282364 -0.10904329 -0.72849172 111 82 91
-0.094293423 -0.10974693 -0.72914767 122 95 96
-0.092547819 -0.10804901 -0.72781801 94 65 84
-0.093586966 -0.108477 -0.72810823 101 74 87
-0.095530227 -0.10907308 -0.72847527 110 89 93
-0.09560468 -0.10955957 -0.72888815 118 96 96
-0.095528558 -0.10967118 -0.72898984 120 98 96
-0.088185668 -0.10917927 -0.72830951 127 102 99
-0.089529797 -0.10914091 -0.72854322 130 107 100
-0.088343471 -0.10953576 -0.72844923 130 104 101
-0.088013142 -0.10928358 -0.72831041 128 102 100
-0.088565104 -0.10961464 -0.72851425 131 106 101
-0.089409061 -0.10883314 -0.72839564 126 103 98
-0.091055423 -0.10915492 -0.72842777 120 93 95
-0.091147698 -0.10814736 -0.72782481 101 73 87
-0.090408936 -0.10913476 -0.72847772 124 99 97
-0.090808183 -0.10762517 -0.72754943 94 67 84
-0.086307235 -0.10765343 -0.72771573 122 101 101
0 0 0 1 0 0 0 1 0 0 0 1 0 0 0 0 0 142 1 0 0
