ply
format ascii 1.0
comment PCL generated
element vertex 172
property float x
property float y
property float z
property uchar red
property uchar green
property uchar blue
element camera 1
property float view_px
property float view_py
property float view_pz
property float x_axisx
property float x_axisy
property float x_axisz
property float y_axisx
property float y_axisy
property float y_axisz
property float z_axisx
property float z_axisy
property float z_axisz
property float focal
property float scalex
property float scaley
property float centerx
property float centery
property int viewportx
property int viewporty
property float k1
property float k2
end_header
-0.211623 0.39381716 -0.81966764 161 126 141
-0.21242708 0.39323077 -0.82058167 171 140 150
-0.21299887 0.38953674 -0.8205002 212 193 203
-0.2126224 0.38927028 -0.81998122 208 191 198
-0.21237494 0.38944447 -0.81968981 200 182 189
-0.21237265 0.3874709 -0.81929719 213 195 200
-0.21239598 0.38665909 -0.81907916 209 193 193
-0.21240686 0.38772824 -0.81941074 214 196 203
-0.21180627 0.38786426 -0.81864095 199 182 186
-0.21948716 0.40465602 -0.83233285 177 154 150
-0.21902005 0.40510425 -0.83204675 175 152 148
-0.21713692 0.40591142 -0.83030516 173 144 147
-0.21743129 0.40524971 -0.83027291 178 146 152
-0.21891066 0.40468541 -0.83168077 178 152 152
-0.21736383 0.40558243 -0.83038324 175 145 149
-0.21870351 0.40433186 -0.83123767 182 152 155
-0.21669377 0.40467608 -0.82908106 185 146 158
-0.21789534 0.40252802 -0.82950407 185 146 158
-0.21840274 0.40046191 -0.829207 184 154 157
-0.21780038 0.40200555 -0.82917047 186 150 158
-0.21816945 0.40113834 -0.82922649 185 152 157
-0.21796447 0.40199116 -0.82935423 185 149 158
-0.21950614 0.40042344 -0.83046758 181 144 153
-0.21849141 0.40095714 -0.82952154 184 150 156
-0.21986808 0.40374923 -0.83233815 179 152 152
-0.21726328 0.40386376 -0.82934457 186 144 160
-0.21799605 0.40344474 -0.83001685 184 144 158
-0.22049092 0.40089551 -0.83181274 177 135 150
-0.21753584 0.40358377 -0.82954013 185 143 159
-0.21879798 0.40291008 -0.83071917 182 143 155
-0.2179586 0.40407774 -0.8302511 184 148 158
-0.22010642 0.40307823 -0.83233905 178 148 151
-0.21660537 0.40384144 -0.82858801 189 150 162
-0.22147791 0.3984513 -0.8321321 186 151 159
-0.2209487 0.39950711 -0.83182251 182 143 156
-0.21948741 0.39671245 -0.82908374 175 160 158
-0.21973675 0.39657354 -0.82928556 184 170 167
-0.22064964 0.3993535 -0.83136177 184 149 160
-0.21990289 0.39743236 -0.82980692 181 160 161
-0.21945107 0.39991373 -0.83022076 179 145 153
-0.2186238 0.39934528 -0.82906163 179 153 154
-0.2201966 0.40006855 -0.83113855 177 137 151
-0.2190402 0.39993778 -0.8297537 180 148 154
-0.21954712 0.39977866 -0.830284 178 144 152
-0.21945108 0.39905158 -0.82991505 175 145 151
-0.21967106 0.39635161 -0.82913083 182 168 166
-0.21431279 0.4004328 -0.82458127 187 157 169
-0.21380343 0.40115416 -0.82445401 184 152 166
-0.20997339 0.40330407 -0.82172644 153 116 134
-0.21103628 0.40170464 -0.8220132 165 129 145
-0.21045791 0.40163779 -0.82140464 152 116 132
-0.21216747 0.40104094 -0.82281989 185 149 164
-0.21192038 0.40078831 -0.82245165 178 142 157
-0.21242893 0.40135953 -0.82322305 185 149 165
-0.21194477 0.4021427 -0.82311225 176 139 156
-0.21040986 0.40395382 -0.82245123 151 114 133
-0.21260007 0.40097404 -0.82321215 190 154 169
-0.21112396 0.40426424 -0.82329011 153 116 136
-0.2117119 0.40388572 -0.82368857 160 123 143
-0.21254891 0.40355131 -0.82435119 168 132 151
-0.21414098 0.39984852 -0.82421643 192 163 173
-0.21468548 0.39856729 -0.82429445 197 173 177
-0.21475333 0.39922944 -0.8245818 193 167 173
-0.21426481 0.39680022 -0.82318914 188 173 169
-0.21309188 0.39935428 -0.82301497 192 162 171
-0.21332541 0.39925864 -0.82321626 194 164 173
-0.21465811 0.39699244 -0.8236708 194 177 174
-0.21302795 0.39789808 -0.82236153 180 160 162
-0.21345346 0.3980889 -0.82287568 187 165 168
-0.2127042 0.39721656 -0.82175934 171 153 155
-0.21285978 0.39729616 -0.82194668 174 157 157
-0.21205708 0.39932641 -0.82196599 173 141 153
-0.21106793 0.39973864 -0.82114691 154 121 133
-0.21121356 0.39992771 -0.8213684 158 124 137
-0.21165419 0.3997736 -0.82174516 167 133 146
-0.21454984 0.39508399 -0.82316875 181 167 162
-0.21405236 0.39600343 -0.82277954 180 167 162
-0.21516553 0.39641249 -0.82397741 197 182 176
-0.21392426 0.39552706 -0.82258475 176 163 158
-0.2160694 0.39348167 -0.82451755 191 175 168
-0.21564195 0.39525506 -0.82431346 196 181 174
-0.21461584 0.39347088 -0.82297581 181 162 160
-0.21418302 0.39375374 -0.8225587 179 159 159
-0.21337841 0.39383301 -0.82170355 176 153 157
-0.21341325 0.39303088 -0.82159805 178 151 157
-0.2141874 0.39350048 -0.82251823 180 158 159
-0.21518661 0.39303246 -0.82351422 184 165 162
-0.21303031 0.39272562 -0.82112986 178 147 157
-0.21375409 0.39070523 -0.82143801 199 175 183
-0.21327929 0.39035466 -0.82090896 203 180 190
-0.21350983 0.39004889 -0.82107538 207 185 194
-0.21428868 0.39099395 -0.82201362 196 170 176
-0.21415772 0.39107943 -0.82190228 195 169 175
-0.21505976 0.39160216 -0.82300699 193 170 171
-0.21503083 0.39092222 -0.82277435 198 175 177
-0.21312942 0.39253077 -0.82119662 179 148 158
-0.21621664 0.3915779 -0.82424968 197 180 174
-0.22076438 0.40438443 -0.83361757 189 172 163
-0.22048137 0.40508199 -0.8335439 177 153 153
-0.21983567 0.40449712 -0.83260781 178 153 152
-0.21968772 0.40543365 -0.83283585 170 142 145
-0.22094791 0.40134102 -0.83263087 177 139 150
-0.22145477 0.40151736 -0.83326423 175 142 149
-0.22211039 0.40144801 -0.83396161 171 142 145
-0.22115541 0.4019562 -0.83310425 179 147 152
-0.22237064 0.40165079 -0.83432806 170 145 144
-0.22202364 0.40273735 -0.83436733 176 158 151
-0.22192872 0.40192124 -0.83394504 174 148 148
-0.22156757 0.40098265 -0.8331809 173 136 146
-0.22330257 0.4023385 -0.83566368 167 142 144
-0.22260955 0.40360761 -0.83542621 177 145 154
-0.22186375 0.40369633 -0.83459735 181 158 157
-0.22058646 0.40260142 -0.83270699 181 150 153
-0.2205919 0.40293539 -0.83284634 182 155 155
-0.22304162 0.39769638 -0.8336966 182 158 155
-0.22361568 0.39755693 -0.83439291 176 144 147
-0.22171703 0.40017623 -0.83304483 171 131 145
-0.22290224 0.39873731 -0.83387816 175 148 148
-0.22290154 0.39806998 -0.83365667 180 155 153
-0.22228038 0.39793107 -0.83292443 185 155 158
-0.22330369 0.39646587 -0.83374012 185 147 154
-0.2160193 0.4049654 -0.82850295 177 140 150
-0.21540773 0.40493211 -0.82790011 172 135 148
-0.21511658 0.40490153 -0.82759583 170 134 147
-0.21538346 0.40528631 -0.82807994 166 131 142
-0.21687938 0.4009198 -0.82769853 180 150 156
-0.21725592 0.40056324 -0.82795829 182 154 157
-0.21297398 0.40385604 -0.82493794 165 128 149
-0.21449055 0.40235615 -0.82582241 171 138 152
-0.21374992 0.40227821 -0.82493615 175 141 157
-0.21540153 0.40112478 -0.82619029 177 146 157
-0.21632768 0.40077621 -0.82705587 176 146 154
-0.21453598 0.40227351 -0.82582921 171 138 152
-0.21492107 0.40201965 -0.82612985 172 139 152
-0.2150306 0.40237507 -0.82641441 171 138 151
-0.21636204 0.40285239 -0.82791173 184 148 158
-0.21634993 0.40224281 -0.82766229 181 148 157
-0.21637051 0.40152928 -0.8274045 179 147 155
-0.2163135 0.40255094 -0.82774651 182 148 157
-0.21560504 0.40422153 -0.82769966 183 144 158
-0.21343246 0.40424266 -0.82556814 166 128 148
-0.2165177 0.4034794 -0.82832187 187 150 160
-0.21753788 0.3995699 -0.82791764 177 152 154
-0.21707796 0.40003961 -0.82757109 177 150 154
-0.21882254 0.39662543 -0.82834476 165 150 148
-0.2176744 0.39725843 -0.82734615 166 147 147
-0.21717189 0.39864653 -0.8272438 171 147 150
-0.21732041 0.3988803 -0.82746804 172 148 151
-0.21612456 0.3974202 -0.8254407 194 175 171
-0.2162232 0.3973487 -0.82557243 189 170 167
-0.21666244 0.39778498 -0.82638675 172 151 151
-0.21560831 0.39950758 -0.82566422 188 161 167
-0.21488976 0.39975205 -0.82494587 189 162 170
-0.21643321 0.39964437 -0.82666022 183 157 161
-0.21608062 0.40038401 -0.82656193 180 151 159
-0.21614106 0.39833397 -0.82578969 192 171 170
-0.21897234 0.39480484 -0.82782006 179 153 160
-0.2185147 0.39495835 -0.82740432 177 151 158
-0.21821244 0.3937982 -0.82681757 180 154 159
-0.21693271 0.39419967 -0.82578081 168 150 147
-0.21799023 0.39291263 -0.82641035 180 157 159
-0.2179089 0.39356792 -0.82649428 178 154 157
-0.21692172 0.39483926 -0.82592314 167 148 146
-0.21747254 0.39401838 -0.82621533 173 152 152
-0.21664689 0.39266154 -0.82510334 176 160 154
-0.21597959 0.39512348 -0.8246603 198 182 175
-0.21640947 0.39382306 -0.82506776 181 164 158
-0.21630153 0.39538196 -0.82521266 184 167 162
-0.21716738 0.3908726 -0.82513738 193 176 172
-0.21820059 0.39020488 -0.82610404 199 183 178
-0.21904533 0.3911089 -0.82716727 194 173 172
-0.21876876 0.39197883 -0.82698005 189 165 167
0 0 0 1 0 0 0 1 0 0 0 1 0 0 0 0 0 172 1 0 0
