ply
format ascii 1.0
comment PCL generated
element vertex 273
property float x
property float y
property float z
property uchar red
property uchar green
property uchar blue
element camera 1
property float view_px
property float view_py
property float view_pz
property float x_axisx
property float x_axisy
property float x_axisz
property float y_axisx
property float y_axisy
property float y_axisz
property float z_axisx
property float z_axisy
property float z_axisz
property float focal
property float scalex
property float scaley
property float centerx
property float centery
property int viewportx
property int viewporty
property float k1
property float k2
end_header
-0.13007578 -0.41827878 -0.70323896 150 113 116
-0.13002466 -0.41660452 -0.70322102 137 93 116
-0.13001065 -0.41607705 -0.70321703 133 87 116
-0.12948839 -0.41719484 -0.70278233 148 114 123
-0.13037902 -0.41622132 -0.70351076 130 79 112
-0.1298376 -0.42304143 -0.70295995 128 112 107
-0.12960184 -0.42109212 -0.70279688 144 121 113
-0.12979354 -0.42294225 -0.70292515 129 113 108
-0.13044165 -0.42126852 -0.70348799 147 119 108
-0.12953438 -0.42364857 -0.70265979 120 97 97
-0.12792738 -0.42188302 -0.70136094 127 108 110
-0.12724237 -0.42281851 -0.70070577 113 80 91
-0.12748145 -0.42325097 -0.70088875 110 75 87
-0.12751205 -0.42328268 -0.70091361 110 75 87
-0.12685378 -0.4236441 -0.70033354 103 61 77
-0.12653328 -0.4232274 -0.70013392 108 70 84
-0.12884529 -0.42392758 -0.70204479 114 84 89
-0.12823027 -0.42500436 -0.70148873 120 78 82
-0.12989877 -0.42659727 -0.7029205 145 106 91
-0.12961563 -0.42638901 -0.70267648 142 101 89
-0.12925214 -0.42490906 -0.70238382 126 92 90
-0.13053779 -0.42480215 -0.70350975 133 110 99
-0.12740603 -0.42516565 -0.70081437 116 77 83
-0.12751701 -0.42700675 -0.70097899 134 104 95
-0.12895271 -0.42672563 -0.70213467 141 102 90
-0.12846941 -0.42583805 -0.70170587 129 88 85
-0.12734681 -0.42444333 -0.700737 109 66 78
-0.1270348 -0.42590645 -0.70054257 121 87 89
-0.12602223 -0.42727444 -0.69982564 135 105 98
-0.1265589 -0.42657781 -0.70020437 128 96 93
-0.12676071 -0.42580369 -0.70032609 120 85 88
-0.12592287 -0.42474782 -0.69969034 113 73 82
-0.12607071 -0.42616129 -0.69982547 125 90 90
-0.12585554 -0.42789814 -0.69971192 143 115 104
-0.14201134 -0.41171029 -0.71428037 132 96 111
-0.14013484 -0.41132033 -0.71226144 148 113 136
-0.14147541 -0.41194957 -0.713705 134 100 114
-0.1401979 -0.41058215 -0.71232629 152 114 145
-0.14036012 -0.40976775 -0.71249723 157 113 154
-0.14101399 -0.40880001 -0.71319664 159 111 160
-0.14099872 -0.40933585 -0.71318251 155 111 153
-0.14054117 -0.41010717 -0.71269357 153 113 147
-0.14271791 -0.41597602 -0.71480817 137 103 103
-0.14273898 -0.41354102 -0.71496552 130 95 102
-0.1412067 -0.41597649 -0.71333164 134 103 102
-0.14253815 -0.41230014 -0.71484125 126 91 101
-0.14181176 -0.41473204 -0.71399367 132 99 102
-0.14108595 -0.41499531 -0.71326876 131 100 101
-0.14052401 -0.41564491 -0.71268237 132 102 101
-0.14219573 -0.41480353 -0.7143653 133 99 102
-0.1405022 -0.41241628 -0.71266794 138 106 119
-0.13960548 -0.41348639 -0.71173424 139 109 118
-0.13935341 -0.41352272 -0.71146423 141 111 121
-0.14064266 -0.41291335 -0.71283305 135 103 113
-0.1394078 -0.41462371 -0.71155393 135 106 110
-0.13938911 -0.41567782 -0.71156371 130 103 100
-0.14007828 -0.41431293 -0.71226597 132 102 106
-0.14309302 -0.41692591 -0.71522564 135 100 96
-0.14116628 -0.41987517 -0.71349978 128 87 80
-0.14198227 -0.4167223 -0.7141307 136 100 102
-0.14157985 -0.41975817 -0.71389347 128 87 78
-0.14244848 -0.41616499 -0.7145533 137 103 103
-0.14131695 -0.41818148 -0.71356076 133 94 94
-0.14215969 -0.41764674 -0.71434826 133 96 92
-0.14131011 -0.41915643 -0.71360278 130 90 86
-0.1393066 -0.41749215 -0.71156108 131 97 99
-0.13895895 -0.41929248 -0.71133143 131 89 97
-0.14132144 -0.41694146 -0.71349847 135 99 101
-0.13945849 -0.41703892 -0.71168184 131 99 99
-0.13920788 -0.41704631 -0.71143711 130 99 99
-0.13919051 -0.41667646 -0.71139741 130 101 99
-0.14296892 -0.4218908 -0.71515626 131 97 83
-0.14264762 -0.4208532 -0.71487361 128 92 76
-0.14122806 -0.42151296 -0.71343112 145 118 98
-0.14237577 -0.42095575 -0.71459097 131 96 79
-0.14224993 -0.42071918 -0.7144863 131 96 79
-0.14088227 -0.42089012 -0.71314818 139 106 93
-0.14106457 -0.42164141 -0.71326262 147 120 100
-0.14034422 -0.42079893 -0.71263587 139 104 96
-0.12393089 -0.42166227 -0.6984145 118 66 113
-0.12370197 -0.42370439 -0.69814658 105 68 80
-0.12443629 -0.42262727 -0.69871026 112 65 97
-0.12373364 -0.42279673 -0.69821739 111 67 95
-0.12178376 -0.42369059 -0.69698972 110 66 97
-0.12300973 -0.4222936 -0.69775105 114 68 104
-0.12173742 -0.42333889 -0.6969828 113 66 103
-0.12290091 -0.42144284 -0.69773608 120 67 119
-0.12419737 -0.42548725 -0.6985172 119 87 88
-0.12544712 -0.42640686 -0.69939762 128 96 93
-0.12478406 -0.42562744 -0.69892412 121 88 88
-0.12525509 -0.42541835 -0.69924384 119 84 87
-0.12568103 -0.42725807 -0.69957727 136 106 98
-0.12326617 -0.42419219 -0.69784707 107 73 81
-0.12419345 -0.42754596 -0.6985243 140 108 100
-0.12360912 -0.42487922 -0.69809502 114 81 85
-0.12325467 -0.42644677 -0.69784927 130 96 94
-0.12263246 -0.42628965 -0.69744223 131 97 97
-0.12178039 -0.42639142 -0.69691229 136 104 105
-0.12037686 -0.42734671 -0.69604295 152 123 123
-0.12210245 -0.42650965 -0.69711334 135 103 103
-0.12182432 -0.42565948 -0.69693625 128 96 100
-0.12157921 -0.42452419 -0.69683486 117 78 99
-0.12049545 -0.42585555 -0.69616544 136 99 117
-0.12260814 -0.42424056 -0.69742393 110 76 85
-0.12024105 -0.42408758 -0.69610697 119 67 115
-0.12110256 -0.42434379 -0.69657677 118 74 105
-0.12543029 -0.42876828 -0.69937295 158 131 125
-0.12454985 -0.42851341 -0.69875324 155 125 119
-0.12558003 -0.42862198 -0.69948477 156 128 121
-0.12337524 -0.4280687 -0.69792998 149 116 110
-0.12282781 -0.42867988 -0.69750524 162 131 129
-0.12214094 -0.42897007 -0.69705254 169 141 138
-0.1224364 -0.42792153 -0.69731313 150 117 112
-0.12063966 -0.42848179 -0.69615364 167 141 140
-0.13924424 -0.41201386 -0.71130663 149 117 136
-0.13516691 -0.41179925 -0.70770597 159 121 157
-0.13824409 -0.41192779 -0.7103554 150 110 137
-0.13572782 -0.41186276 -0.70818949 157 119 153
-0.13877806 -0.41251695 -0.71084481 146 108 128
-0.13886166 -0.41223711 -0.71092236 147 110 131
-0.13890837 -0.41515121 -0.71104681 134 105 107
-0.13792747 -0.41546965 -0.71014798 133 103 106
-0.13849097 -0.41407335 -0.71061516 139 105 116
-0.13821529 -0.41599217 -0.71041852 130 103 102
-0.13603932 -0.41486183 -0.7084462 135 98 110
-0.13838325 -0.41567689 -0.71056038 132 104 104
-0.13864921 -0.41300526 -0.71072882 144 107 125
-0.13849743 -0.41531751 -0.71065307 133 105 107
-0.13494608 -0.41420069 -0.70750773 142 106 126
-0.13633414 -0.41367507 -0.70870519 142 105 124
-0.13586545 -0.41216233 -0.7083109 154 117 148
-0.13787633 -0.41285634 -0.71003699 144 105 126
-0.13496096 -0.41237032 -0.70753145 155 118 150
-0.13506968 -0.41319993 -0.70762002 149 112 138
-0.13505161 -0.41273066 -0.70760727 152 115 145
-0.13903433 -0.41794121 -0.71132195 130 95 98
-0.13868366 -0.41887581 -0.71102476 131 91 99
-0.1371458 -0.41873872 -0.70956516 136 102 104
-0.13623443 -0.41974446 -0.70877129 140 104 106
-0.1374703 -0.41723016 -0.709773 135 107 104
-0.13734531 -0.41867971 -0.70974946 136 101 103
-0.13809319 -0.41738629 -0.71037042 133 102 102
-0.13678007 -0.41898432 -0.70923632 138 103 105
-0.13816792 -0.41859454 -0.71051943 133 96 101
-0.13631189 -0.41756871 -0.70874357 136 105 105
-0.13534908 -0.41776213 -0.70788682 136 103 106
-0.13664015 -0.41790897 -0.70904201 137 108 106
-0.13540716 -0.41859558 -0.70795161 140 108 107
-0.13523102 -0.41776267 -0.70778137 136 103 106
-0.13669845 -0.41607559 -0.70906556 130 99 102
-0.13655008 -0.41785011 -0.70896065 137 107 106
-0.13647361 -0.42246768 -0.70882726 142 102 110
-0.13774185 -0.4210211 -0.71012574 136 94 103
-0.13775387 -0.42173386 -0.71008152 145 109 111
-0.13665959 -0.42220598 -0.70902151 140 100 108
-0.13718773 -0.42273852 -0.70947391 151 120 119
-0.13676561 -0.4229342 -0.70906395 150 117 118
-0.13664654 -0.42180422 -0.70903832 139 98 107
-0.13507834 -0.42281643 -0.70748824 145 108 113
-0.1361547 -0.42151123 -0.70859534 141 102 108
-0.13622676 -0.42140937 -0.70867044 140 101 108
-0.13737498 -0.42000955 -0.70985198 136 95 102
-0.13810791 -0.42043793 -0.7105127 134 90 100
-0.13838281 -0.42010051 -0.71079576 133 88 99
-0.13711008 -0.42639345 -0.70907331 169 147 131
-0.13538174 -0.42503545 -0.70758885 153 119 117
-0.13558148 -0.42482248 -0.70779532 154 121 118
-0.13530096 -0.42586264 -0.70743686 155 122 116
-0.13665019 -0.42560542 -0.70872223 166 144 127
-0.1360812 -0.42498103 -0.7082479 159 131 122
-0.13547458 -0.42584345 -0.70760101 156 125 117
-0.14779992 -0.41567397 -0.72038585 140 118 104
-0.1480407 -0.41607571 -0.72064149 137 115 102
-0.14748476 -0.4169046 -0.72002292 135 113 102
-0.14760494 -0.41605616 -0.72017634 142 119 102
-0.11939215 -0.42592981 -0.6955204 142 99 129
-0.11926036 -0.42532039 -0.69546932 137 88 129
-0.11768363 -0.42690036 -0.6944086 171 144 147
-0.11721673 -0.42597565 -0.69415855 174 150 150
-0.11817938 -0.42620486 -0.69473249 163 132 141
-0.11912427 -0.42754948 -0.69522971 162 132 134
-0.11790133 -0.42601123 -0.69457287 166 136 143
-0.11982948 -0.42816111 -0.69566935 166 139 140
-0.13482065 -0.41228208 -0.70740986 156 119 152
-0.13110362 -0.4152644 -0.70416063 136 89 119
-0.13133162 -0.41395423 -0.70444381 154 117 139
-0.13354303 -0.41547662 -0.70629454 135 97 111
-0.13167448 -0.41429681 -0.70472407 149 111 133
-0.13091052 -0.41359112 -0.70409602 158 122 145
-0.13151281 -0.41315517 -0.70465362 165 134 150
-0.13298097 -0.41547966 -0.70579958 134 94 112
-0.1332339 -0.413315 -0.70609117 157 124 143
-0.13460872 -0.41326877 -0.70722234 150 113 139
-0.13354853 -0.41443527 -0.70634401 147 113 126
-0.1319675 -0.41313586 -0.70505035 165 135 150
-0.13398555 -0.41358814 -0.70670801 151 116 137
-0.13054536 -0.414359 -0.70374972 150 108 135
-0.13089561 -0.41903681 -0.70388037 152 113 109
-0.13172461 -0.4194541 -0.7046302 153 116 110
-0.13158526 -0.41934314 -0.70450479 153 115 110
-0.13117577 -0.41797486 -0.70415407 142 98 109
-0.13276115 -0.41966558 -0.70557296 151 116 110
-0.13178653 -0.41871449 -0.70469922 146 106 109
-0.13278781 -0.41953516 -0.70559949 150 114 110
-0.13406409 -0.4191846 -0.70676947 142 106 110
-0.13310136 -0.41770995 -0.70589864 135 93 108
-0.13424951 -0.41607329 -0.70688331 128 90 102
-0.13387966 -0.41788062 -0.70658642 136 98 107
-0.13457748 -0.41776067 -0.7071988 136 101 105
-0.13267389 -0.41676188 -0.70550734 130 86 107
-0.13354893 -0.41844362 -0.70630425 138 99 109
-0.13080375 -0.41706568 -0.70383769 135 86 109
-0.13045387 -0.41625151 -0.70357031 130 79 111
-0.13203833 -0.42304173 -0.70480096 140 113 108
-0.13311312 -0.42275247 -0.70571619 148 112 111
-0.13266243 -0.42215526 -0.70533973 151 115 111
-0.13239028 -0.42328867 -0.7050972 140 112 109
-0.13265145 -0.42239571 -0.70532799 148 114 111
-0.13289152 -0.42369357 -0.70551842 139 110 109
-0.13110013 -0.42196009 -0.70401579 145 118 107
-0.13402833 -0.42289183 -0.70650429 149 110 113
-0.13215451 -0.42056754 -0.70496666 156 120 110
-0.1343597 -0.4211517 -0.70693642 147 112 112
-0.13283664 -0.4214485 -0.70552379 153 116 112
-0.13213308 -0.42008758 -0.70498282 156 121 110
-0.13341992 -0.42233151 -0.70599055 151 113 113
-0.13355118 -0.42170075 -0.70615739 151 114 112
-0.13077094 -0.42103803 -0.70374757 150 120 107
-0.13080853 -0.42003644 -0.70379132 159 124 109
-0.13487156 -0.42596221 -0.70701277 155 120 114
-0.13145767 -0.42518175 -0.70422941 140 116 103
-0.13145597 -0.42475972 -0.70423687 136 116 104
-0.13163143 -0.42428377 -0.70440567 134 114 105
-0.13252571 -0.42458636 -0.7051369 139 114 108
-0.13255744 -0.42505646 -0.70512062 141 117 108
-0.13394713 -0.42409211 -0.70638871 144 109 112
-0.13475025 -0.42553985 -0.70693731 153 117 114
-0.1345869 -0.42481562 -0.70686525 149 113 113
-0.13157794 -0.4244028 -0.70434934 134 115 105
-0.13075034 -0.42552486 -0.70367438 142 115 99
-0.13058211 -0.42542246 -0.70353681 139 112 98
-0.14386956 -0.41109279 -0.71628082 137 106 108
-0.1438514 -0.41061389 -0.71626163 139 108 114
-0.14296252 -0.41115466 -0.71529704 132 94 111
-0.1439241 -0.41018531 -0.71633983 142 110 119
-0.14351088 -0.41064471 -0.71589178 138 103 115
-0.14309388 -0.41123265 -0.71543986 132 95 110
-0.14503103 -0.41579273 -0.71733952 147 118 105
-0.14414538 -0.4153094 -0.71634376 141 112 108
-0.14433858 -0.41590348 -0.71655935 144 113 104
-0.14375775 -0.41552481 -0.7159065 139 109 107
-0.14444749 -0.41240373 -0.71683264 134 110 112
-0.14303508 -0.41266641 -0.7153337 128 92 101
-0.14332266 -0.41279778 -0.71562606 129 96 103
-0.14443919 -0.41325507 -0.71676475 136 112 112
-0.14471042 -0.41385102 -0.7170077 139 117 115
-0.14381011 -0.41380081 -0.71606737 135 105 108
-0.14373876 -0.4131822 -0.71603554 133 103 107
-0.14653109 -0.41789034 -0.71897477 136 113 104
-0.14501891 -0.41898832 -0.71740854 129 100 90
-0.14398767 -0.41912323 -0.71635711 131 96 80
-0.1451444 -0.4184266 -0.71755075 135 105 91
-0.14540255 -0.41806757 -0.71782243 138 109 93
-0.14597292 -0.41812032 -0.71840066 136 110 99
-0.14425139 -0.4164629 -0.71649414 143 110 100
-0.14402133 -0.41808584 -0.71635628 137 102 85
-0.14385319 -0.4185985 -0.71620518 135 99 81
-0.14416099 -0.41605425 -0.71636182 143 111 103
-0.14394613 -0.41653702 -0.71615595 141 107 99
-0.14308429 -0.41766733 -0.7152698 133 97 89
-0.14350958 -0.41799253 -0.71577299 135 98 86
-0.14321376 -0.42171961 -0.7154249 130 96 84
-0.14342844 -0.42164958 -0.71564794 130 96 85
0 0 0 1 0 0 0 1 0 0 0 1 0 0 0 0 0 273 1 0 0
