ply
format ascii 1.0
comment PCL generated
element vertex 168
property float x
property float y
property float z
property uchar red
property uchar green
property uchar blue
element camera 1
property float view_px
property float view_py
property float view_pz
property float x_axisx
property float x_axisy
property float x_axisz
property float y_axisx
property float y_axisy
property float y_axisz
property float z_axisx
property float z_axisy
property float z_axisz
property float focal
property float scalex
property float scaley
property float centerx
property float centery
property int viewportx
property int viewporty
property float k1
property float k2
end_header
-0.27100787 -0.50921732 -0.80849773 137 134 153
-0.27203745 -0.51341087 -0.80861187 149 131 153
-0.27191877 -0.51185989 -0.80882335 146 136 155
-0.27124441 -0.5116024 -0.80838376 141 131 152
-0.27140105 -0.51327443 -0.80817419 147 126 151
-0.27125871 -0.51163608 -0.80838746 142 131 152
-0.27199104 -0.51394683 -0.80862093 151 132 154
-0.27029905 -0.51577532 -0.80805528 150 129 153
-0.26843414 -0.51736355 -0.80734527 142 117 150
-0.26968488 -0.51571321 -0.80763459 144 119 150
-0.27085388 -0.5152958 -0.80826432 153 133 154
-0.26933157 -0.51717567 -0.80787104 150 129 153
-0.26815233 -0.51713628 -0.80708879 137 110 148
-0.26723558 -0.5164957 -0.80649269 129 105 137
-0.2673991 -0.51716173 -0.80667752 133 106 143
-0.26656196 -0.51624304 -0.80592871 135 117 141
-0.26644009 -0.51651269 -0.80585182 139 121 146
-0.26659966 -0.5153966 -0.80589217 127 111 130
-0.26591483 -0.51575202 -0.80538082 140 125 145
-0.26879868 -0.52000004 -0.80739063 147 132 154
-0.26876408 -0.52085495 -0.80730313 144 132 150
-0.26849434 -0.52078009 -0.80714869 140 127 146
-0.26731262 -0.52095646 -0.80642474 127 113 135
-0.26655513 -0.52140641 -0.80591673 136 122 138
-0.26728511 -0.51835674 -0.80661118 136 110 145
-0.26655546 -0.51967055 -0.80605292 141 120 145
-0.2673744 -0.51758343 -0.80669081 137 109 149
-0.26615053 -0.51949281 -0.80576426 147 127 150
-0.26563555 -0.52075672 -0.80538929 149 132 148
-0.26612329 -0.51984942 -0.80575377 146 126 148
-0.26805857 -0.52509385 -0.80734605 155 148 159
-0.26873004 -0.52188605 -0.80728173 145 136 149
-0.26877788 -0.52263767 -0.80740023 151 144 155
-0.26842871 -0.5219304 -0.80710799 140 131 145
-0.26773658 -0.52180403 -0.80668157 128 116 135
-0.2674233 -0.52475429 -0.80680215 149 141 154
-0.27951449 -0.49810117 -0.81289983 140 124 134
-0.28233907 -0.50103265 -0.81356299 55 47 54
-0.28164878 -0.50034255 -0.81342262 76 66 73
-0.27942297 -0.49960962 -0.81289631 137 124 132
-0.28011408 -0.50104398 -0.81297195 114 105 111
-0.28104958 -0.50073844 -0.81326872 90 81 88
-0.28113708 -0.50022167 -0.8133359 89 78 86
-0.28232104 -0.50120002 -0.81359494 55 47 54
-0.27913129 -0.49812493 -0.81289142 138 122 133
-0.28104788 -0.50200516 -0.81305563 83 77 81
-0.27931371 -0.51577008 -0.8135618 141 106 144
-0.27994144 -0.51474553 -0.81293994 108 79 114
-0.27947879 -0.51563889 -0.81337219 134 100 137
-0.27919897 -0.51477581 -0.81334162 134 101 139
-0.2781179 -0.51621002 -0.81291276 148 120 149
-0.27749735 -0.51850504 -0.81293356 167 143 165
-0.28060925 -0.49328637 -0.8126995 103 90 105
-0.27977541 -0.49399471 -0.81278288 126 114 127
-0.2783151 -0.49357229 -0.81221735 123 108 123
-0.27754444 -0.49334425 -0.81176227 114 98 114
-0.27833551 -0.49410588 -0.81226522 126 112 126
-0.27761757 -0.49224633 -0.81173199 108 90 107
-0.27796826 -0.49260041 -0.81195599 114 96 113
-0.27913311 -0.49249792 -0.81262773 116 101 114
-0.27875736 -0.49234515 -0.81240058 113 97 111
-0.28068942 -0.49799982 -0.8123585 119 106 116
-0.2799682 -0.49686405 -0.81263381 129 116 126
-0.27936366 -0.49669224 -0.81288892 140 125 136
-0.28160873 -0.4969089 -0.81192523 99 91 100
-0.28073847 -0.49658194 -0.81229222 115 104 114
-0.281075 -0.49557313 -0.81223375 107 97 109
-0.28032282 -0.49499878 -0.8124693 119 108 121
-0.27742076 -0.49750695 -0.81188053 116 100 117
-0.2771866 -0.49637985 -0.81169319 112 96 115
-0.27846175 -0.49798092 -0.8125065 129 113 126
-0.27781251 -0.49803084 -0.81213188 121 105 120
-0.27920911 -0.49419829 -0.81276792 135 122 136
-0.27712023 -0.49451399 -0.81158763 112 97 113
-0.27933031 -0.50179476 -0.81259304 139 130 135
-0.28077862 -0.49882942 -0.81276405 106 95 103
-0.28310257 -0.50024146 -0.81256127 44 41 46
-0.28163895 -0.49927786 -0.81264699 84 76 83
-0.28173003 -0.49805906 -0.81191844 99 90 99
-0.27731526 -0.49855968 -0.81179994 116 100 117
-0.27898616 -0.49908766 -0.81272453 137 123 133
-0.27767634 -0.49904883 -0.81195664 121 106 120
-0.27915835 -0.501728 -0.81250554 139 129 135
-0.27927008 -0.49960369 -0.81283176 141 128 136
-0.27839333 -0.5010317 -0.81213808 129 118 127
-0.27671391 -0.5008046 -0.81132942 107 90 107
-0.2778469 -0.50104606 -0.81187254 122 109 121
-0.27687994 -0.50098413 -0.81140721 109 93 109
-0.27892864 -0.50185877 -0.81238365 136 125 132
-0.27637452 -0.5048303 -0.81084007 110 93 106
-0.27660921 -0.50382608 -0.81106853 105 87 104
-0.27630007 -0.50440043 -0.81085151 107 89 104
-0.2764014 -0.50416327 -0.81092817 106 88 104
-0.27718127 -0.50393945 -0.81133837 109 91 109
-0.27760592 -0.50546777 -0.81137675 120 105 117
-0.27776086 -0.50405371 -0.81160861 115 99 114
-0.27768278 -0.50253087 -0.81172383 118 102 116
-0.27904174 -0.50446802 -0.81218451 131 119 129
-0.27916256 -0.50360751 -0.81232917 135 124 132
-0.27814087 -0.50415337 -0.81178182 120 105 119
-0.27528948 -0.50480038 -0.81030691 103 87 100
-0.27513233 -0.50447994 -0.81026417 101 85 99
-0.27551883 -0.50887412 -0.81074041 129 117 132
-0.27711958 -0.50919366 -0.81155705 126 112 130
-0.27831382 -0.50959665 -0.81219035 125 110 129
-0.27757055 -0.50832129 -0.8116467 119 103 120
-0.27681842 -0.50891411 -0.81137139 125 111 128
-0.27561262 -0.50819254 -0.81068611 124 111 125
-0.27790695 -0.50640595 -0.81155431 123 108 120
-0.27903089 -0.5092364 -0.81248611 123 106 126
-0.27915078 -0.50624353 -0.81214696 130 116 129
-0.27783805 -0.50788653 -0.81171733 119 103 119
-0.27785009 -0.50722063 -0.81163466 121 105 119
-0.27862847 -0.5088641 -0.8122378 122 105 124
-0.27517548 -0.50953865 -0.81067091 134 124 140
-0.27502483 -0.50941026 -0.81057882 134 123 140
-0.27284029 -0.50962019 -0.8095457 138 134 150
-0.27486202 -0.50902945 -0.81044394 131 121 136
-0.2752364 -0.50920177 -0.81065142 132 121 137
-0.27396753 -0.50702929 -0.80971253 117 109 120
-0.27432969 -0.50688589 -0.80987096 117 107 118
-0.27737084 -0.51309669 -0.81199813 140 122 146
-0.27719387 -0.51330394 -0.81192219 141 124 147
-0.27629244 -0.5133884 -0.81141251 149 138 155
-0.27889836 -0.51208305 -0.81275153 127 102 132
-0.27578819 -0.51338333 -0.81112069 153 146 159
-0.27610597 -0.51212257 -0.81122476 146 137 152
-0.27583346 -0.51069081 -0.81105006 139 129 145
-0.27569184 -0.5107531 -0.81098378 140 130 146
-0.27704492 -0.50993371 -0.81160975 131 118 136
-0.27633116 -0.51134562 -0.8113094 141 131 147
-0.27581376 -0.51025814 -0.81102741 137 126 143
-0.27394328 -0.51332152 -0.8099035 151 140 156
-0.27300575 -0.51332265 -0.80924696 149 134 154
-0.27537438 -0.51333684 -0.81090617 155 149 161
-0.27396753 -0.51190859 -0.8098774 143 130 149
-0.27352956 -0.51046699 -0.80981767 140 132 149
-0.27437752 -0.51045054 -0.81023258 139 128 146
-0.27218407 -0.51104951 -0.80909193 143 137 155
-0.27422595 -0.50999922 -0.81021345 138 129 146
-0.27339959 -0.50990605 -0.80982238 139 133 150
-0.27231714 -0.51127684 -0.80912918 144 137 155
-0.27804267 -0.51578236 -0.81279898 146 119 148
-0.2785784 -0.51378357 -0.81278622 130 100 137
-0.27703178 -0.51555926 -0.81217939 153 134 155
-0.27601871 -0.51464033 -0.81144643 157 146 161
-0.27591851 -0.51434493 -0.81134099 156 146 160
-0.27592105 -0.51723599 -0.81187493 167 156 163
-0.27715102 -0.51731855 -0.81254846 161 140 158
-0.27642894 -0.51620924 -0.81195563 161 146 160
-0.27687311 -0.51745814 -0.81242573 163 144 160
-0.27293259 -0.51484925 -0.80958855 158 147 159
-0.27289852 -0.51439983 -0.8094188 155 143 157
-0.27373233 -0.51381278 -0.80981213 153 142 158
-0.27184719 -0.5169912 -0.80947483 166 159 160
-0.27212155 -0.51692373 -0.80964041 166 160 160
-0.27320048 -0.51624131 -0.81013912 164 158 161
-0.2739718 -0.51698625 -0.8107239 168 161 163
-0.27491814 -0.5170778 -0.81128842 169 162 164
-0.27417439 -0.5156188 -0.81058657 163 157 162
-0.27472073 -0.51617295 -0.81100577 165 159 163
-0.27394855 -0.51674217 -0.81066507 167 160 163
-0.27588063 -0.51759231 -0.81191921 169 157 164
-0.27243122 -0.51778942 -0.80994815 169 163 162
-0.27435085 -0.5183838 -0.81107312 174 166 169
-0.27449343 -0.51817209 -0.81115037 173 165 168
-0.27322763 -0.51833427 -0.81042218 173 165 167
-0.27143297 -0.51817918 -0.80927312 171 165 164
0 0 0 1 0 0 0 1 0 0 0 1 0 0 0 0 0 168 1 0 0
