ply
format ascii 1.0
comment PCL generated
element vertex 133
property float x
property float y
property float z
property uchar red
property uchar green
property uchar blue
element camera 1
property float view_px
property float view_py
property float view_pz
property float x_axisx
property float x_axisy
property float x_axisz
property float y_axisx
property float y_axisy
property float y_axisz
property float z_axisx
property float z_axisy
property float z_axisz
property float focal
property float scalex
property float scaley
property float centerx
property float centery
property int viewportx
property int viewporty
property float k1
property float k2
end_header
0.11887296 -0.087752819 -0.7702229 78 89 106
0.12093911 -0.087716416 -0.77335221 83 87 111
0.12169719 -0.087456442 -0.77334929 85 91 111
0.12002182 -0.087587997 -0.77138013 82 92 110
0.12104417 -0.087491065 -0.77248299 84 91 110
0.12292285 -0.087034911 -0.77340317 89 96 114
0.1212908 -0.087124303 -0.77139229 86 97 115
0.12056375 -0.087186277 -0.77058262 84 97 115
0.12190036 -0.086719282 -0.77069747 87 99 118
0.12165445 -0.087239422 -0.77236569 87 96 113
0.12259402 -0.086649723 -0.77142936 89 99 118
0.12515511 -0.086582378 -0.77338868 83 89 112
0.12685889 -0.086338423 -0.77362615 78 83 105
0.12576659 -0.086151928 -0.77229804 80 88 122
0.12365686 -0.08689829 -0.77352762 87 94 115
0.12647633 -0.086414687 -0.77364647 79 84 106
0.12334567 -0.086203367 -0.77060121 88 100 123
0.1233072 -0.086401157 -0.77133805 89 99 121
0.12318547 -0.086562335 -0.77186167 89 98 119
0.12465632 -0.086331695 -0.77221406 84 92 125
0.1295065 -0.085369498 -0.77221847 82 93 155
0.12810054 -0.085318439 -0.77099919 77 89 147
0.12965363 -0.085384168 -0.77236748 82 93 155
0.1305608 -0.085541449 -0.77343935 78 88 154
0.12760113 -0.086046867 -0.77312434 77 84 118
0.13019946 -0.085703105 -0.77370435 76 85 145
0.12747273 -0.085759982 -0.77205354 76 85 127
0.12959586 -0.085607029 -0.77296627 76 86 145
0.12889951 -0.085920334 -0.77356929 76 84 130
0.1272905 -0.08572568 -0.77181256 76 85 127
0.13322683 -0.084330298 -0.77332562 163 175 219
0.13322249 -0.084420934 -0.77352828 157 169 215
0.1326891 -0.084677599 -0.7735697 140 151 201
0.13280675 -0.084475651 -0.77322853 152 165 212
0.11885314 -0.08809454 -0.77193803 72 76 98
0.11824296 -0.088012271 -0.77024132 72 79 95
0.11957485 -0.087899379 -0.77204806 78 86 107
0.11718391 -0.087439142 -0.76604873 86 98 126
0.11821533 -0.087038681 -0.76626039 95 108 132
0.11765929 -0.087498821 -0.76712579 84 97 121
0.11754905 -0.087337896 -0.76628619 88 101 127
0.11714111 -0.087786056 -0.76735824 78 90 115
0.11899448 -0.087565653 -0.7697444 81 95 113
0.1193166 -0.087441608 -0.76978797 83 97 115
0.1203604 -0.087051317 -0.76977903 86 99 118
0.12248109 -0.086183965 -0.7694996 93 106 128
0.12264518 -0.085733101 -0.76813 108 121 149
0.1224847 -0.086131111 -0.76931864 95 108 131
0.12092848 -0.086542718 -0.7687338 98 111 135
0.11917818 -0.087166958 -0.76846659 91 105 124
0.11927723 -0.086621433 -0.76644051 104 118 140
0.11934952 -0.08725363 -0.76909375 88 102 121
0.12171385 -0.085784025 -0.76705742 116 130 159
0.12047895 -0.086423904 -0.76760888 105 118 143
0.12032361 -0.086137347 -0.76620626 112 126 152
0.12401071 -0.084937178 -0.76672131 124 137 178
0.12333735 -0.085989296 -0.76977694 90 103 127
0.12320308 -0.085901737 -0.76936644 95 108 132
0.12338635 -0.085764557 -0.76902509 98 111 138
0.12352706 -0.085816652 -0.76931608 94 107 135
0.1231913 -0.085352421 -0.76742786 116 129 161
0.11793772 -0.087955922 -0.76939356 73 82 98
0.11018281 -0.087506808 -0.75993073 63 64 121
0.11118433 -0.087535545 -0.7607826 64 65 123
0.11031399 -0.087502427 -0.76002216 63 64 122
0.11255389 -0.086916424 -0.76018739 98 105 162
0.11321138 -0.08716777 -0.76124787 93 100 153
0.11345161 -0.086995758 -0.76098418 102 110 163
0.11202893 -0.087677464 -0.76171422 64 66 120
0.11216235 -0.086823016 -0.75969464 99 105 165
0.11443038 -0.086860567 -0.76130581 115 125 176
0.11404734 -0.086512178 -0.76040572 125 134 183
0.1109798 -0.087958388 -0.76183546 50 47 100
0.11067218 -0.087928221 -0.76145065 49 47 100
0.12282094 -0.087870024 -0.77675915 97 110 126
0.12218887 -0.087559082 -0.77453476 88 95 116
0.12119157 -0.087832905 -0.77425063 84 89 114
0.12391171 -0.087367699 -0.77559251 96 105 119
0.12395816 -0.087181315 -0.77483976 94 101 116
0.12556958 -0.087429032 -0.77705252 103 113 122
0.12369046 -0.087707154 -0.77686447 99 112 125
0.12361418 -0.087256998 -0.77490985 93 101 117
0.12645406 -0.087080456 -0.77627176 98 105 116
0.12460406 -0.087012626 -0.77463424 91 97 113
0.12636845 -0.086600669 -0.77428252 83 88 106
0.12504117 -0.086931184 -0.77462989 90 96 112
0.12671293 -0.087034091 -0.77627665 97 105 116
0.13066705 -0.086075403 -0.77534294 67 71 125
0.12833709 -0.086839475 -0.77671289 93 101 126
0.12837911 -0.086788893 -0.77656031 94 102 128
0.12873505 -0.086788036 -0.77675366 87 93 120
0.12820119 -0.086899944 -0.77684808 94 102 125
0.12720823 -0.087026551 -0.77662575 99 107 120
0.12709621 -0.086879358 -0.77594608 94 101 115
0.1279307 -0.086609527 -0.77552414 90 98 124
0.13068812 -0.085666053 -0.77392167 76 86 151
0.12725925 -0.086442746 -0.77432263 81 87 109
0.13295722 -0.084975369 -0.77451259 125 135 186
0.13154341 -0.085330971 -0.77389097 95 106 167
0.1320684 -0.085214123 -0.77415597 106 116 173
0.13312137 -0.085394874 -0.77562028 104 113 165
0.13102502 -0.086217977 -0.77611154 61 62 110
0.13206205 -0.085925519 -0.77614033 76 81 132
0.1314158 -0.085705571 -0.77472472 77 85 146
0.13139598 -0.086427569 -0.77721375 58 56 96
0.13165425 -0.086367533 -0.77726537 61 60 101
0.12170749 -0.087936789 -0.77547354 88 96 117
0.12087124 -0.088163868 -0.77548522 81 87 109
0.12090682 -0.087926872 -0.77427381 83 87 112
0.12212036 -0.088147759 -0.77731556 90 100 116
0.12112708 -0.088303961 -0.7768591 82 86 106
0.1135008 -0.087562732 -0.7624768 81 87 135
0.11315803 -0.087723084 -0.7626729 72 77 125
0.11398201 -0.087425575 -0.7624554 90 97 145
0.11487468 -0.087190084 -0.76247042 105 116 162
0.11784483 -0.086770035 -0.76491421 107 120 149
0.11652841 -0.08700332 -0.76388514 106 119 156
0.1175806 -0.087056607 -0.76539993 97 110 140
0.11688878 -0.08701387 -0.76438171 103 116 151
0.11611065 -0.087059811 -0.7635079 107 119 159
0.117916 -0.086393237 -0.76407748 121 134 165
0.119418 -0.086386338 -0.76584613 110 124 147
0.11956554 -0.0861618 -0.76545769 118 131 156
0.11409798 -0.087927394 -0.76412749 71 79 122
0.11202145 -0.087965339 -0.76272136 55 55 104
0.12560941 -0.087572552 -0.77798158 103 114 125
0.12414227 -0.087810799 -0.77829218 99 110 127
0.12533191 -0.087621465 -0.77793747 103 114 126
0.12535104 -0.087596402 -0.77852023 99 107 124
0.12694909 -0.087825619 -0.7802195 80 74 95
0.12619086 -0.087565385 -0.77908039 94 97 116
0.12704676 -0.087464191 -0.77839667 99 103 114
0.12701792 -0.087774821 -0.78000546 82 77 97
0 0 0 1 0 0 0 1 0 0 0 1 0 0 0 0 0 133 1 0 0
