ply
format ascii 1.0
comment PCL generated
element vertex 331
property float x
property float y
property float z
property uchar red
property uchar green
property uchar blue
element camera 1
property float view_px
property float view_py
property float view_pz
property float x_axisx
property float x_axisy
property float x_axisz
property float y_axisx
property float y_axisy
property float y_axisz
property float z_axisx
property float z_axisy
property float z_axisz
property float focal
property float scalex
property float scaley
property float centerx
property float centery
property int viewportx
property int viewporty
property float k1
property float k2
end_header
-0.1858485 -0.27454209 -0.77197212 139 125 112
-0.18572639 -0.27485093 -0.7713359 144 133 115
-0.18623964 -0.27501029 -0.77277374 142 124 116
-0.18626036 -0.27507356 -0.77278364 143 124 117
-0.18598855 -0.27446499 -0.77246672 137 121 111
-0.18521565 -0.27499309 -0.77032065 143 135 112
-0.18515189 -0.27434245 -0.77065122 136 125 107
-0.18618871 -0.27773529 -0.77261478 151 134 123
-0.18641675 -0.2754887 -0.77300692 146 126 120
-0.18635301 -0.27831215 -0.77319711 151 131 123
-0.18619165 -0.27727354 -0.77256078 150 134 122
-0.18604136 -0.27686179 -0.77204388 151 137 122
-0.18608348 -0.27903959 -0.77270615 162 150 126
-0.18596676 -0.27866304 -0.77231205 163 153 125
-0.18580066 -0.27688545 -0.7713843 156 146 123
-0.18542115 -0.27864307 -0.77114183 175 177 127
-0.1847876 -0.27904812 -0.77052176 180 185 129
-0.18519504 -0.27705324 -0.77040815 165 164 124
-0.18442786 -0.27841595 -0.76992565 175 180 127
-0.18636934 -0.28043336 -0.77325994 134 123 105
-0.18662958 -0.28187123 -0.77361858 100 90 79
-0.18659233 -0.28142542 -0.77361268 110 98 87
-0.18603447 -0.28315574 -0.77194905 108 105 77
-0.18566763 -0.27974862 -0.77168941 168 170 121
-0.18571767 -0.28261793 -0.77128595 130 129 91
-0.18604837 -0.28091088 -0.77239227 136 135 99
-0.18531767 -0.28263095 -0.77062404 139 139 97
-0.18527 -0.28037032 -0.77097988 168 170 119
-0.18507428 -0.28141508 -0.77057737 156 158 110
-0.18492122 -0.2800605 -0.77062416 172 177 123
-0.18549605 -0.28352192 -0.77064407 126 124 89
-0.19110188 -0.27136326 -0.78744644 162 149 140
-0.19124848 -0.2749427 -0.78927654 158 147 151
-0.19129147 -0.27338231 -0.78803128 162 142 138
-0.19139858 -0.27228299 -0.78942758 163 146 143
-0.19140293 -0.27201048 -0.78911638 164 145 140
-0.19130364 -0.27312416 -0.78797549 163 142 137
-0.19101435 -0.27299106 -0.78614807 162 147 137
-0.19137558 -0.27181768 -0.78888851 164 145 140
-0.19119608 -0.27221704 -0.78761178 163 147 139
-0.19084603 -0.2718676 -0.78564358 162 154 140
-0.19131899 -0.27232751 -0.78830844 163 144 138
-0.19115697 -0.27602819 -0.78897083 156 144 148
-0.19095165 -0.27755755 -0.78767526 153 137 135
-0.19096608 -0.2787742 -0.78746349 142 123 120
-0.1911563 -0.2781665 -0.78847861 138 120 122
-0.19095986 -0.27780336 -0.78765678 151 134 132
-0.19065879 -0.27872679 -0.78574198 157 137 126
-0.19100407 -0.27631837 -0.78643465 159 139 134
-0.19110756 -0.27548653 -0.7862072 160 138 134
-0.19119209 -0.27552283 -0.78885269 158 146 150
-0.19110428 -0.27589348 -0.78771985 158 143 142
-0.19115113 -0.27543294 -0.78728455 159 141 141
-0.19122961 -0.28177828 -0.78876024 116 97 103
-0.19077034 -0.28266665 -0.78646922 124 125 103
-0.19095534 -0.28164697 -0.787305 122 117 103
-0.19112742 -0.28285792 -0.7883665 115 100 103
-0.19122609 -0.28181905 -0.78874713 116 97 102
-0.19059148 -0.28198668 -0.78560245 135 135 109
-0.19093341 -0.28071246 -0.78718489 129 119 107
-0.19076246 -0.28092438 -0.78639627 135 127 110
-0.19059691 -0.28071985 -0.78563499 145 135 115
-0.19112375 -0.27991468 -0.78806645 126 109 107
-0.19068557 -0.28420216 -0.78643042 95 101 77
-0.1911395 -0.28357247 -0.78850943 104 89 93
-0.19074203 -0.28372115 -0.78643924 108 113 89
-0.18496411 -0.27535808 -0.76966095 145 137 114
-0.18443528 -0.27682835 -0.76901615 142 136 109
-0.18490012 -0.27589184 -0.7695933 145 139 113
-0.18395756 -0.27722698 -0.76809198 127 117 99
-0.18373172 -0.2792182 -0.76871371 158 159 114
-0.18454267 -0.27675423 -0.76923305 146 140 112
-0.18337558 -0.27926537 -0.76787788 141 138 104
-0.18414594 -0.27606627 -0.76843679 133 122 106
-0.18368199 -0.27562487 -0.76780647 128 115 105
-0.18278278 -0.28275508 -0.76668024 86 76 60
-0.18437414 -0.28064969 -0.76987183 166 171 117
-0.18390818 -0.28027758 -0.76917511 158 162 113
-0.18359606 -0.28310651 -0.76796788 104 98 72
-0.18359223 -0.28122368 -0.76841444 134 133 95
-0.18419807 -0.27935523 -0.7698862 181 190 130
-0.18308689 -0.27990374 -0.76725185 124 117 91
-0.18324105 -0.28107256 -0.76773226 123 119 88
-0.18304081 -0.28164813 -0.76729929 109 103 78
-0.18298195 -0.28081092 -0.76708019 112 105 81
-0.18306774 -0.28015786 -0.7672286 121 114 89
-0.18392183 -0.2793251 -0.76922345 168 173 121
-0.18488568 -0.28441131 -0.76970834 117 109 84
-0.18471599 -0.28374013 -0.76964825 127 123 88
-0.18384975 -0.28437799 -0.76795697 98 88 64
-0.18346213 -0.2837683 -0.7675187 93 83 63
-0.18401387 -0.28468743 -0.7681244 100 89 64
-0.18357934 -0.28412879 -0.76758891 93 82 61
-0.18386297 -0.28359678 -0.76825565 106 100 72
-0.18425636 -0.28417379 -0.76871532 112 105 74
-0.19014764 -0.2659916 -0.78471547 122 104 106
-0.1894623 -0.2667869 -0.78361362 150 140 121
-0.1898223 -0.26628408 -0.78417766 134 120 112
-0.18966143 -0.26584753 -0.78386539 137 125 113
-0.18911165 -0.26603174 -0.78310049 141 133 113
-0.18820857 -0.26680669 -0.78203726 138 129 106
-0.18809614 -0.2673375 -0.78194445 140 131 107
-0.18826616 -0.26706257 -0.78213286 140 131 107
-0.18989801 -0.268013 -0.78437859 146 132 121
-0.19015554 -0.26914591 -0.78469694 153 142 129
-0.19027513 -0.26807386 -0.78501111 135 115 115
-0.19017671 -0.27091637 -0.78453916 163 155 141
-0.1895822 -0.26847336 -0.78379172 158 148 129
-0.19052032 -0.27135369 -0.78507996 163 156 142
-0.18962356 -0.2710205 -0.7835784 165 157 144
-0.18910962 -0.26887539 -0.78307647 152 141 126
-0.18910418 -0.2713972 -0.78278786 159 150 141
-0.18823327 -0.26854208 -0.7820155 143 132 113
-0.18897641 -0.26876187 -0.78292054 150 139 123
-0.18811192 -0.26990208 -0.78168958 141 130 117
-0.18892613 -0.26863348 -0.78287381 150 139 122
-0.18984295 -0.2733399 -0.78170174 159 148 135
-0.18976633 -0.27291164 -0.78208202 161 151 138
-0.19045825 -0.27243343 -0.78388876 159 151 138
-0.19101085 -0.27501556 -0.78192663 145 134 120
-0.19078934 -0.27417025 -0.78249937 150 140 126
-0.19048446 -0.27254254 -0.78381079 159 150 137
-0.19086993 -0.27239907 -0.785191 160 151 138
-0.19094935 -0.27347407 -0.78391492 154 144 130
-0.19103448 -0.27461311 -0.78309953 150 137 125
-0.19098546 -0.27394584 -0.78404808 155 142 130
-0.19105385 -0.2748706 -0.78298736 150 136 123
-0.19109331 -0.27534881 -0.78472042 157 136 128
-0.18908027 -0.27159128 -0.78261328 159 149 140
-0.19053976 -0.27919406 -0.78275728 155 146 124
-0.19059634 -0.27887678 -0.78354847 156 143 125
-0.1905162 -0.27923977 -0.78178442 155 149 125
-0.19103667 -0.27581686 -0.78529984 160 137 130
-0.19067089 -0.27826518 -0.78314787 156 144 126
-0.19095923 -0.27642778 -0.7855348 159 137 129
-0.19077812 -0.27749744 -0.7830925 156 143 126
-0.19090703 -0.27663228 -0.78271532 152 139 123
-0.19063745 -0.27842653 -0.78224844 155 146 125
-0.19091588 -0.27656555 -0.7820828 149 137 121
-0.19073658 -0.27776206 -0.78202552 152 143 123
-0.19089328 -0.2767404 -0.78407866 158 141 128
-0.19044095 -0.28267044 -0.78496981 138 145 109
-0.19057593 -0.28111559 -0.78553706 143 136 114
-0.19027963 -0.28177756 -0.78430629 154 155 118
-0.19034219 -0.28233543 -0.78456241 146 151 113
-0.18991961 -0.28235015 -0.782812 169 178 124
-0.19007646 -0.28319883 -0.7834571 154 168 115
-0.19011338 -0.28108832 -0.78194487 166 170 125
-0.19046058 -0.27974081 -0.78461045 159 145 124
-0.18999997 -0.28159261 -0.78186935 169 176 126
-0.19034851 -0.28009719 -0.78277481 160 155 125
-0.19033717 -0.28007969 -0.7819249 159 158 125
-0.1896998 -0.28402737 -0.7834264 136 147 100
-0.18975143 -0.28358001 -0.78289324 156 169 113
-0.19356544 -0.2745856 -0.7976737 157 142 135
-0.19352283 -0.27435094 -0.79857618 140 125 118
-0.19393745 -0.27425998 -0.80067003 122 103 98
-0.19391997 -0.27445203 -0.80010241 130 112 107
-0.19465671 -0.27497056 -0.80052263 152 132 126
-0.19427104 -0.27497992 -0.79953635 152 135 129
-0.19344185 -0.27909538 -0.79775262 161 157 151
-0.19462833 -0.27877814 -0.79966247 157 148 142
-0.19459067 -0.27861777 -0.79956603 158 149 142
-0.19456564 -0.2779212 -0.79930174 160 150 143
-0.19446701 -0.27753913 -0.79901832 161 151 144
-0.19467039 -0.27806157 -0.79951209 159 149 142
-0.19457932 -0.27839276 -0.79948407 159 149 143
-0.19530703 -0.2755684 -0.80098492 170 148 141
-0.19508922 -0.27784541 -0.80031019 159 146 139
-0.19505678 -0.2755864 -0.8003605 169 149 142
-0.19438832 -0.27660164 -0.79863638 164 152 145
-0.19459055 -0.27545476 -0.79920667 170 152 145
-0.19468549 -0.27727222 -0.79933774 161 149 142
-0.19372725 -0.28010204 -0.79981428 124 120 113
-0.19384183 -0.27969974 -0.79923362 141 136 130
-0.19392303 -0.28021172 -0.80035073 118 113 106
-0.19374549 -0.28032663 -0.80027533 114 110 102
-0.18689297 -0.27227318 -0.77719736 148 142 139
-0.18686073 -0.27283534 -0.77661818 148 138 135
-0.18714549 -0.27408195 -0.77756029 147 134 135
-0.18698892 -0.27462506 -0.77621698 146 129 129
-0.18705416 -0.27380359 -0.77717656 147 135 134
-0.18686113 -0.27509442 -0.77510297 145 124 124
-0.18633914 -0.27403998 -0.77392608 129 108 108
-0.1863855 -0.27391601 -0.77416867 131 111 111
-0.1865714 -0.27908599 -0.77408683 150 129 125
-0.18733142 -0.27604118 -0.77762735 146 129 131
-0.18690178 -0.27855405 -0.77541941 148 129 127
-0.18653531 -0.27924466 -0.77391511 150 129 125
-0.18676229 -0.27903554 -0.77478981 149 129 126
-0.18694116 -0.27544546 -0.775419 145 123 124
-0.18677808 -0.27761164 -0.77500296 148 127 126
-0.18696006 -0.27554232 -0.77556407 145 124 125
-0.18672304 -0.27813846 -0.77480567 149 128 126
-0.18664691 -0.27850205 -0.77443105 150 128 125
-0.18714093 -0.2822302 -0.77561557 106 100 86
-0.18729705 -0.28090444 -0.7762568 115 106 101
-0.18726164 -0.28257799 -0.77647913 126 122 97
-0.187231 -0.28273207 -0.77632493 124 120 94
-0.18729901 -0.28098404 -0.77629066 116 107 101
-0.18734977 -0.28046194 -0.7765156 120 110 108
-0.18701828 -0.27985784 -0.77548832 135 120 117
-0.18681961 -0.27966297 -0.77482539 141 123 119
-0.18715611 -0.28063565 -0.77576685 119 107 103
-0.18733159 -0.27982917 -0.77662843 133 121 119
-0.1918392 -0.27044785 -0.79146796 147 134 133
-0.19190913 -0.27067009 -0.7920391 143 132 131
-0.19154029 -0.2713843 -0.79003018 160 143 138
-0.19150116 -0.27138215 -0.78977549 162 144 139
-0.19169316 -0.27470997 -0.79212993 157 147 148
-0.1913095 -0.27520788 -0.78989267 157 147 152
-0.1918086 -0.27484843 -0.79288936 160 149 149
-0.19179112 -0.27384496 -0.79248023 151 142 143
-0.19189562 -0.27245033 -0.79271293 142 134 134
-0.1916399 -0.27495435 -0.79187179 159 148 150
-0.19128051 -0.27466309 -0.78952307 158 147 151
-0.19140173 -0.27423963 -0.79015887 154 144 147
-0.19150551 -0.27334225 -0.79051411 153 142 143
-0.19160099 -0.27200142 -0.79065913 155 141 138
-0.1916783 -0.2726655 -0.79139435 148 138 138
-0.19175528 -0.2771894 -0.7921176 142 128 129
-0.19208409 -0.27911997 -0.79330325 114 110 104
-0.19181846 -0.27643874 -0.79275221 151 139 139
-0.19183941 -0.27739203 -0.7925266 138 127 127
-0.19161245 -0.27906418 -0.79061842 118 101 105
-0.19146872 -0.27665558 -0.79054707 146 132 137
-0.19173035 -0.27561721 -0.79249525 161 149 150
-0.19128925 -0.27587685 -0.78967148 153 141 147
-0.19133146 -0.27625352 -0.78981769 149 136 142
-0.19146304 -0.2779997 -0.79009664 131 113 119
-0.19143496 -0.27560195 -0.79066265 157 146 150
-0.19196883 -0.2802158 -0.79267353 114 107 103
-0.19204181 -0.28202009 -0.79301476 137 131 113
-0.19198954 -0.2830013 -0.7927444 145 137 117
-0.19189906 -0.28287518 -0.79229736 138 128 114
-0.19200031 -0.28006226 -0.79283142 114 108 103
-0.19198345 -0.28282389 -0.79271626 142 135 116
-0.19161215 -0.28032893 -0.79068065 113 96 102
-0.19173092 -0.28106073 -0.79146713 111 97 102
-0.19136608 -0.282316 -0.78955519 112 87 102
-0.19157599 -0.28104401 -0.79057622 112 94 102
-0.1915535 -0.28185382 -0.79056376 111 92 102
-0.18787535 -0.26693401 -0.78156894 135 124 103
-0.18754944 -0.2673758 -0.78006804 122 104 94
-0.18760602 -0.26734641 -0.78034848 125 108 96
-0.18750104 -0.26970851 -0.78003007 144 137 123
-0.18716051 -0.27114198 -0.77861243 148 143 137
-0.18755995 -0.26938727 -0.78029704 143 136 120
-0.1873163 -0.27046531 -0.77926713 146 140 130
-0.1876865 -0.27102372 -0.78018105 144 136 129
-0.18768239 -0.26930642 -0.78067797 142 134 118
-0.18741901 -0.26798913 -0.77958041 124 106 98
-0.18700729 -0.27101171 -0.77820265 148 145 138
-0.18746854 -0.2685194 -0.77996874 134 123 109
-0.18982047 -0.27471298 -0.78064293 163 155 140
-0.18965602 -0.27505422 -0.78019905 166 160 144
-0.1894051 -0.27410951 -0.78060883 167 159 145
-0.18914238 -0.27437428 -0.78017151 164 155 143
-0.18866774 -0.2742849 -0.77979797 159 147 139
-0.18909384 -0.2729252 -0.78120875 159 148 138
-0.18864879 -0.27258319 -0.78110856 152 140 133
-0.187803 -0.27476072 -0.77865082 150 134 133
-0.18729545 -0.27223688 -0.77866852 147 140 136
-0.1872606 -0.27176973 -0.77871335 147 142 137
-0.18771926 -0.27218282 -0.77992111 144 134 131
-0.18720911 -0.2720989 -0.77846003 148 141 138
-0.18716098 -0.27287742 -0.77807564 148 139 137
-0.18703131 -0.27269211 -0.77775568 149 142 139
-0.19018976 -0.27790347 -0.78102309 159 154 132
-0.19078183 -0.27739373 -0.78163016 149 141 121
-0.18995059 -0.27664635 -0.78051996 163 157 138
-0.18952556 -0.27844742 -0.78015625 171 169 145
-0.18957978 -0.27915215 -0.78031164 170 169 143
-0.18819974 -0.27900776 -0.77848667 151 144 136
-0.18936816 -0.27561232 -0.77962732 169 164 149
-0.18915038 -0.27657515 -0.77945143 166 161 146
-0.18930462 -0.27837682 -0.77985263 170 167 145
-0.18734044 -0.27547112 -0.77775311 147 129 132
-0.18882704 -0.27609968 -0.77908653 162 154 144
-0.18793367 -0.27711272 -0.77819228 150 138 135
-0.1877131 -0.27644625 -0.77803278 149 135 134
-0.18958145 -0.28192014 -0.78115666 176 188 133
-0.18981011 -0.28195515 -0.78149188 173 183 128
-0.19012344 -0.27967969 -0.78121918 162 161 131
-0.18839146 -0.28144741 -0.77891141 164 165 128
-0.18850723 -0.28221655 -0.77936518 169 174 127
-0.1887472 -0.28179213 -0.77966422 171 176 131
-0.18931158 -0.27975386 -0.7800374 172 173 143
-0.18886636 -0.28301001 -0.78026676 178 190 128
-0.18771711 -0.28183502 -0.77802998 155 153 121
-0.18780193 -0.28168496 -0.77813202 156 153 122
-0.1881524 -0.28029266 -0.77851164 155 151 131
-0.18745454 -0.28271985 -0.7777369 155 153 115
-0.18908943 -0.28358701 -0.78103471 172 184 121
-0.19233036 -0.27523944 -0.79444855 165 154 151
-0.19307528 -0.27506244 -0.7961368 167 155 149
-0.19229314 -0.27443567 -0.79479724 155 142 139
-0.19275253 -0.27194768 -0.79713845 125 105 101
-0.19258551 -0.27238739 -0.79654574 129 111 107
-0.19318035 -0.27360108 -0.7971105 151 136 128
-0.19251539 -0.27152857 -0.79621971 123 106 103
-0.1919231 -0.27487284 -0.79360271 160 148 147
-0.19212696 -0.27201712 -0.79400575 136 127 125
-0.19211167 -0.2733818 -0.79431134 145 133 131
-0.19219011 -0.27336523 -0.79478246 143 129 127
-0.19353165 -0.27626738 -0.79713798 168 159 152
-0.1926845 -0.27655858 -0.79563093 162 152 148
-0.1931117 -0.27569166 -0.79618323 168 157 152
-0.19281855 -0.27539521 -0.79542714 168 157 153
-0.19282791 -0.27672952 -0.79601181 162 152 148
-0.19264056 -0.27763376 -0.7959913 157 148 144
-0.19211532 -0.27921337 -0.79343516 113 110 103
-0.19247088 -0.27849513 -0.79539096 142 135 131
-0.19244298 -0.27799743 -0.79540843 149 141 137
-0.19246742 -0.27909568 -0.79518884 132 127 121
-0.19197989 -0.2764174 -0.79363698 153 144 142
-0.19245479 -0.27971363 -0.79702699 136 127 123
-0.19138898 -0.28086799 -0.79625684 104 91 92
-0.19014911 -0.28191075 -0.79572356 65 46 51
-0.18948393 -0.28098834 -0.79722816 34 10 7
-0.19223572 -0.28096667 -0.79574686 138 130 120
-0.18971351 -0.28291664 -0.79476434 56 36 46
-0.19146997 -0.28150433 -0.79550791 113 101 97
-0.19220389 -0.28028885 -0.79650193 131 121 118
-0.1903846 -0.28262565 -0.79477686 80 64 66
-0.19253397 -0.28035498 -0.79543948 143 138 126
-0.19262397 -0.28042898 -0.79587764 148 142 130
-0.19254808 -0.28008997 -0.79551131 141 136 125
-0.19249853 -0.28080037 -0.79526156 146 141 126
-0.19220668 -0.28270826 -0.79381663 153 148 122
-0.1921505 -0.28156921 -0.79355538 138 134 114
0 0 0 1 0 0 0 1 0 0 0 1 0 0 0 0 0 331 1 0 0
