ply
format ascii 1.0
comment PCL generated
element vertex 171
property float x
property float y
property float z
property uchar red
property uchar green
property uchar blue
element camera 1
property float view_px
property float view_py
property float view_pz
property float x_axisx
property float x_axisy
property float x_axisz
property float y_axisx
property float y_axisy
property float y_axisz
property float z_axisx
property float z_axisy
property float z_axisz
property float focal
property float scalex
property float scaley
property float centerx
property float centery
property int viewportx
property int viewporty
property float k1
property float k2
end_header
-0.30763355 -0.35149342 -0.83220202 56 41 57
-0.30680496 -0.35183939 -0.83229941 74 46 62
-0.30880883 -0.35265857 -0.83218169 36 24 38
-0.30802786 -0.35331565 -0.83229709 54 27 41
-0.31012148 -0.35203499 -0.83193284 32 28 38
-0.30908293 -0.35115117 -0.83197427 47 41 52
-0.31017244 -0.35239068 -0.83197945 26 22 32
-0.31030017 -0.35074103 -0.83170068 58 51 56
-0.30525276 -0.35337961 -0.83198869 87 44 69
-0.30574375 -0.35325971 -0.83213341 85 43 65
-0.30504918 -0.35299733 -0.83189803 86 47 74
-0.30766925 -0.35692737 -0.83184826 82 67 64
-0.30665874 -0.35485578 -0.83210504 89 55 61
-0.30669263 -0.35569862 -0.83190221 92 65 66
-0.30739871 -0.35671556 -0.83183092 85 68 65
-0.30818579 -0.35637712 -0.83212107 71 53 55
-0.31012902 -0.35389987 -0.83216107 16 10 22
-0.30905086 -0.35418537 -0.8322804 40 22 34
-0.31028271 -0.35636732 -0.83237171 35 29 35
-0.30848402 -0.35372892 -0.83228809 48 24 37
-0.30554745 -0.35472026 -0.83179164 92 57 72
-0.30646044 -0.35529259 -0.83193409 91 61 66
-0.30638286 -0.35542667 -0.83187616 92 63 67
-0.30564317 -0.35387257 -0.83203447 88 46 66
-0.30587763 -0.3557913 -0.83162612 95 69 75
-0.30551675 -0.3563751 -0.83138907 98 77 82
-0.30825159 -0.35903195 -0.83204287 63 55 52
-0.30764222 -0.35898602 -0.83187932 73 64 58
-0.30831164 -0.36001024 -0.83216006 55 48 46
-0.30795246 -0.35796076 -0.83185375 75 66 61
-0.3079077 -0.35821819 -0.83186883 74 65 60
-0.30831355 -0.36098951 -0.83199996 43 37 37
-0.30686146 -0.36082098 -0.83038348 41 35 35
-0.30692682 -0.35826451 -0.83145797 86 75 67
-0.30672622 -0.36053553 -0.8303383 46 39 38
-0.30732703 -0.35978714 -0.83132678 61 53 49
-0.30348271 -0.3612414 -0.83114606 98 78 78
-0.30608147 -0.35805321 -0.83119822 89 75 71
-0.30521196 -0.35759908 -0.83135825 98 77 80
-0.30760852 -0.36150876 -0.83094162 32 28 28
-0.30913219 -0.36251363 -0.83209932 24 21 21
-0.30718747 -0.3613745 -0.83053499 33 28 29
-0.30734482 -0.36162069 -0.83056843 30 25 26
-0.30986238 -0.36449355 -0.8318336 5 4 4
-0.30840454 -0.36456001 -0.83116215 6 5 6
-0.30970261 -0.36511806 -0.83181882 1 0 1
-0.30757219 -0.36281466 -0.83055043 20 16 18
-0.30754048 -0.36456144 -0.83077633 6 5 7
-0.30937412 -0.36503965 -0.83166128 2 1 2
-0.30946741 -0.36513484 -0.83171606 1 0 1
-0.30566832 -0.36461481 -0.83072382 29 23 26
-0.30465221 -0.36441097 -0.83101153 57 47 48
-0.30334803 -0.36483201 -0.83141094 92 78 78
-0.30427891 -0.36425805 -0.83111382 67 56 57
-0.3061474 -0.36221725 -0.83024251 35 29 30
-0.30591556 -0.36212164 -0.83031875 41 33 34
-0.30605447 -0.36212459 -0.83026564 38 31 32
-0.30602199 -0.36290586 -0.83038557 32 26 28
-0.30657744 -0.36204085 -0.8300525 27 23 24
-0.3062562 -0.36148033 -0.83009928 38 32 33
-0.30380017 -0.36903736 -0.83174545 98 83 83
-0.30406791 -0.36859027 -0.83171755 92 78 79
-0.30424514 -0.36899185 -0.83173013 90 75 77
-0.30396625 -0.36663422 -0.83163345 90 75 77
-0.30612382 -0.36565781 -0.83074796 21 17 20
-0.30628607 -0.36731538 -0.83120883 36 28 33
-0.30518979 -0.36753953 -0.83159775 69 56 60
-0.30602804 -0.36781067 -0.8314361 49 39 44
-0.30663627 -0.3663767 -0.83081877 15 11 16
-0.30386135 -0.36556208 -0.83137935 82 69 70
-0.30302954 -0.37260848 -0.83123112 96 83 81
-0.30594009 -0.37285662 -0.83182031 22 19 23
-0.30370614 -0.37091735 -0.83167833 85 74 73
-0.30559897 -0.37244415 -0.83181924 32 28 31
-0.30296454 -0.37078872 -0.83153987 104 90 88
-0.30449468 -0.37112948 -0.8318122 65 56 57
-0.30533352 -0.37011313 -0.83177233 60 50 53
-0.30561119 -0.370731 -0.83180737 48 40 44
-0.30520993 -0.37081081 -0.83182496 54 46 49
-0.30424607 -0.37009147 -0.83180338 79 68 69
-0.30645448 -0.37227404 -0.83189034 16 13 18
-0.30456623 -0.37512091 -0.83079422 50 43 42
-0.30356023 -0.37389737 -0.83097327 80 69 67
-0.30357799 -0.37526584 -0.83069736 58 50 49
-0.30478692 -0.3766714 -0.8304953 23 20 20
-0.30386826 -0.37490165 -0.83079094 61 53 51
-0.30566642 -0.37560946 -0.83082557 25 22 22
-0.30611065 -0.37567103 -0.83090055 14 12 13
-0.3053357 -0.3747237 -0.83106518 35 30 30
-0.30577272 -0.3731077 -0.83172876 25 22 25
-0.30488536 -0.37335548 -0.83144855 47 41 42
-0.30522951 -0.37394816 -0.83131492 38 33 34
-0.30046254 -0.37492254 -0.83042055 97 82 77
-0.30082861 -0.37645116 -0.83037096 88 76 73
-0.30150691 -0.37435621 -0.83064485 92 79 75
-0.30169827 -0.37462351 -0.83061862 86 74 71
-0.30223927 -0.37511674 -0.8305977 74 63 62
-0.30208716 -0.37570474 -0.83045638 66 56 55
-0.30235791 -0.37487152 -0.83066463 76 66 64
-0.30213606 -0.3737081 -0.83086789 97 83 80
-0.3062304 -0.38023123 -0.83220804 7 6 7
-0.30542234 -0.37860119 -0.83102846 17 15 17
-0.30457196 -0.37953651 -0.83122945 29 26 29
-0.30402425 -0.38070211 -0.83167976 38 34 38
-0.30568001 -0.38030967 -0.83210176 17 15 17
-0.30352384 -0.38072076 -0.83149523 44 40 44
-0.30345455 -0.37947899 -0.83097321 41 37 41
-0.30288115 -0.37882298 -0.83077151 45 40 43
-0.30378321 -0.37930384 -0.83095229 37 34 37
-0.30530649 -0.37742049 -0.83058965 15 13 14
-0.30485147 -0.37857029 -0.83084351 24 21 23
-0.30526304 -0.37762907 -0.83063835 16 14 15
-0.30138788 -0.3799831 -0.83093905 82 73 74
-0.30031353 -0.38014308 -0.83061206 103 91 91
-0.29977435 -0.37972301 -0.83048642 115 101 99
-0.30069453 -0.38035795 -0.83070719 95 84 85
-0.30052489 -0.37999475 -0.83068538 99 88 88
-0.3003619 -0.38066792 -0.8305859 101 90 90
-0.30004391 -0.37774527 -0.83057976 111 98 93
-0.30096725 -0.37884828 -0.83082378 91 81 80
-0.30062518 -0.37754211 -0.83051091 95 84 80
-0.30112016 -0.37749147 -0.83048272 83 73 70
-0.30024821 -0.37829429 -0.83070934 107 95 91
-0.29918978 -0.38295212 -0.83047384 121 105 107
-0.2998862 -0.383434 -0.8306464 108 93 96
-0.29986152 -0.38328201 -0.83062106 108 94 97
-0.30054447 -0.38406545 -0.83083445 95 82 86
-0.29909506 -0.38398916 -0.8306073 120 104 107
-0.2995984 -0.38275129 -0.83050627 114 99 101
-0.2998862 -0.38131216 -0.83043134 111 97 98
-0.29955921 -0.38134849 -0.8303355 117 103 103
-0.29892388 -0.38557419 -0.83076942 115 99 103
-0.29846066 -0.38537553 -0.83060688 122 105 109
-0.29865691 -0.38594207 -0.83073002 116 99 104
-0.31274828 -0.35321069 -0.83328402 2 2 7
-0.31238648 -0.35248443 -0.83313298 2 2 9
-0.3142136 -0.35068485 -0.83430856 0 0 1
-0.31170225 -0.35320464 -0.83268923 3 3 12
-0.31231824 -0.35339898 -0.8330251 2 2 9
-0.31157085 -0.35263655 -0.83259058 14 13 20
-0.31163287 -0.35403931 -0.83268541 8 7 15
-0.31190071 -0.3545787 -0.8328988 12 11 17
-0.31198356 -0.35567424 -0.83306986 22 20 23
-0.31283441 -0.35398367 -0.83336288 6 5 9
-0.31146666 -0.3557761 -0.83278728 23 21 26
-0.31186563 -0.35649225 -0.8331061 26 23 26
-0.31420398 -0.35509896 -0.83430326 2 2 2
-0.31396481 -0.3567979 -0.83439761 4 4 4
-0.31229424 -0.3565492 -0.83336896 22 19 22
-0.3136408 -0.35700977 -0.83423436 8 7 8
-0.31109184 -0.35693109 -0.83270681 34 30 34
-0.30756772 -0.35437417 -0.8324272 72 37 50
-0.31013498 -0.36077195 -0.83299047 14 13 13
-0.31047913 -0.35776639 -0.83249325 37 34 37
-0.31021029 -0.35780156 -0.8324241 42 37 40
-0.30949536 -0.36135289 -0.83277839 23 20 20
-0.3099719 -0.36225393 -0.83278167 12 11 11
-0.30950445 -0.36804447 -0.83259177 15 12 14
-0.31030872 -0.36646175 -0.83245909 3 2 3
-0.3105275 -0.3697013 -0.83322585 0 0 0
-0.31053859 -0.37258264 -0.83296347 0 0 0
-0.3088508 -0.36967495 -0.83262062 21 17 20
-0.30975419 -0.36962518 -0.83296156 8 6 8
-0.30875126 -0.37093028 -0.83252007 15 12 15
-0.30987418 -0.37652233 -0.83351308 0 0 0
-0.30995643 -0.37505993 -0.8330422 0 0 0
-0.31048161 -0.37474737 -0.83350396 0 0 0
-0.3092967 -0.37608108 -0.83270371 0 0 0
-0.30933762 -0.37383941 -0.83258325 1 0 1
-0.30911407 -0.37575945 -0.83252478 0 0 0
-0.30930001 -0.3755177 -0.83257675 0 0 0
0 0 0 1 0 0 0 1 0 0 0 1 0 0 0 0 0 171 1 0 0
