ply
format ascii 1.0
comment PCL generated
element vertex 234
property float x
property float y
property float z
property uchar red
property uchar green
property uchar blue
element camera 1
property float view_px
property float view_py
property float view_pz
property float x_axisx
property float x_axisy
property float x_axisz
property float y_axisx
property float y_axisy
property float y_axisz
property float z_axisx
property float z_axisy
property float z_axisz
property float focal
property float scalex
property float scaley
property float centerx
property float centery
property int viewportx
property int viewporty
property float k1
property float k2
end_header
-0.064992093 -0.32974109 -0.67552763 204 208 209
-0.064863428 -0.32930663 -0.67564821 208 211 212
-0.065777488 -0.32887435 -0.67571098 213 217 217
-0.062813625 -0.32941613 -0.67579877 190 189 192
-0.063346945 -0.32843286 -0.67601031 207 205 208
-0.062721305 -0.32802275 -0.67617184 206 205 208
-0.061153077 -0.329211 -0.67600578 178 174 177
-0.05752774 -0.32984379 -0.67598945 160 141 171
-0.059492163 -0.32928026 -0.67607278 170 162 173
-0.057514083 -0.32957143 -0.67607248 160 142 171
-0.055957679 -0.32976922 -0.67607349 166 145 178
-0.075959437 -0.33384061 -0.67491764 217 207 231
-0.072334692 -0.33303684 -0.67488682 201 199 219
-0.070303008 -0.3334527 -0.67474961 196 190 209
-0.07127364 -0.33366641 -0.6747604 195 191 211
-0.069345303 -0.33273038 -0.67483962 203 195 212
-0.069387205 -0.33363739 -0.67466331 194 184 204
-0.069305882 -0.33144796 -0.6750899 214 211 225
-0.071531557 -0.33255008 -0.67495412 205 203 221
-0.07071574 -0.33155188 -0.67509568 214 212 228
-0.072224848 -0.33244374 -0.67496699 206 204 224
-0.064602889 -0.33122787 -0.67522687 192 193 195
-0.065237746 -0.33206767 -0.67503452 189 187 193
-0.067428559 -0.33311623 -0.67474705 192 182 198
-0.066215411 -0.33242393 -0.67492896 191 185 196
-0.06671764 -0.33267671 -0.67486054 192 184 197
-0.065034069 -0.33035946 -0.67538708 200 203 205
-0.067785442 -0.33273208 -0.67480868 198 188 204
-0.067593142 -0.33182687 -0.67499465 205 198 211
-0.067919895 -0.33160555 -0.67502499 209 203 216
-0.06761764 -0.33071876 -0.67521185 215 212 222
-0.068096399 -0.3329424 -0.67475474 198 187 205
-0.060696337 -0.33090633 -0.67562217 163 152 160
-0.061693829 -0.33197138 -0.6753071 166 155 163
-0.062210578 -0.33305746 -0.67500913 169 154 165
-0.061447628 -0.33279932 -0.6751098 168 150 162
-0.060629543 -0.33033049 -0.67577046 162 154 160
-0.063185379 -0.33187386 -0.6752212 175 171 175
-0.06296052 -0.33053705 -0.6755147 181 181 183
-0.060765039 -0.33022058 -0.67578822 163 156 161
-0.063603565 -0.3311809 -0.67532241 183 183 185
-0.06336043 -0.33028457 -0.67552805 187 188 190
-0.058004059 -0.33198968 -0.67542231 162 133 166
-0.056796178 -0.33297437 -0.67516643 164 128 168
-0.058559734 -0.33344647 -0.6750198 167 132 164
-0.057292886 -0.33133653 -0.6756075 160 132 168
-0.057713326 -0.3333424 -0.67505682 166 130 166
-0.05780372 -0.33344001 -0.67502928 166 130 166
-0.058413498 -0.33029097 -0.67584932 159 141 166
-0.060385112 -0.33365527 -0.67494088 169 138 160
-0.059620857 -0.33181226 -0.67542893 164 141 162
-0.059150137 -0.33044413 -0.67578822 160 145 163
-0.059873998 -0.33142185 -0.67551959 163 145 161
-0.054807004 -0.33374614 -0.6750676 190 167 193
-0.054483101 -0.3322261 -0.67544544 194 172 198
-0.054498728 -0.33210564 -0.67547274 194 171 198
-0.05507528 -0.33396178 -0.67499959 186 162 189
-0.054712128 -0.33055601 -0.67587918 187 169 196
-0.054216322 -0.33147752 -0.6756416 197 177 202
-0.055120382 -0.33152238 -0.67560482 183 159 190
-0.054892853 -0.33127505 -0.67567837 186 164 193
-0.055865627 -0.33162552 -0.67555654 172 144 180
-0.080985688 -0.33753923 -0.67512929 200 190 213
-0.076920159 -0.33753195 -0.67470044 187 174 205
-0.078545347 -0.33775023 -0.67483652 189 177 206
-0.077331766 -0.33582813 -0.67487174 204 192 219
-0.079590671 -0.33776408 -0.67493397 192 180 208
-0.076176681 -0.33735991 -0.6746437 187 174 205
-0.079029836 -0.33620822 -0.67499453 207 197 220
-0.077776961 -0.33543786 -0.67494226 209 198 223
-0.078979097 -0.33590358 -0.67501038 210 201 222
-0.078209899 -0.33488426 -0.67501426 219 210 229
-0.077528976 -0.33471054 -0.67496973 217 207 228
-0.072401084 -0.33654246 -0.67448443 188 174 200
-0.07292632 -0.33700702 -0.67447084 187 172 199
-0.073847145 -0.33769834 -0.67446035 185 168 197
-0.073646627 -0.33702874 -0.67451882 186 172 200
-0.073583744 -0.33654132 -0.67456722 187 175 202
-0.073415577 -0.33426866 -0.67477518 197 192 215
-0.075830817 -0.33681509 -0.67467225 190 178 207
-0.075706467 -0.33481741 -0.67482281 207 196 222
-0.076148793 -0.33610478 -0.67474008 198 186 214
-0.076052964 -0.33478585 -0.67483896 210 198 224
-0.076087452 -0.33576488 -0.67476404 201 189 216
-0.068603836 -0.33742687 -0.6740405 193 184 192
-0.071457498 -0.33732328 -0.6743359 188 168 194
-0.070336059 -0.33705318 -0.67426693 189 174 194
-0.069298379 -0.33541059 -0.67441458 190 174 195
-0.068702362 -0.3358579 -0.67428827 191 179 194
-0.072255969 -0.33420992 -0.67472696 192 189 210
-0.071691521 -0.33414051 -0.67470372 192 187 209
-0.071609229 -0.33627513 -0.6744681 189 173 198
-0.070013039 -0.33424193 -0.67460126 191 180 202
-0.070184231 -0.3339937 -0.6746375 191 182 203
-0.064900406 -0.33753857 -0.67395252 202 189 191
-0.067603111 -0.33737189 -0.67403787 191 184 189
-0.064502746 -0.33523771 -0.67441553 183 175 179
-0.065058641 -0.33688322 -0.67408961 196 185 187
-0.064862952 -0.3362011 -0.67422533 190 181 184
-0.066900395 -0.33564925 -0.67433554 185 177 185
-0.06635426 -0.33434957 -0.67455131 182 172 184
-0.068061605 -0.33700818 -0.67409009 191 183 191
-0.065313011 -0.33459765 -0.6745488 177 171 177
-0.067130454 -0.33659452 -0.67418432 187 180 186
-0.063339397 -0.33770451 -0.67392761 207 193 194
-0.06290596 -0.33666858 -0.674182 196 176 183
-0.062365286 -0.33679399 -0.67415684 199 180 186
-0.061164983 -0.3349413 -0.67461586 180 152 169
-0.060711887 -0.33479217 -0.67465621 179 151 168
-0.064189456 -0.33627611 -0.67421454 192 180 183
-0.063687347 -0.33535263 -0.67442679 184 170 177
-0.063357167 -0.33478832 -0.67455757 179 164 173
-0.062990718 -0.3356995 -0.67438835 186 167 176
-0.063148342 -0.33592644 -0.67433459 188 169 178
-0.058076996 -0.33564165 -0.67448545 188 158 182
-0.058842275 -0.33764747 -0.67403579 207 190 198
-0.058550566 -0.33713615 -0.67415476 202 181 194
-0.057671838 -0.33709934 -0.67420173 197 173 191
-0.056994576 -0.33612314 -0.67443424 186 155 183
-0.059147105 -0.33706555 -0.67414266 204 185 195
-0.060111109 -0.33689547 -0.67415398 205 188 193
-0.060213462 -0.33563384 -0.67445779 190 166 179
-0.059198968 -0.33629438 -0.6743086 197 175 188
-0.059434764 -0.33439365 -0.67476541 174 141 166
-0.057408269 -0.33444285 -0.67477429 174 136 171
-0.054609388 -0.33450189 -0.67491734 196 179 199
-0.056001209 -0.33630499 -0.67445385 194 169 192
-0.055118717 -0.3359414 -0.6745863 201 185 202
-0.056045882 -0.33635855 -0.67443985 193 169 192
-0.080105267 -0.33843759 -0.67493796 194 184 206
-0.0762721 -0.33955294 -0.6744855 177 154 186
-0.077267572 -0.33967435 -0.67457896 187 172 192
-0.076623268 -0.34028649 -0.67446578 178 153 182
-0.076470248 -0.34130743 -0.67437214 172 140 171
-0.07756643 -0.3384597 -0.67469507 188 177 201
-0.079108045 -0.33802095 -0.67486984 190 178 206
-0.07795047 -0.33912557 -0.67468637 192 182 199
-0.078638628 -0.33935443 -0.67473584 195 186 199
-0.073602296 -0.34125254 -0.67405081 181 161 193
-0.07407295 -0.34158167 -0.67406666 179 156 189
-0.073768802 -0.34144321 -0.67404652 180 160 192
-0.074563399 -0.34051642 -0.67427063 175 146 178
-0.072839268 -0.33935791 -0.67420638 184 164 193
-0.074912906 -0.34104764 -0.67424423 173 143 176
-0.074720882 -0.33796564 -0.67449486 184 167 197
-0.075431108 -0.33815023 -0.67453039 182 165 197
-0.072779365 -0.33839315 -0.67432654 184 161 190
-0.075225011 -0.33965695 -0.6744011 176 150 183
-0.074723318 -0.33958811 -0.67437124 177 150 182
-0.07483837 -0.34018308 -0.67433393 174 145 177
-0.068506502 -0.33904004 -0.67382294 198 189 197
-0.070348345 -0.34104386 -0.67373914 197 187 208
-0.068608463 -0.33816785 -0.67393404 193 186 193
-0.069861114 -0.34078914 -0.67372882 199 188 206
-0.070034035 -0.34062645 -0.67376232 197 187 206
-0.070728377 -0.3380557 -0.67415637 189 174 193
-0.069788732 -0.33886173 -0.67395693 192 183 197
-0.069646962 -0.33867264 -0.6739682 192 183 196
-0.071503468 -0.33996144 -0.67397863 189 178 203
-0.071295634 -0.33960536 -0.67400563 190 177 201
-0.064771242 -0.33995691 -0.67361009 215 195 208
-0.064620011 -0.33954999 -0.67365879 213 194 205
-0.066382818 -0.34159076 -0.67344791 217 198 216
-0.065136924 -0.3387174 -0.67378563 208 193 197
-0.065039821 -0.34085101 -0.67350107 218 197 214
-0.064829148 -0.3401885 -0.67358148 215 196 210
-0.06825915 -0.34006444 -0.67368817 204 193 203
-0.065651812 -0.33900702 -0.67376328 208 193 198
-0.064711474 -0.33794779 -0.67387021 206 191 193
-0.067932464 -0.33809441 -0.67391396 196 188 193
-0.066266038 -0.33832711 -0.67385501 203 190 194
-0.060929097 -0.33901522 -0.67373604 222 212 213
-0.06298615 -0.33912942 -0.67372262 216 200 206
-0.062281542 -0.33826253 -0.67384356 214 201 202
-0.062387474 -0.33837539 -0.67382771 214 201 202
-0.063859612 -0.33931088 -0.67369044 214 196 205
-0.063756838 -0.33995762 -0.67360616 217 198 211
-0.05906482 -0.33801329 -0.67395586 211 196 201
-0.059074588 -0.33802462 -0.67395353 211 196 201
-0.076333173 -0.34366754 -0.67428869 199 177 194
-0.078325346 -0.34277344 -0.67454493 190 171 189
-0.078045778 -0.34229568 -0.6745069 187 166 182
-0.072527178 -0.34339428 -0.67376488 212 206 224
-0.073264837 -0.34360766 -0.67387146 213 207 222
-0.075970098 -0.34361127 -0.67424124 200 179 196
-0.073952265 -0.34303659 -0.67399728 202 191 211
-0.075268745 -0.3432349 -0.67416012 198 178 198
-0.074295744 -0.3421495 -0.67405897 184 163 193
-0.07060802 -0.34202883 -0.67365944 203 192 213
-0.069889672 -0.3420884 -0.67359686 208 196 214
-0.067313582 -0.34186471 -0.67344743 216 198 215
-0.061676808 -0.32088467 -0.67821658 204 189 195
-0.060994212 -0.32197979 -0.67792976 213 212 203
-0.061646175 -0.32208809 -0.6778391 217 216 208
-0.060117316 -0.3205111 -0.67846489 193 178 183
-0.060242273 -0.32170337 -0.67807883 206 205 197
-0.059689887 -0.31957567 -0.67879272 180 158 172
-0.059792101 -0.32072443 -0.67842209 193 184 185
-0.061155736 -0.32492256 -0.67711598 218 223 214
-0.061193388 -0.32380524 -0.67741179 219 222 212
-0.060909089 -0.32559368 -0.67695719 216 223 213
-0.060633503 -0.32342023 -0.67756194 215 219 206
-0.060755644 -0.32270631 -0.67774266 216 219 206
-0.062237415 -0.32419521 -0.67721951 227 228 222
-0.061599787 -0.32226795 -0.67778641 219 220 210
-0.062133919 -0.32337269 -0.67744714 225 226 218
-0.05904033 -0.32604712 -0.67699707 189 184 184
-0.057927489 -0.32482535 -0.67745811 167 146 158
-0.057125378 -0.3257246 -0.67725492 156 135 150
-0.059214707 -0.32527864 -0.67721361 190 182 183
-0.060036726 -0.32260969 -0.6778459 205 202 193
-0.059613407 -0.32497495 -0.67726272 196 191 189
-0.059380632 -0.32251805 -0.67794734 192 181 179
-0.059299864 -0.32271186 -0.67790496 191 178 178
-0.058008499 -0.32347554 -0.67785203 166 138 152
-0.058479488 -0.32311711 -0.67789274 175 153 162
-0.060885265 -0.3271963 -0.67654228 202 206 201
-0.061926533 -0.32700261 -0.67650115 214 217 213
-0.060800642 -0.32749331 -0.67647386 198 200 196
-0.05726327 -0.32760021 -0.67669231 156 136 157
-0.057930682 -0.32794967 -0.67655194 161 144 162
-0.058175702 -0.32723337 -0.67675912 161 146 158
-0.058288187 -0.32726583 -0.67674357 162 148 158
-0.060046848 -0.32653579 -0.67678219 200 203 197
-0.058631446 -0.3270618 -0.67676687 170 159 167
-0.058922529 -0.32737005 -0.67666382 171 161 168
-0.055325527 -0.3287079 -0.67643434 167 149 170
-0.054132573 -0.329521 -0.67620403 191 177 198
-0.054977819 -0.32874358 -0.67643261 172 155 175
-0.055503562 -0.32785347 -0.67669559 161 142 159
-0.055946138 -0.32847661 -0.6764853 159 138 162
-0.054255195 -0.32696527 -0.6770224 170 155 157
-0.054786235 -0.32754228 -0.67682236 166 150 160
-0.056183647 -0.32635355 -0.67712539 153 132 147
0 0 0 1 0 0 0 1 0 0 0 1 0 0 0 0 0 234 1 0 0
