ply
format ascii 1.0
comment PCL generated
element vertex 420
property float x
property float y
property float z
property uchar red
property uchar green
property uchar blue
element camera 1
property float view_px
property float view_py
property float view_pz
property float x_axisx
property float x_axisy
property float x_axisz
property float y_axisx
property float y_axisy
property float y_axisz
property float z_axisx
property float z_axisy
property float z_axisz
property float focal
property float scalex
property float scaley
property float centerx
property float centery
property int viewportx
property int viewporty
property float k1
property float k2
end_header
-0.14886515 -0.14403048 -0.74184555 136 111 123
-0.14891176 -0.14427243 -0.74183255 136 111 121
-0.15001605 -0.14431372 -0.74253398 139 114 122
-0.15019506 -0.14577635 -0.74238867 136 112 109
-0.14934213 -0.14516461 -0.74194974 135 110 114
-0.14770591 -0.14464563 -0.74098068 129 103 114
-0.14838469 -0.14450601 -0.74145174 133 108 118
-0.14760984 -0.14414565 -0.74101317 131 105 119
-0.1459765 -0.14367612 -0.74005646 127 100 119
-0.1453817 -0.14425722 -0.73958343 126 100 111
-0.15078159 -0.14783616 -0.74247289 135 113 106
-0.15063529 -0.14968055 -0.74211413 135 114 109
-0.14996712 -0.15013283 -0.7416026 133 110 107
-0.14956069 -0.14678068 -0.74180317 131 106 101
-0.1500074 -0.14670989 -0.74210548 133 109 102
-0.15008709 -0.14925982 -0.74180323 134 111 107
-0.14965189 -0.14695384 -0.74183881 131 107 102
-0.151297 -0.15116017 -0.74238473 133 112 109
-0.16545604 -0.1383283 -0.75726503 161 139 157
-0.16357177 -0.13848253 -0.75524032 164 140 166
-0.16537525 -0.13851418 -0.75710654 160 137 157
-0.16595143 -0.13791683 -0.75804746 161 140 158
-0.1668812 -0.14082187 -0.75809467 142 120 130
-0.16680601 -0.14215548 -0.75752985 133 112 121
-0.16628347 -0.14013278 -0.75755101 147 125 140
-0.16634656 -0.14189517 -0.75701636 136 114 127
-0.16617519 -0.14103217 -0.75709331 142 119 134
-0.16559744 -0.13988961 -0.75688559 152 130 147
-0.16566901 -0.14053662 -0.75672698 148 126 141
-0.16571458 -0.14199063 -0.75626075 138 116 131
-0.16540568 -0.14202973 -0.75595284 139 118 132
-0.16504036 -0.13959745 -0.75641567 156 134 152
-0.1648868 -0.1401813 -0.75607973 154 133 149
-0.16434398 -0.13902256 -0.75586343 160 136 159
-0.16384462 -0.13941374 -0.7552253 159 136 159
-0.16305408 -0.13912839 -0.75448769 162 137 165
-0.16437781 -0.14156815 -0.75513148 149 130 142
-0.16395549 -0.14195767 -0.75457406 149 130 142
-0.16745614 -0.1427149 -0.75818497 128 107 111
-0.16471435 -0.143254 -0.75493789 137 116 129
-0.17394117 -0.12533903 -0.77105749 161 141 151
-0.17437977 -0.12523544 -0.77139407 154 134 145
-0.17293942 -0.12556584 -0.77005905 167 148 159
-0.17310466 -0.12671803 -0.77122098 165 143 154
-0.17265837 -0.12688093 -0.77081513 168 146 157
-0.17476554 -0.12972075 -0.77359331 158 131 141
-0.17467116 -0.12907223 -0.77342385 159 132 143
-0.17482282 -0.1278147 -0.77345544 160 136 147
-0.17397349 -0.12857506 -0.77260059 158 132 144
-0.17382832 -0.12833723 -0.77241373 158 132 144
-0.17376879 -0.13079998 -0.77253503 155 122 139
-0.17320324 -0.13020986 -0.77163553 158 131 147
-0.17366911 -0.12974592 -0.7722953 157 128 143
-0.17290853 -0.12955956 -0.77113742 161 138 152
-0.17377906 -0.1282762 -0.77233464 159 133 145
-0.17267521 -0.12770574 -0.7708602 166 144 156
-0.17279534 -0.12909159 -0.77094054 162 141 154
-0.17253 -0.12784994 -0.77067715 166 145 157
-0.17216519 -0.12826291 -0.7702148 168 147 160
-0.17479841 -0.13103622 -0.77369839 156 126 138
-0.17450617 -0.13120127 -0.77332205 154 124 137
-0.17486688 -0.13200498 -0.77353597 151 123 134
-0.17510563 -0.13409916 -0.77317053 140 116 125
-0.17407778 -0.13252831 -0.7722733 147 118 133
-0.17462239 -0.13400708 -0.77246058 140 115 127
-0.17477021 -0.13284622 -0.7732076 146 118 130
-0.17484903 -0.13396001 -0.77283376 141 116 127
-0.17363997 -0.13368596 -0.77107298 143 116 132
-0.17362814 -0.13236102 -0.77164471 150 119 136
-0.17331056 -0.13279733 -0.77096575 149 122 138
-0.17265944 -0.13223495 -0.77024531 155 131 147
-0.17348449 -0.13107307 -0.77201539 155 125 142
-0.1731838 -0.13231663 -0.77099526 152 124 141
-0.17403506 -0.13633803 -0.77023989 125 103 111
-0.17528762 -0.13566861 -0.77261835 130 108 114
-0.17509612 -0.13527425 -0.77255571 133 111 118
-0.17542024 -0.13499355 -0.77322662 135 113 120
-0.1744256 -0.13602814 -0.77106458 126 104 113
-0.17589992 -0.13525234 -0.77377391 136 113 120
-0.17365173 -0.13561624 -0.77006012 133 110 120
-0.18485916 -0.13028018 -0.78561157 151 134 140
-0.18596888 -0.13095587 -0.78697419 142 125 130
-0.18606195 -0.13122077 -0.78711683 142 124 129
-0.18676834 -0.13398767 -0.78829664 133 119 118
-0.18581417 -0.13322189 -0.78698123 139 126 125
-0.18593039 -0.13304769 -0.78710866 140 126 126
-0.1864441 -0.13383834 -0.78786325 135 121 120
-0.18524376 -0.13298307 -0.78624445 141 129 128
-0.18522376 -0.13232918 -0.78614032 144 131 131
-0.18499742 -0.1318654 -0.78587049 147 134 134
-0.18482815 -0.13191327 -0.7857061 148 134 135
-0.16302003 -0.14025804 -0.75408363 159 137 159
-0.16228294 -0.14076473 -0.75312155 162 141 161
-0.16243742 -0.14208072 -0.75290614 158 138 150
-0.16279423 -0.14186786 -0.75335032 156 136 149
-0.16124469 -0.14075729 -0.75216812 164 143 161
-0.16083971 -0.14241555 -0.75132757 159 139 149
-0.16048911 -0.14096753 -0.75143152 164 144 159
-0.16335593 -0.14345613 -0.7535066 145 124 136
-0.1629594 -0.1439406 -0.75296181 145 124 136
-0.16246501 -0.14487943 -0.7523095 144 129 138
-0.16261582 -0.1446536 -0.75249696 144 127 137
-0.16181642 -0.145722 -0.75155377 144 133 139
-0.16147421 -0.1463006 -0.75114566 142 132 138
-0.16163558 -0.14642769 -0.75126153 141 132 137
-0.16154522 -0.14404063 -0.75163978 154 137 144
-0.16072515 -0.14392847 -0.75093067 154 137 144
-0.16077234 -0.14386483 -0.75098431 154 137 145
-0.1602318 -0.14434151 -0.75041586 153 137 143
-0.16076165 -0.14677091 -0.75044769 142 129 135
-0.1610058 -0.14707299 -0.75061375 138 123 131
-0.17430775 -0.12303267 -0.76820469 129 127 127
-0.17500754 -0.12287881 -0.76846892 112 106 112
-0.17389397 -0.1225897 -0.76611549 110 125 114
-0.17376819 -0.12261088 -0.76604176 112 127 115
-0.17437127 -0.12350211 -0.76928586 141 129 136
-0.17465715 -0.12337909 -0.76936299 134 121 130
-0.1714208 -0.12401159 -0.76648188 139 129 134
-0.17212614 -0.12334838 -0.7661224 130 130 128
-0.17096089 -0.12514415 -0.76707119 148 132 139
-0.17059763 -0.12593044 -0.76737171 153 134 142
-0.17037329 -0.12549712 -0.76688755 150 131 140
-0.17209488 -0.12422562 -0.76725256 143 134 137
-0.17030478 -0.12557785 -0.76689494 151 131 141
-0.1723512 -0.12482573 -0.76829571 153 140 145
-0.17244548 -0.12496604 -0.76878983 158 141 149
-0.17308426 -0.12430132 -0.76874912 154 142 147
-0.17116426 -0.12592675 -0.76808995 158 138 146
-0.17229792 -0.12537228 -0.76913786 163 143 153
-0.17141241 -0.12650318 -0.76900977 166 144 155
-0.17269784 -0.12538041 -0.76961839 166 147 157
-0.17094505 -0.12694827 -0.76881856 166 144 154
-0.1689993 -0.12658158 -0.76631576 159 136 146
-0.1689544 -0.12663652 -0.76630604 159 136 146
-0.17105339 -0.12893136 -0.76885951 161 140 153
-0.17184503 -0.12736212 -0.76986998 171 150 162
-0.17178267 -0.12957831 -0.76969391 164 144 159
-0.17166172 -0.12937662 -0.76955986 164 143 158
-0.17000026 -0.1301434 -0.76747388 157 126 147
-0.17091651 -0.13030517 -0.76859355 160 134 153
-0.1699439 -0.12913452 -0.76747787 158 128 146
-0.17173909 -0.13040115 -0.76960236 162 141 158
-0.16992566 -0.12805642 -0.76753402 159 132 146
-0.16961391 -0.12947348 -0.76703942 159 128 147
-0.16971774 -0.13033512 -0.76710689 158 125 147
-0.16886392 -0.12821358 -0.76629525 162 134 149
-0.16871805 -0.12776574 -0.76618361 162 136 149
-0.16992331 -0.13193396 -0.76674587 155 118 143
-0.17135526 -0.13243596 -0.76828349 156 130 151
-0.17040524 -0.13201757 -0.76732564 155 122 146
-0.17035227 -0.13123435 -0.76766318 157 125 148
-0.17023709 -0.13228768 -0.76697892 154 119 144
-0.17202447 -0.13474439 -0.76822495 145 114 135
-0.17191267 -0.13325763 -0.76871383 152 125 144
-0.17274128 -0.13438752 -0.76940823 145 118 135
-0.17098887 -0.13385935 -0.76712692 151 119 143
-0.17172632 -0.13429531 -0.76799363 147 117 138
-0.17194846 -0.13352835 -0.7686469 150 123 143
-0.17147496 -0.13412237 -0.76770884 149 118 140
-0.16980806 -0.13193852 -0.76659858 155 118 144
-0.16967471 -0.13176265 -0.76652622 156 119 145
-0.17381676 -0.13653447 -0.76975369 125 103 109
-0.17291938 -0.13731416 -0.7680698 121 98 107
-0.17297207 -0.13565245 -0.76908427 135 110 124
-0.17278597 -0.13707046 -0.76802379 123 99 110
-0.17182735 -0.13692972 -0.76674271 127 99 115
-0.17172404 -0.13527279 -0.76750606 141 110 131
-0.17173164 -0.13509591 -0.76761431 142 112 132
-0.17214563 -0.13671207 -0.76731867 128 101 116
-0.17224436 -0.1376449 -0.76694703 120 95 107
-0.17089845 -0.13579261 -0.76603675 138 105 128
-0.17138794 -0.13530666 -0.76700568 141 109 131
-0.18181862 -0.12858987 -0.78193724 160 133 153
-0.18304677 -0.12979536 -0.78351748 157 137 147
-0.18307666 -0.12958875 -0.78349918 158 135 148
-0.18170321 -0.12930536 -0.78198797 160 138 152
-0.18205674 -0.1278325 -0.78202784 159 126 154
-0.18257695 -0.12801029 -0.78262657 158 126 152
-0.18320288 -0.12780756 -0.78332704 153 122 148
-0.1831048 -0.1276439 -0.78318924 153 121 148
-0.18389502 -0.12872198 -0.78426576 152 126 144
-0.18402162 -0.12910603 -0.78446746 152 128 144
-0.18130913 -0.13061661 -0.78182685 157 144 148
-0.18225896 -0.13116147 -0.78296572 156 145 145
-0.1838111 -0.13182014 -0.78464109 150 138 138
-0.18329437 -0.13234536 -0.78413361 148 138 136
-0.18325399 -0.1326316 -0.78411049 147 137 135
-0.18392104 -0.13210848 -0.78477609 149 137 136
-0.18300942 -0.13192521 -0.78380585 151 140 139
-0.18408453 -0.13460265 -0.78510088 134 124 120
-0.18305717 -0.13287914 -0.78391749 145 136 134
-0.18266977 -0.13380207 -0.78351468 136 119 119
-0.18243518 -0.13318509 -0.78323829 140 125 125
-0.18291101 -0.13407826 -0.78378904 134 118 118
-0.18291911 -0.13396755 -0.78379494 135 120 119
-0.18163861 -0.13116503 -0.78230137 156 143 145
-0.18112954 -0.13172914 -0.78167897 150 134 138
-0.15570413 -0.14561722 -0.74642891 156 137 139
-0.15490758 -0.14554112 -0.7458021 157 139 138
-0.1548665 -0.14578541 -0.74571908 156 138 136
-0.15459292 -0.14597824 -0.74545896 155 138 134
-0.15183684 -0.14605661 -0.74347693 142 121 116
-0.15297049 -0.14528421 -0.74440598 149 129 131
-0.1532522 -0.1460561 -0.74446452 149 130 126
-0.15124106 -0.14576709 -0.74311298 140 118 115
-0.15337701 -0.14508119 -0.7447381 153 134 135
-0.1522371 -0.14416458 -0.74410093 150 127 135
-0.15303302 -0.14491916 -0.74452245 151 131 134
-0.15260114 -0.14432332 -0.74433178 151 130 136
-0.15653457 -0.14956872 -0.74645305 133 119 122
-0.15572789 -0.14652801 -0.74626493 151 131 133
-0.15518245 -0.14814696 -0.74557877 143 128 125
-0.15432493 -0.14723083 -0.74502707 150 135 128
-0.15650122 -0.15026379 -0.74632072 129 117 120
-0.15505171 -0.15035324 -0.74514163 137 128 122
-0.15290411 -0.1497574 -0.74367255 140 126 118
-0.15310745 -0.15011247 -0.74375808 140 127 118
-0.15372503 -0.15010646 -0.74418098 141 130 121
-0.15417016 -0.14707002 -0.74494219 151 134 128
-0.1508587 -0.14694524 -0.74265349 136 115 106
-0.15231413 -0.14729124 -0.74362051 142 123 116
-0.15192688 -0.14911525 -0.74309492 139 120 114
-0.15269713 -0.14729092 -0.74388778 144 125 119
-0.15171359 -0.14990313 -0.74283582 137 118 113
-0.15328035 -0.14721566 -0.74430525 147 129 123
-0.15480578 -0.15083966 -0.7448678 137 126 118
-0.15658286 -0.15114991 -0.74624819 125 111 113
-0.15574408 -0.15127929 -0.74555337 130 116 113
-0.15509248 -0.15163511 -0.74498063 132 118 112
-0.15350395 -0.15207365 -0.7437861 134 119 113
-0.15417506 -0.15198946 -0.74423987 134 121 115
-0.15386024 -0.1506304 -0.74420244 140 130 120
-0.15343058 -0.1513982 -0.7438187 136 123 116
-0.15341924 -0.15182413 -0.74376094 135 120 114
-0.15243973 -0.15074641 -0.74321812 136 120 114
-0.16714844 -0.13466997 -0.76139349 166 146 165
-0.1661424 -0.13717456 -0.75867486 163 145 162
-0.16667619 -0.13501634 -0.76056242 167 151 169
-0.16678697 -0.13599636 -0.76018554 163 144 162
-0.16680159 -0.13557722 -0.76043195 164 146 165
-0.16699077 -0.13663013 -0.76012331 160 138 156
-0.16831517 -0.13751718 -0.76130784 152 129 148
-0.16686335 -0.13846873 -0.75891536 155 133 150
-0.16839124 -0.13743494 -0.76145178 152 129 148
-0.16916981 -0.13857749 -0.76178646 145 122 141
-0.16715944 -0.13846715 -0.75929284 154 132 149
-0.16786069 -0.13697918 -0.76103848 155 132 151
-0.16765682 -0.13709879 -0.76071054 156 133 151
-0.16880605 -0.14116636 -0.76031405 129 105 117
-0.16979031 -0.14130874 -0.76135486 118 91 104
-0.1698208 -0.13998659 -0.76192737 129 103 121
-0.16974048 -0.14086315 -0.76148075 122 96 110
-0.16813596 -0.14174144 -0.75933319 130 108 116
-0.16955791 -0.14010534 -0.76158851 130 105 122
-0.16798007 -0.13946964 -0.75995022 145 123 138
-0.16822077 -0.14015616 -0.76002502 140 118 131
-0.16707306 -0.14096378 -0.75829309 140 119 128
-0.16773735 -0.14155459 -0.75893885 134 113 120
-0.16865556 -0.13870783 -0.76106614 147 124 142
-0.16876659 -0.13978067 -0.76084578 140 118 132
-0.16776849 -0.14168335 -0.75893503 133 112 119
-0.16851859 -0.14288935 -0.7593171 118 92 99
-0.16829163 -0.14337289 -0.7589066 118 92 99
-0.16821703 -0.14277683 -0.75901705 121 97 103
-0.16800123 -0.14431144 -0.75827742 116 89 97
-0.17866646 -0.1259961 -0.77756357 159 144 148
-0.17624027 -0.12655579 -0.77473855 163 145 152
-0.17747235 -0.12594374 -0.77576727 164 150 153
-0.17554651 -0.12685221 -0.77411473 161 141 150
-0.1776572 -0.12632728 -0.77636105 171 159 159
-0.17725477 -0.12595135 -0.77549267 163 148 152
-0.17794797 -0.1280386 -0.77754545 175 164 160
-0.1775983 -0.12795375 -0.77706593 176 165 162
-0.17653793 -0.12836991 -0.77577788 166 150 153
-0.17671691 -0.12829779 -0.7759949 168 152 154
-0.17717278 -0.13002659 -0.77693486 166 151 150
-0.17705804 -0.12847662 -0.77647257 170 156 156
-0.1770615 -0.12926768 -0.77663726 168 153 153
-0.1750209 -0.1301062 -0.7739327 158 131 141
-0.17498691 -0.13038711 -0.77392334 158 130 140
-0.17652145 -0.13023178 -0.77605277 164 144 147
-0.17665739 -0.12959602 -0.77615666 164 147 149
-0.1761886 -0.13072146 -0.77565306 162 140 144
-0.1762584 -0.12956753 -0.77559358 163 143 148
-0.17496552 -0.13040727 -0.7738961 158 129 140
-0.17779405 -0.13245705 -0.77760488 147 127 131
-0.17671354 -0.13325 -0.77572471 147 127 131
-0.17689526 -0.13375674 -0.77592474 139 116 123
-0.17666976 -0.13429293 -0.77545828 134 111 118
-0.1763722 -0.13445759 -0.77494442 135 112 119
-0.17770074 -0.13141014 -0.77767241 160 144 144
-0.17585875 -0.13338523 -0.77444196 146 124 129
-0.17572905 -0.13285504 -0.77442133 149 125 132
-0.17583697 -0.13265944 -0.77463198 150 127 133
-0.17606494 -0.1322374 -0.77507973 154 132 136
-0.17584752 -0.13301182 -0.77453965 148 126 131
-0.17679776 -0.13179584 -0.77624094 159 141 142
-0.17658991 -0.13601126 -0.77433288 131 106 114
-0.17643487 -0.13598336 -0.77410156 132 108 116
-0.17699823 -0.13656969 -0.77458882 128 101 111
-0.1764783 -0.13630366 -0.77393872 133 107 116
-0.15898776 -0.14199403 -0.74978352 163 146 154
-0.15933362 -0.14139293 -0.75025427 167 150 155
-0.15748711 -0.14213146 -0.7484858 164 148 157
-0.15649505 -0.14223905 -0.747702 166 151 157
-0.15950125 -0.1438015 -0.74986118 155 139 147
-0.15895365 -0.14281534 -0.74955279 158 141 150
-0.16019753 -0.14486644 -0.75028825 151 136 143
-0.1586425 -0.14622757 -0.74862283 149 129 139
-0.15856785 -0.14488173 -0.74881321 153 134 144
-0.16010845 -0.1463183 -0.74993515 147 133 139
-0.15871513 -0.1435369 -0.7492047 156 140 150
-0.15817575 -0.14499208 -0.74844033 153 133 144
-0.15771352 -0.1454587 -0.7479974 152 132 141
-0.15715791 -0.14490671 -0.74767852 154 135 142
-0.15814479 -0.14613296 -0.74819779 150 128 139
-0.15721162 -0.14309162 -0.74806815 161 144 152
-0.15649785 -0.14519948 -0.74711794 155 135 140
-0.15661243 -0.14389624 -0.74745589 159 142 148
-0.15589516 -0.14440498 -0.74681038 160 142 146
-0.15715538 -0.14353544 -0.74793994 159 142 149
-0.15682352 -0.1445512 -0.74749124 156 138 144
-0.15974706 -0.14716056 -0.74946785 139 119 130
-0.15795046 -0.14837573 -0.74770427 135 116 128
-0.15648225 -0.14655305 -0.7468496 150 129 134
-0.15688311 -0.14837754 -0.74689293 139 122 128
-0.15694386 -0.14967392 -0.74675238 131 118 123
-0.15706034 -0.14907815 -0.74692738 135 119 125
-0.15761812 -0.15188213 -0.74693573 116 96 106
-0.15720418 -0.15063317 -0.74680734 123 109 117
-0.15749131 -0.15158573 -0.74688375 118 99 109
-0.17446046 -0.12218665 -0.76556826 98 109 108
-0.17544334 -0.12206448 -0.76595628 89 97 104
-0.17466506 -0.1218776 -0.76502651 89 97 104
-0.17160065 -0.1228743 -0.76501632 131 127 132
-0.17126161 -0.12265062 -0.76431996 131 123 134
-0.1715368 -0.12237257 -0.76394975 126 119 131
-0.17221974 -0.12283644 -0.76538944 126 127 127
-0.17363089 -0.12184389 -0.76425701 95 102 108
-0.1738148 -0.12219597 -0.76515734 102 114 110
-0.17285405 -0.12227164 -0.76465726 113 117 120
-0.17269072 -0.12227727 -0.76455629 114 117 121
-0.17009006 -0.123077 -0.76428622 144 129 145
-0.17090614 -0.124015 -0.76591426 138 127 133
-0.17165484 -0.12312704 -0.76548946 132 130 132
-0.16873297 -0.1242215 -0.76386839 154 135 152
-0.16870581 -0.12484713 -0.76450849 154 134 149
-0.16986923 -0.12432265 -0.76546031 146 126 140
-0.16934599 -0.12500317 -0.76552004 150 128 142
-0.16909769 -0.12499762 -0.76518804 151 130 144
-0.16792634 -0.12528738 -0.76396835 160 139 154
-0.16748296 -0.12638058 -0.76449329 164 141 154
-0.16801444 -0.12681332 -0.76539463 164 140 151
-0.16780393 -0.12696038 -0.7652607 166 142 153
-0.16859025 -0.12974046 -0.76574832 164 133 152
-0.16846009 -0.13002248 -0.76550704 166 134 154
-0.16855609 -0.13036063 -0.76560122 165 132 153
-0.16864952 -0.12990831 -0.76581275 164 132 151
-0.17014223 -0.13448799 -0.76564026 150 112 139
-0.16922773 -0.13420627 -0.76451898 155 121 145
-0.16903141 -0.13399684 -0.76437604 156 123 147
-0.16830666 -0.13283019 -0.76407284 162 132 154
-0.16856152 -0.13195814 -0.76493472 162 130 153
-0.16929737 -0.13309494 -0.76527148 156 120 145
-0.16846929 -0.13347837 -0.76391351 160 130 152
-0.1684916 -0.13195911 -0.76482981 163 131 153
-0.16804825 -0.13125284 -0.76453847 170 139 159
-0.16822986 -0.13291995 -0.76391041 163 133 155
-0.16801271 -0.13205242 -0.7640506 168 138 158
-0.16812441 -0.13290553 -0.76375782 164 135 156
-0.17074518 -0.13596544 -0.76569676 138 105 127
-0.17115781 -0.13706037 -0.76568502 128 98 115
-0.17041747 -0.13660455 -0.76476115 140 109 129
-0.17042342 -0.13662444 -0.76475805 140 109 129
-0.17085168 -0.13661377 -0.76547086 133 102 121
-0.17147079 -0.13835318 -0.76536781 120 95 109
-0.17059556 -0.13611719 -0.76536947 138 105 126
-0.16990878 -0.13849564 -0.76270843 143 120 139
-0.16939612 -0.13769247 -0.76261598 146 121 141
-0.16855027 -0.13641916 -0.76224595 154 130 150
-0.16914828 -0.13642421 -0.76305795 151 123 144
-0.16941012 -0.13841455 -0.76219112 144 121 140
-0.16891284 -0.13530728 -0.7634238 155 125 148
-0.17079754 -0.13955043 -0.76337099 136 114 127
-0.17081659 -0.14107333 -0.76275212 114 86 102
-0.17106371 -0.14098166 -0.7631107 117 90 104
-0.17164965 -0.14066744 -0.76400191 125 102 112
-0.17183207 -0.13877587 -0.76567668 115 91 102
-0.17224003 -0.14058666 -0.76494294 122 99 106
-0.17078994 -0.13884838 -0.7639026 131 108 123
-0.17163146 -0.13990885 -0.76446623 126 103 113
-0.17156439 -0.13870452 -0.76529086 118 95 107
-0.17267706 -0.14120921 -0.76517987 120 98 101
-0.16973265 -0.13925043 -0.76214898 136 112 131
-0.18012448 -0.12651552 -0.779535 158 134 151
-0.17906436 -0.12687032 -0.7785548 170 154 158
-0.18118474 -0.12617899 -0.78052413 147 115 144
-0.1804478 -0.12623252 -0.77975059 152 126 146
-0.17986411 -0.12736955 -0.77953517 166 142 157
-0.18115921 -0.12714309 -0.78089929 160 126 154
-0.17917131 -0.12788768 -0.77887577 168 149 157
-0.17852451 -0.12700859 -0.77801871 174 162 161
-0.18050364 -0.12785622 -0.78031474 161 132 154
-0.17785205 -0.13062885 -0.77793276 168 152 151
-0.17940712 -0.1294809 -0.77942586 164 141 152
-0.18029481 -0.12896834 -0.78031093 163 137 153
-0.18107395 -0.1306868 -0.78156066 157 144 148
-0.17912409 -0.13040592 -0.77930892 164 147 151
-0.17805718 -0.13076805 -0.77818918 167 151 150
-0.18133944 -0.12884647 -0.7814576 160 135 153
-0.17970321 -0.12972336 -0.77981061 163 143 152
-0.17789578 -0.13239515 -0.77774554 148 128 132
-0.17882371 -0.1332151 -0.77865785 135 113 121
-0.17853962 -0.13349542 -0.77828962 133 109 118
-0.1792548 -0.13316603 -0.77915072 135 112 121
-0.17867246 -0.13087657 -0.77889723 164 150 149
-0.18029414 -0.13087057 -0.78072011 159 146 148
-0.17851062 -0.13276544 -0.7783848 142 121 127
-0.17845714 -0.13355684 -0.7781862 132 108 117
-0.18051955 -0.13259819 -0.78085381 141 121 127
0 0 0 1 0 0 0 1 0 0 0 1 0 0 0 0 0 420 1 0 0
