ply
format ascii 1.0
comment PCL generated
element vertex 111
property float x
property float y
property float z
property uchar red
property uchar green
property uchar blue
element camera 1
property float view_px
property float view_py
property float view_pz
property float x_axisx
property float x_axisy
property float x_axisz
property float y_axisx
property float y_axisy
property float y_axisz
property float z_axisx
property float z_axisy
property float z_axisz
property float focal
property float scalex
property float scaley
property float centerx
property float centery
property int viewportx
property int viewporty
property float k1
property float k2
end_header
-0.037792392 -0.31831592 -0.68113506 154 136 152
-0.038175054 -0.31823742 -0.68110889 158 139 155
-0.035261549 -0.31810653 -0.68134916 136 115 141
-0.036652155 -0.31794062 -0.68131381 151 134 146
-0.034671251 -0.31741509 -0.6815272 140 120 139
-0.03338958 -0.31773952 -0.68152308 124 99 134
-0.034510635 -0.31797525 -0.6814155 131 108 138
-0.037081297 -0.31786653 -0.68130064 153 136 149
-0.032206353 -0.31712684 -0.68173826 131 106 131
-0.033080839 -0.3181245 -0.68145931 117 90 133
-0.04165405 -0.31990722 -0.68033838 168 149 163
-0.042403881 -0.32023701 -0.68018621 162 146 162
-0.043010402 -0.3200213 -0.68017995 160 144 163
-0.042821921 -0.32014829 -0.68016738 160 144 162
-0.040272191 -0.31993487 -0.68046206 160 140 150
-0.040341083 -0.31929186 -0.68061149 163 142 154
-0.040242173 -0.32075882 -0.68026525 156 137 145
-0.039695937 -0.31936845 -0.68065768 156 135 146
-0.039260652 -0.31952745 -0.68066406 151 130 141
-0.039329819 -0.31838074 -0.6809532 165 145 161
-0.035074193 -0.31877011 -0.68119824 125 103 133
-0.034898795 -0.31892481 -0.68116719 122 99 130
-0.036127802 -0.31871086 -0.68115991 136 116 138
-0.034919932 -0.31891236 -0.68116933 122 99 130
-0.054749869 -0.32171109 -0.67866808 139 98 121
-0.052842826 -0.32105246 -0.67903513 137 101 121
-0.053159904 -0.32113111 -0.67898411 137 100 121
-0.052926991 -0.32143667 -0.6789037 138 107 118
-0.055421427 -0.32168803 -0.67862159 139 93 122
-0.056336548 -0.32087925 -0.67875624 141 104 131
-0.056367069 -0.32127124 -0.67864472 141 100 128
-0.056011342 -0.32105044 -0.67875171 139 95 128
-0.055860668 -0.32069758 -0.67886823 139 97 131
-0.049993329 -0.32100281 -0.67920977 160 126 150
-0.049505055 -0.32149887 -0.67907536 166 138 153
-0.051434293 -0.31868711 -0.67988569 134 86 145
-0.051097088 -0.32047597 -0.67932016 149 108 142
-0.051850803 -0.32118186 -0.67905003 145 112 129
-0.050779082 -0.32131058 -0.67906666 155 123 140
-0.051625013 -0.32113817 -0.67907655 147 113 132
-0.051653557 -0.31974888 -0.67952585 142 92 141
-0.052431826 -0.3206048 -0.67920566 138 98 126
-0.04874013 -0.32143426 -0.67914623 167 148 156
-0.048667919 -0.32206243 -0.67894882 172 151 155
-0.047234848 -0.32131428 -0.6793645 154 128 150
-0.047662582 -0.32192779 -0.67911243 163 137 151
-0.046559557 -0.3219209 -0.67924571 154 123 146
-0.046585117 -0.3202638 -0.67977029 144 121 153
-0.044977363 -0.32096699 -0.67969978 147 120 151
-0.045698538 -0.32105696 -0.67961365 144 115 148
-0.042039335 -0.32194042 -0.67978621 158 140 151
-0.041900527 -0.32174444 -0.67986065 159 144 153
-0.044082351 -0.32139465 -0.67968631 150 124 150
-0.044442799 -0.32186013 -0.67950553 147 114 144
-0.042054549 -0.32132176 -0.67995346 160 145 156
-0.042849924 -0.32097974 -0.67995977 157 142 157
-0.056836311 -0.32383633 -0.67784721 147 112 134
-0.057024084 -0.32403308 -0.67777222 151 118 138
-0.053636424 -0.32514966 -0.67763746 163 148 142
-0.054122586 -0.32437843 -0.67787641 152 132 132
-0.055210337 -0.32533798 -0.67750508 153 132 139
-0.052869014 -0.32438275 -0.67792982 162 147 136
-0.054757632 -0.32579869 -0.67736936 161 143 146
-0.052741326 -0.32563713 -0.67751217 175 164 150
-0.055310588 -0.3234877 -0.67807543 144 113 126
-0.056570675 -0.32305419 -0.67810458 142 101 126
-0.056527581 -0.32300726 -0.67812216 142 101 126
-0.054656915 -0.3241789 -0.67792004 145 123 128
-0.056071982 -0.32503128 -0.67754984 147 121 136
-0.055223573 -0.32294807 -0.67824471 142 109 122
-0.049459588 -0.32358316 -0.67839831 176 155 153
-0.049493019 -0.32590497 -0.67766052 175 147 142
-0.049450997 -0.32539651 -0.67782468 175 149 144
-0.049830761 -0.32363495 -0.67835402 177 158 154
-0.052188989 -0.32565352 -0.6775372 180 169 156
-0.04960632 -0.32481804 -0.67799622 176 152 148
-0.049576402 -0.322447 -0.67876107 171 150 149
-0.0520913 -0.32428458 -0.67800391 167 152 142
-0.050565887 -0.32309663 -0.67848796 169 150 146
-0.050453398 -0.32370368 -0.67828923 176 159 154
-0.049602576 -0.3226853 -0.67867923 173 153 152
-0.046595421 -0.3240793 -0.67855519 157 122 139
-0.045150384 -0.3256585 -0.678253 168 152 157
-0.045902867 -0.32465249 -0.67846698 161 134 147
-0.045877419 -0.32324901 -0.67890245 151 113 138
-0.046170902 -0.32591468 -0.67804408 170 151 152
-0.048298679 -0.32349867 -0.67853546 171 143 148
-0.048370607 -0.32482553 -0.67810678 170 140 142
-0.047715619 -0.32247356 -0.67892939 166 139 150
-0.048120253 -0.3248904 -0.67811596 168 137 140
-0.047431029 -0.32281223 -0.67885602 164 134 147
-0.042870898 -0.32513466 -0.67870158 166 152 151
-0.041462857 -0.32489273 -0.67895269 163 145 142
-0.042337269 -0.32605696 -0.67848319 165 148 143
-0.042400371 -0.3237372 -0.67919266 165 151 154
-0.042506017 -0.32452372 -0.67893618 165 151 151
-0.044358686 -0.32401893 -0.6788584 159 135 151
-0.044638149 -0.32260883 -0.67925733 147 112 141
-0.044091351 -0.32428661 -0.67880976 162 142 153
-0.044271171 -0.3235479 -0.6790145 156 129 148
-0.044003561 -0.32458857 -0.67872787 164 148 155
-0.04466809 -0.32361096 -0.67894489 154 126 147
-0.051420961 -0.32625526 -0.67740601 179 163 152
-0.046309382 -0.32640985 -0.67787617 175 158 159
-0.047804419 -0.32620069 -0.67774796 173 147 145
-0.048043121 -0.32652596 -0.67762047 178 152 151
-0.046513628 -0.32672918 -0.67775488 179 164 166
-0.047505409 -0.32686353 -0.67758834 181 162 163
-0.04160009 -0.32704222 -0.67830068 174 157 151
-0.042426284 -0.32698902 -0.67821455 175 159 154
-0.040806387 -0.32730475 -0.67832202 179 162 155
0 0 0 1 0 0 0 1 0 0 0 1 0 0 0 0 0 111 1 0 0
