ply
format ascii 1.0
comment PCL generated
element vertex 123
property float x
property float y
property float z
property uchar red
property uchar green
property uchar blue
element camera 1
property float view_px
property float view_py
property float view_pz
property float x_axisx
property float x_axisy
property float x_axisz
property float y_axisx
property float y_axisy
property float y_axisz
property float z_axisx
property float z_axisy
property float z_axisz
property float focal
property float scalex
property float scaley
property float centerx
property float centery
property int viewportx
property int viewporty
property float k1
property float k2
end_header
-0.19491655 -0.19219211 -0.78752774 95 69 68
-0.19461393 -0.19309691 -0.78707409 108 83 79
-0.19637498 -0.19690639 -0.78936929 107 89 80
-0.19582696 -0.19669515 -0.78827935 108 85 81
-0.19406345 -0.19461086 -0.78588432 99 71 70
-0.1940842 -0.19476755 -0.78585982 99 70 70
-0.1946288 -0.19489793 -0.78656298 108 81 80
-0.19446158 -0.19382009 -0.78669798 109 83 79
-0.19469944 -0.19573382 -0.78637719 107 77 79
-0.19497079 -0.19739233 -0.78659141 101 72 74
-0.19164941 -0.18796064 -0.78318876 94 72 63
-0.19079991 -0.18854372 -0.78193331 91 80 63
-0.19113457 -0.18829665 -0.78242415 92 77 63
-0.19255893 -0.1931407 -0.78414905 103 80 68
-0.19194874 -0.19130859 -0.78371257 96 70 61
-0.19208588 -0.19108722 -0.78397876 93 66 58
-0.19205838 -0.1919897 -0.7837075 100 76 65
-0.19142114 -0.19225456 -0.78265429 108 89 72
-0.19149932 -0.19198766 -0.78283191 105 86 70
-0.19090131 -0.19088858 -0.7819798 103 93 70
-0.19131576 -0.19169687 -0.78256285 105 88 70
-0.1938623 -0.19493477 -0.78548151 96 66 66
-0.19380745 -0.19612339 -0.78490067 101 70 71
-0.1934042 -0.19649485 -0.78407973 106 75 76
-0.19351141 -0.19709854 -0.78401518 106 75 78
-0.19250965 -0.19518061 -0.78369123 103 71 74
-0.19207104 -0.19706939 -0.7824958 109 74 84
-0.19311285 -0.19544481 -0.78418314 103 73 73
-0.19182748 -0.19631031 -0.78255981 106 72 82
-0.19124128 -0.19586439 -0.78175908 113 84 86
-0.19187179 -0.19400731 -0.78295374 110 88 77
-0.1911847 -0.19542645 -0.78173363 114 88 86
-0.1916662 -0.19468291 -0.78255475 111 86 80
-0.19218147 -0.19367808 -0.78346169 108 86 73
-0.19301081 -0.19342221 -0.78473741 100 75 66
-0.19346349 -0.19753762 -0.78394997 111 80 82
-0.19338159 -0.19743483 -0.7837826 110 79 82
-0.19118674 -0.20074996 -0.78211415 96 59 79
-0.19314992 -0.19796932 -0.78364944 110 79 83
-0.1928079 -0.19810686 -0.78328061 105 72 79
-0.19128774 -0.19952276 -0.78198415 98 60 79
-0.19097674 -0.20046441 -0.7818194 93 55 76
-0.19254482 -0.19809984 -0.78301376 105 70 79
-0.19090958 -0.20054248 -0.78176469 93 54 76
-0.19107763 -0.20460241 -0.7821238 98 48 61
-0.19163446 -0.20374365 -0.78278297 109 66 76
-0.19140911 -0.20480588 -0.78260022 97 46 63
-0.19137836 -0.20382571 -0.78247058 104 60 71
-0.19089045 -0.20369592 -0.78188694 95 47 64
-0.19076453 -0.20456944 -0.78173774 93 41 57
-0.19229335 -0.2076294 -0.78338325 140 103 128
-0.1918561 -0.20606466 -0.78309029 112 63 87
-0.19180863 -0.20676649 -0.78291738 122 77 103
-0.1910346 -0.20641112 -0.78191549 114 65 86
-0.19082905 -0.20572948 -0.78173995 102 50 69
-0.1910532 -0.2056036 -0.78206533 101 49 68
-0.19087182 -0.20666359 -0.78165436 117 69 90
-0.19786392 -0.19142903 -0.79257852 98 72 70
-0.19773394 -0.19203305 -0.79213381 103 79 72
-0.19784449 -0.19281888 -0.79227835 108 86 72
-0.19726627 -0.19136265 -0.79102433 106 84 82
-0.1975314 -0.19195247 -0.79161394 106 84 77
-0.19717588 -0.19173966 -0.79083443 111 90 87
-0.19842954 -0.19538635 -0.79335088 105 79 61
-0.19796023 -0.19453762 -0.79226673 114 91 73
-0.19829763 -0.19497517 -0.79307777 107 82 64
-0.19812538 -0.19401236 -0.79279917 109 85 68
-0.19810136 -0.19672598 -0.79240054 108 81 66
-0.19824627 -0.19657657 -0.7926991 109 83 66
-0.19748166 -0.19567189 -0.79111153 113 90 78
-0.19805382 -0.1959105 -0.79229635 113 89 71
-0.19712165 -0.19621146 -0.79045987 109 86 77
-0.19847235 -0.19833691 -0.79305816 117 91 76
-0.19851524 -0.19844405 -0.79313552 118 92 78
-0.19053844 -0.18837816 -0.7815116 91 82 64
-0.18937086 -0.1918087 -0.77948105 106 91 77
-0.19058402 -0.19575755 -0.7807402 106 76 82
-0.19081602 -0.19512187 -0.78119868 112 87 84
-0.19109495 -0.19707392 -0.78138119 107 71 86
-0.19056277 -0.19690125 -0.7806502 100 65 78
-0.19081381 -0.19690406 -0.78099912 104 69 82
-0.190079 -0.19854203 -0.78023148 86 50 67
-0.19038452 -0.1988772 -0.78072804 91 54 72
-0.19079904 -0.19758996 -0.78102905 101 64 80
-0.19088636 -0.19893326 -0.78143787 99 61 80
-0.19026056 -0.19833727 -0.78044015 90 54 70
-0.18999778 -0.19969894 -0.78041214 86 48 68
-0.18948476 -0.19878177 -0.77954823 83 47 64
-0.18989234 -0.20085308 -0.78060889 88 50 73
-0.18871167 -0.1989921 -0.77860022 76 43 52
-0.18901803 -0.20048836 -0.77941781 82 46 63
-0.18889806 -0.19958101 -0.77900803 79 44 58
-0.1904383 -0.20424213 -0.78134966 91 39 57
-0.19031481 -0.20310938 -0.78120154 90 43 63
-0.18990101 -0.20450801 -0.7803458 86 39 55
-0.18969762 -0.20256181 -0.7803514 88 45 66
-0.19007537 -0.20425643 -0.7807067 88 40 56
-0.19047275 -0.20486982 -0.78130323 90 37 53
-0.18896817 -0.20269512 -0.7792576 76 41 61
-0.18930732 -0.20227386 -0.779778 83 45 66
-0.18927881 -0.20120636 -0.77994287 86 48 71
-0.18882269 -0.20179696 -0.77923596 79 43 61
-0.18862268 -0.20202596 -0.77893162 75 41 57
-0.19070987 -0.20654762 -0.78139138 114 67 87
-0.19094209 -0.20778681 -0.78155708 134 92 117
-0.19007409 -0.20629138 -0.78030199 104 62 80
-0.19058704 -0.2079141 -0.78090519 135 97 120
-0.19064894 -0.2080159 -0.78099304 137 99 123
-0.19085413 -0.20885226 -0.78121346 155 120 145
-0.18931387 -0.20621736 -0.77912945 110 76 83
-0.1988298 -0.19290446 -0.79501092 118 89 79
-0.19893047 -0.19270323 -0.79503304 117 89 80
-0.19863254 -0.19203532 -0.7939316 109 82 75
-0.19858569 -0.19716392 -0.79348165 106 78 61
-0.19876239 -0.19685057 -0.79407912 110 83 66
-0.19850948 -0.19498949 -0.79389775 110 83 66
-0.19858414 -0.19674335 -0.79365528 108 80 63
-0.19861265 -0.19494991 -0.79444444 115 87 72
-0.19851406 -0.19409652 -0.79424101 113 86 70
-0.19853191 -0.19393247 -0.79439193 114 87 72
-0.19875294 -0.19528532 -0.79504848 120 91 78
-0.19908398 -0.19792096 -0.79436457 116 92 75
-0.19935395 -0.19753382 -0.79496235 114 90 72
0 0 0 1 0 0 0 1 0 0 0 1 0 0 0 0 0 123 1 0 0
