ply
format ascii 1.0
comment PCL generated
element vertex 1004
property float x
property float y
property float z
property uchar red
property uchar green
property uchar blue
element camera 0
property float view_px
property float view_py
property float view_pz
property float x_axisx
property float x_axisy
property float x_axisz
property float y_axisx
property float y_axisy
property float y_axisz
property float z_axisx
property float z_axisy
property float z_axisz
property float focal
property float scalex
property float scaley
property float centerx
property float centery
property int viewportx
property int viewporty
property float k1
property float k2
end_header
-0.20167613 -0.62518048 -0.77039921 103 76 81
-0.20220557 -0.62542665 -0.77119243 112 86 87
-0.2038361 -0.6241039 -0.77188617 125 102 100
-0.20256409 -0.62513411 -0.77134359 115 89 89
-0.20214471 -0.62607425 -0.77167535 115 88 87
-0.20386605 -0.6246416 -0.77239525 125 102 99
-0.20231394 -0.62586713 -0.77168632 116 89 88
-0.2024828 -0.62564629 -0.77168441 117 91 90
-0.2039979 -0.62561405 -0.77341992 121 97 96
-0.20399454 -0.62589902 -0.77366638 120 95 93
-0.2032259 -0.62627071 -0.77310479 116 90 89
-0.20064726 -0.62628609 -0.77020943 104 76 81
-0.20186621 -0.6278857 -0.77314091 112 83 82
-0.20156343 -0.6279996 -0.77291417 112 82 82
-0.20148045 -0.62879068 -0.773673 113 84 82
-0.20086929 -0.62696302 -0.77101928 109 80 81
-0.19996905 -0.627033 -0.77013963 110 81 85
-0.19791394 -0.62923235 -0.77049369 114 77 85
-0.19879487 -0.62900931 -0.7711249 112 78 83
-0.19737619 -0.63033253 -0.7711007 114 77 86
-0.19896723 -0.62863535 -0.77090842 112 78 83
-0.19926335 -0.62905949 -0.77164441 112 79 83
-0.19823192 -0.63005793 -0.77166259 113 78 84
-0.20011997 -0.62952507 -0.77302831 113 82 83
-0.19972631 -0.62887555 -0.77192175 112 80 82
-0.19997574 -0.62866902 -0.77195513 111 80 82
-0.20042625 -0.62839252 -0.77211958 111 80 82
-0.20057806 -0.62967849 -0.77364093 114 84 84
-0.19842784 -0.63049179 -0.77231777 114 80 85
-0.19604781 -0.63082349 -0.77041399 116 79 86
-0.19787782 -0.63157278 -0.7729547 115 80 88
-0.19760308 -0.6319049 -0.77307224 115 79 88
-0.19930814 -0.6309855 -0.77366388 115 86 89
-0.19565116 -0.63128942 -0.77052677 116 82 87
-0.19507398 -0.63143069 -0.77015388 117 83 88
-0.19568114 -0.63201672 -0.77141118 117 83 88
-0.1937218 -0.633986 -0.77197301 120 89 93
-0.19396085 -0.63364887 -0.77177578 120 88 92
-0.1945563 -0.63317102 -0.77176523 119 86 91
-0.19392346 -0.63351011 -0.77155209 120 88 92
-0.19626468 -0.63229841 -0.77232218 117 81 88
-0.19532606 -0.63379288 -0.77322817 118 84 91
-0.19585952 -0.63292927 -0.77269673 117 82 90
-0.1972096 -0.63261902 -0.77352178 115 79 88
-0.19463848 -0.63360697 -0.77241004 119 86 92
-0.19497406 -0.63439339 -0.77377725 120 84 93
-0.19582838 -0.63368911 -0.77360243 118 82 91
-0.19322321 -0.63365835 -0.7711159 122 92 94
-0.19354333 -0.63483804 -0.77291197 122 89 95
-0.23819546 -0.57499999 -0.78680694 141 116 138
-0.23823813 -0.57526284 -0.78691697 141 116 137
-0.23907101 -0.57591271 -0.78792042 144 123 136
-0.24015129 -0.57400048 -0.78851855 149 136 146
-0.23985404 -0.57411599 -0.78824919 148 133 145
-0.23728263 -0.57615554 -0.78618407 137 106 132
-0.23691277 -0.5761326 -0.78580624 136 102 131
-0.23709576 -0.57559752 -0.7858721 137 106 134
-0.2372704 -0.57546562 -0.78600127 137 107 135
-0.23679128 -0.57520849 -0.7856251 142 112 138
-0.23651339 -0.57675236 -0.78560984 133 98 129
-0.23908846 -0.57722604 -0.78843361 145 126 137
-0.23729293 -0.57758796 -0.78674263 137 108 133
-0.2371228 -0.57873261 -0.7870633 138 111 136
-0.23698784 -0.57807159 -0.78663814 136 107 133
-0.23728321 -0.57822144 -0.78700697 138 111 135
-0.23875123 -0.57688069 -0.78793705 143 121 135
-0.23826215 -0.57840335 -0.78811276 141 118 135
-0.23771875 -0.57953173 -0.78818035 138 113 136
-0.23861125 -0.57891703 -0.7888748 140 117 135
-0.23887815 -0.57864696 -0.7890259 140 119 135
-0.23799105 -0.5800662 -0.78886598 137 112 136
-0.23576763 -0.57915241 -0.78604692 147 118 144
-0.23575178 -0.57887518 -0.78591615 146 117 144
-0.23562139 -0.57858473 -0.78570193 149 120 145
-0.23743378 -0.58037996 -0.7882989 137 110 135
-0.23729706 -0.58267379 -0.7889716 135 109 127
-0.2372645 -0.58257467 -0.78889519 135 109 127
-0.23704566 -0.58018214 -0.78774893 137 109 136
-0.2378767 -0.58196378 -0.78942436 136 111 129
-0.23638123 -0.58177543 -0.78755605 131 101 126
-0.23688348 -0.58311158 -0.78864497 132 105 123
-0.23535749 -0.58280742 -0.7869544 123 94 116
-0.23549455 -0.58121383 -0.78646082 129 101 127
-0.23503506 -0.58396047 -0.7870934 118 88 107
-0.23479939 -0.5831719 -0.78655261 120 91 112
-0.23550829 -0.58382773 -0.78750354 120 90 109
-0.2359824 -0.58043855 -0.78665596 136 107 136
-0.2348997 -0.58025104 -0.78588885 162 139 158
-0.23408934 -0.58205605 -0.78565168 140 115 133
-0.23653308 -0.58525622 -0.78934371 133 109 117
-0.23561853 -0.58656824 -0.78916579 135 114 118
-0.23623545 -0.58548713 -0.78915584 131 107 115
-0.2341377 -0.58407801 -0.78628004 115 87 105
-0.23530528 -0.58487296 -0.78787923 124 97 110
-0.23518862 -0.58509654 -0.78789419 125 99 111
-0.23511936 -0.58444899 -0.78745311 121 93 108
-0.23512276 -0.58430803 -0.78737521 120 92 108
-0.23455749 -0.58405143 -0.78667492 116 88 105
-0.23361604 -0.58626819 -0.78644454 132 108 119
-0.23468684 -0.58752608 -0.7885955 139 121 122
-0.23392572 -0.58704877 -0.78717679 138 116 123
-0.23363005 -0.58568019 -0.78631294 126 102 114
-0.23461701 -0.58787489 -0.78856909 142 124 125
-0.2345989 -0.58697063 -0.78829938 134 115 118
-0.23242207 -0.5891847 -0.78620207 145 122 133
-0.23282358 -0.58920991 -0.78681606 146 122 132
-0.23353282 -0.58837324 -0.78720051 146 123 130
-0.23329827 -0.58901781 -0.78742826 145 123 129
-0.23290029 -0.59068769 -0.78837436 142 121 126
-0.233455 -0.58973199 -0.78838813 142 122 126
-0.23331447 -0.58876234 -0.78720766 145 123 130
-0.23318034 -0.5903784 -0.78854954 142 122 125
-0.23330511 -0.58920979 -0.78762639 144 123 129
-0.2310462 -0.59134394 -0.78632146 143 123 127
-0.23136382 -0.59176713 -0.7871992 140 121 124
-0.23061371 -0.59153873 -0.78588361 143 124 127
-0.23218764 -0.59125811 -0.78789771 140 120 124
-0.23185602 -0.58956832 -0.7857554 146 123 133
-0.23200619 -0.59004402 -0.78644115 144 122 130
-0.23206495 -0.5928905 -0.78912377 146 125 128
-0.23110583 -0.59216255 -0.78714061 143 124 126
-0.23166336 -0.59182805 -0.78768873 140 121 123
-0.2302746 -0.59196794 -0.78577834 144 125 128
-0.23193605 -0.59182084 -0.7880798 139 120 122
-0.23159666 -0.59321123 -0.78867918 148 127 130
-0.23174547 -0.5930779 -0.78879082 147 126 129
-0.2294506 -0.5949437 -0.78644097 153 126 136
-0.22901008 -0.59508795 -0.78573245 151 123 135
-0.22954182 -0.59516585 -0.7867713 154 128 137
-0.23034494 -0.59492654 -0.7880801 158 134 140
-0.22994733 -0.59391868 -0.7866115 151 128 134
-0.23023988 -0.5953666 -0.7882067 160 134 141
-0.22954549 -0.59494412 -0.7866165 154 127 136
-0.22857636 -0.59793019 -0.78750056 148 118 128
-0.22872803 -0.59681261 -0.7866565 150 120 132
-0.22955513 -0.5965839 -0.78797859 155 127 136
-0.22938336 -0.59822953 -0.78913969 151 122 130
-0.22968611 -0.59726924 -0.78883612 154 127 134
-0.22909488 -0.59608895 -0.78668392 153 124 136
-0.22887355 -0.59689707 -0.78700113 150 121 132
-0.22878553 -0.59660918 -0.78657997 150 120 133
-0.22785437 -0.59710431 -0.78582656 149 123 137
-0.22709848 -0.59784293 -0.7855677 147 125 142
-0.22807039 -0.59922117 -0.78806716 145 118 128
-0.22699279 -0.59846425 -0.7860136 146 124 140
-0.22690231 -0.59931934 -0.7866962 144 123 138
-0.22770192 -0.59909928 -0.78749245 145 120 132
-0.22682151 -0.59901679 -0.78631347 145 124 140
-0.22577314 -0.60052162 -0.7864247 134 112 129
-0.22533509 -0.60043073 -0.78578937 134 116 134
-0.22494677 -0.60235399 -0.78668553 140 119 133
-0.22556689 -0.60141444 -0.78679854 137 114 129
-0.2258404 -0.60100704 -0.78685266 135 113 127
-0.22747292 -0.60029095 -0.78823918 142 115 125
-0.22776935 -0.60002035 -0.78840381 142 114 124
-0.22767729 -0.60060042 -0.7887013 143 115 124
-0.22683978 -0.60279089 -0.78910899 151 130 140
-0.2258856 -0.60278422 -0.78803539 147 125 136
-0.22653523 -0.60292858 -0.78884709 151 130 140
-0.22670037 -0.60283941 -0.78898072 151 130 140
-0.22374727 -0.60327661 -0.78597987 145 123 137
-0.22362366 -0.60339522 -0.78592443 146 124 138
-0.2258711 -0.60361636 -0.78852344 153 134 145
-0.22501956 -0.60421544 -0.788055 151 130 143
-0.22609866 -0.60414547 -0.78920794 156 136 148
-0.22494017 -0.60426694 -0.7880078 151 130 143
-0.22456074 -0.60467285 -0.78792816 151 129 143
-0.22397944 -0.60362595 -0.78646654 147 126 139
-0.22381811 -0.6050716 -0.78756249 152 129 145
-0.22355308 -0.60565364 -0.78779507 154 130 148
-0.22276552 -0.6057753 -0.78623503 149 125 140
-0.22292207 -0.60448819 -0.78565067 147 124 138
-0.22281906 -0.60644174 -0.78684133 151 127 142
-0.22324273 -0.60443944 -0.78633875 149 126 142
-0.22348352 -0.60645157 -0.78834784 156 132 151
-0.2231331 -0.60667229 -0.78771794 154 129 147
-0.22265182 -0.60829663 -0.78860074 150 124 144
-0.2223912 -0.60871577 -0.78874546 146 120 140
-0.22114953 -0.61001253 -0.78811097 133 106 125
-0.22093405 -0.61098611 -0.78941667 126 100 121
-0.22109008 -0.60993493 -0.78781629 134 106 125
-0.22252776 -0.60888332 -0.78940195 146 120 141
-0.22137491 -0.61022878 -0.78908038 133 106 127
-0.22235288 -0.60766274 -0.78686905 150 124 140
-0.2226005 -0.60793298 -0.7878381 151 125 143
-0.22328602 -0.60757864 -0.78884691 157 131 151
-0.21924786 -0.61116368 -0.78560412 142 115 131
-0.22001296 -0.61092287 -0.78702629 134 107 125
-0.22040735 -0.61085957 -0.78787434 130 103 122
-0.21973744 -0.61074656 -0.78601724 139 112 127
-0.21881951 -0.61516237 -0.78628111 138 118 133
-0.21933481 -0.61396807 -0.78697139 136 114 131
-0.21934682 -0.61445284 -0.7876696 129 108 123
-0.21955749 -0.61403853 -0.78805017 127 106 121
-0.21966401 -0.61453152 -0.78917736 116 97 110
-0.21889979 -0.61496776 -0.78637725 138 117 132
-0.22008702 -0.61190361 -0.78814214 130 104 124
-0.21933228 -0.61338156 -0.78672296 137 114 131
-0.21924752 -0.61134142 -0.78591782 141 115 130
-0.21881744 -0.61399674 -0.78563988 143 121 136
-0.21982491 -0.61210924 -0.78755921 133 108 126
-0.21684687 -0.61791819 -0.78675193 123 93 103
-0.2171251 -0.6177513 -0.7874974 119 90 99
-0.21711563 -0.61793584 -0.78820556 116 84 91
-0.21812268 -0.61667961 -0.78822786 117 92 102
-0.21780127 -0.61686522 -0.78733742 121 97 108
-0.21723182 -0.61762285 -0.78751892 119 91 100
-0.21765292 -0.61687928 -0.78666031 125 101 113
-0.21860708 -0.61602908 -0.78806776 118 98 109
-0.2189163 -0.61567181 -0.78825331 119 100 111
-0.21851633 -0.61597663 -0.78749281 123 103 115
-0.21654481 -0.61810434 -0.78607118 123 95 105
-0.21649776 -0.61813271 -0.78598869 123 95 105
-0.21644227 -0.6191166 -0.78935343 104 67 70
-0.21519443 -0.62075114 -0.78810579 108 77 82
-0.21557143 -0.6202842 -0.78854966 106 73 78
-0.21424344 -0.62267137 -0.78850001 88 71 77
-0.21471994 -0.6222176 -0.78933889 81 64 68
-0.21476968 -0.62136632 -0.78778744 107 79 85
-0.21459857 -0.62221915 -0.78889269 86 68 73
-0.21493435 -0.62035465 -0.7862075 113 85 93
-0.21480808 -0.62048745 -0.78600639 113 86 94
-0.21549159 -0.61996025 -0.7875241 109 78 84
-0.21573502 -0.61991107 -0.78837532 108 74 79
-0.21562839 -0.62001777 -0.78819329 108 75 80
-0.21554546 -0.62010497 -0.78806138 109 76 81
-0.21297237 -0.62359726 -0.786017 121 97 107
-0.21289155 -0.62556207 -0.78808433 97 70 81
-0.21326779 -0.62367791 -0.78702527 108 86 95
-0.21318744 -0.62340617 -0.78645641 115 93 102
-0.2132166 -0.62417817 -0.78745705 103 80 89
-0.21375053 -0.62361521 -0.78844333 88 72 78
-0.21386002 -0.62306672 -0.78791589 92 76 83
-0.19748622 -0.63810968 -0.78723961 121 118 105
-0.19864061 -0.63829386 -0.78857768 123 120 107
-0.19896466 -0.63495809 -0.78557074 104 97 92
-0.19748814 -0.63680065 -0.78593624 106 99 93
-0.19883275 -0.6376127 -0.78808957 119 115 104
-0.19821896 -0.63756877 -0.78743285 115 111 101
-0.19920574 -0.63584459 -0.78678119 116 110 103
-0.19917472 -0.63624263 -0.78711003 116 111 102
-0.19927418 -0.63554537 -0.78663278 119 114 107
-0.19994467 -0.63646203 -0.7890135 175 177 167
-0.20071015 -0.63482523 -0.78905725 223 229 223
-0.19990951 -0.63676786 -0.78924137 174 176 166
-0.19749679 -0.63945985 -0.78859866 128 126 111
-0.19817337 -0.63928103 -0.78909642 128 126 110
-0.1946048 -0.63965344 -0.78612924 118 110 109
-0.19444056 -0.63917947 -0.7855776 114 104 109
-0.19472295 -0.64081347 -0.78786927 160 157 156
-0.19392781 -0.64089388 -0.78711945 148 143 146
-0.19373786 -0.64084738 -0.78684664 143 137 141
-0.19407187 -0.64046413 -0.78666312 135 129 130
-0.19423699 -0.64028341 -0.78658503 132 125 126
-0.1957355 -0.6413222 -0.78921831 156 154 148
-0.19713789 -0.63986087 -0.78868419 130 128 114
-0.1966994 -0.63965297 -0.78818637 138 136 124
-0.19688907 -0.64014298 -0.78880179 134 133 120
-0.25048825 -0.57983905 -0.80644566 130 123 146
-0.2504406 -0.58114606 -0.80744195 144 131 149
-0.2506724 -0.5804593 -0.80730641 135 123 147
-0.25060123 -0.58082128 -0.80745339 139 127 148
-0.25041822 -0.58148634 -0.8078056 140 123 144
-0.24840905 -0.58338916 -0.80639392 163 148 146
-0.24815223 -0.58287638 -0.80531186 175 170 159
-0.25023675 -0.58195579 -0.80803108 139 121 141
-0.25015745 -0.58253884 -0.80863315 134 113 134
-0.24895136 -0.58356762 -0.80764252 148 129 136
-0.24846226 -0.58570784 -0.8081888 148 124 136
-0.24846983 -0.58657545 -0.80868107 145 119 135
-0.24835481 -0.58547866 -0.80785573 151 129 138
-0.24815196 -0.58582932 -0.80765814 155 132 140
-0.24715744 -0.58574057 -0.8060618 161 137 144
-0.24632017 -0.58786678 -0.80597591 157 125 144
-0.24700956 -0.58613259 -0.80605608 160 135 144
-0.24789846 -0.58589554 -0.80730093 156 133 140
-0.24689542 -0.58784026 -0.80685401 154 122 141
-0.24600931 -0.58772624 -0.80541295 160 127 145
-0.24686255 -0.58569562 -0.80536497 168 147 150
-0.24697955 -0.58544976 -0.80537045 169 150 151
-0.24605991 -0.58793485 -0.8056438 158 125 144
-0.2462476 -0.58843446 -0.80659777 149 115 137
-0.24590904 -0.58880502 -0.8065635 145 109 134
-0.24581988 -0.58809566 -0.80548435 157 123 143
-0.24414991 -0.5903731 -0.80568111 133 93 121
-0.24552974 -0.58930999 -0.80656356 140 103 129
-0.24648827 -0.58942455 -0.80799216 135 101 122
-0.24506105 -0.58965248 -0.80624604 138 100 127
-0.24423996 -0.58975911 -0.80521804 140 99 130
-0.24740382 -0.5887236 -0.80864376 139 108 128
-0.24498074 -0.59123856 -0.80766171 120 82 103
-0.24571973 -0.59104359 -0.80849189 120 85 103
-0.24536774 -0.59105301 -0.80801928 121 85 104
-0.2457794 -0.59146905 -0.80896699 115 82 96
-0.24310696 -0.59145993 -0.80535674 127 93 113
-0.2436865 -0.59175384 -0.80639493 120 82 104
-0.2442674 -0.59195256 -0.80740595 114 74 96
-0.24469037 -0.59226537 -0.80839258 109 71 90
-0.24090384 -0.59409028 -0.80530745 104 75 93
-0.24212649 -0.59258962 -0.80526441 118 87 105
-0.24229169 -0.59299326 -0.80592149 111 78 98
-0.24318472 -0.59269196 -0.80686885 111 72 98
-0.24153209 -0.59395707 -0.80611902 104 69 94
-0.24213645 -0.59334159 -0.80613732 107 73 95
-0.24115723 -0.59416491 -0.80581635 103 70 93
-0.24383169 -0.59332508 -0.80860192 100 58 80
-0.24403661 -0.59256423 -0.80788881 108 67 89
-0.24403279 -0.59269542 -0.80805475 106 65 87
-0.24230154 -0.59403247 -0.8074345 101 60 91
-0.24284302 -0.59309733 -0.80695379 109 68 97
-0.24257997 -0.59448487 -0.80856431 96 51 84
-0.24292058 -0.59436595 -0.80893779 96 50 83
-0.24113649 -0.59542149 -0.80784702 94 49 91
-0.24016714 -0.59498358 -0.80544293 98 68 91
-0.24044393 -0.59574622 -0.80722016 93 50 93
-0.24054398 -0.59647566 -0.80829936 84 39 85
-0.21363086 -0.59341186 -0.76961052 126 105 104
-0.21297134 -0.59547901 -0.76926076 153 128 135
-0.21289261 -0.59404516 -0.76910347 136 114 114
-0.21009907 -0.59528929 -0.76721805 133 106 118
-0.21028577 -0.59530753 -0.76735151 134 108 119
-0.2113332 -0.59556705 -0.76810235 145 119 129
-0.21222213 -0.59456027 -0.76869798 133 110 114
-0.21282972 -0.59543222 -0.76915717 152 127 134
-0.21240407 -0.59415704 -0.76878989 131 108 110
-0.21336509 -0.59621656 -0.76958805 151 124 135
-0.21332283 -0.59763533 -0.76960373 140 113 128
-0.21335195 -0.59864527 -0.76961088 131 103 121
-0.21322522 -0.5977512 -0.76950634 138 112 126
-0.21033791 -0.59856355 -0.7674343 138 116 127
-0.21142246 -0.59947544 -0.76814538 131 107 121
-0.20994948 -0.5979678 -0.76716089 139 115 127
-0.21114367 -0.59903395 -0.76794827 131 107 121
-0.20919999 -0.59657508 -0.76661652 139 113 126
-0.20998968 -0.59854275 -0.76722479 142 121 130
-0.21155995 -0.59719002 -0.76819575 133 104 120
-0.21261765 -0.59654236 -0.76898134 145 119 130
-0.21249105 -0.59859914 -0.76879406 123 93 112
-0.21150324 -0.59761578 -0.76813525 128 99 117
-0.21266074 -0.59848422 -0.7689206 125 96 114
-0.21250281 -0.59783119 -0.76883864 131 103 119
-0.20865999 -0.59770352 -0.76636451 140 120 128
-0.20820238 -0.59860837 -0.76614308 133 116 124
-0.20842561 -0.59609514 -0.76603222 128 103 115
-0.21311532 -0.60280931 -0.76979882 133 111 128
-0.21316491 -0.60251755 -0.76980996 132 110 127
-0.20937499 -0.60274249 -0.76677203 167 157 161
-0.20908278 -0.60020012 -0.76673281 161 151 151
-0.20996137 -0.60229355 -0.76729548 160 148 153
-0.20920144 -0.60238606 -0.76665634 168 158 161
-0.21062246 -0.6032964 -0.76776469 156 143 151
-0.21013339 -0.60283327 -0.76739526 160 147 154
-0.20956369 -0.60142493 -0.76703441 161 150 152
-0.21145158 -0.60150206 -0.76846331 141 123 133
-0.21210623 -0.60086268 -0.76875603 130 107 122
-0.21211618 -0.60216367 -0.76896214 137 117 130
-0.20954064 -0.59987545 -0.76707149 155 143 144
-0.21211345 -0.60077012 -0.76874608 130 106 121
-0.21029294 -0.59976822 -0.76750445 146 129 135
-0.20826785 -0.60284996 -0.76614469 163 152 155
-0.20850632 -0.6012525 -0.76634955 159 148 149
-0.20870993 -0.60061502 -0.76649612 160 150 149
-0.21088471 -0.60675102 -0.76959348 131 114 127
-0.21072342 -0.60627759 -0.76871574 121 103 120
-0.21075013 -0.60713834 -0.76979381 132 116 129
-0.21159913 -0.6048817 -0.76875228 123 104 121
-0.21084572 -0.60682601 -0.76960713 131 114 127
-0.20955116 -0.60550332 -0.76701778 129 113 128
-0.20983525 -0.60653186 -0.76733744 106 87 108
-0.20935449 -0.60367811 -0.76670617 167 156 162
-0.21040721 -0.60387784 -0.76759756 152 138 148
-0.2093045 -0.60686773 -0.76692349 105 87 107
-0.20926152 -0.60431439 -0.76668054 155 143 152
-0.21017265 -0.60438514 -0.76744366 145 130 142
-0.20857653 -0.60499084 -0.76633286 155 142 153
-0.20870318 -0.60591847 -0.76646155 133 119 133
-0.20853992 -0.60386896 -0.76622987 167 156 162
-0.20984112 -0.60854632 -0.7687518 118 100 113
-0.20966905 -0.60747898 -0.76805198 112 95 112
-0.21031874 -0.60792953 -0.76946813 127 110 123
-0.20970093 -0.6077342 -0.76820129 114 96 112
-0.20971914 -0.60807651 -0.76835394 114 96 112
-0.20978615 -0.61115587 -0.76959592 123 103 110
-0.20950206 -0.60997546 -0.76863575 115 95 107
-0.20982525 -0.61101002 -0.7695874 122 102 109
-0.20719534 -0.60980743 -0.76633191 87 67 84
-0.2080266 -0.609442 -0.76684296 96 76 93
-0.20723391 -0.61091822 -0.76687014 94 74 86
-0.20770444 -0.61005241 -0.76685882 95 75 90
-0.20838945 -0.6093716 -0.76710665 101 81 97
-0.20831627 -0.60751075 -0.76643389 111 93 114
-0.2075206 -0.60790658 -0.76615822 121 103 123
-0.20908569 -0.61202711 -0.7693091 123 101 111
-0.20747891 -0.61203533 -0.76748604 113 92 103
-0.2057377 -0.61202019 -0.76606148 90 68 83
-0.20679839 -0.61145914 -0.76674449 93 72 84
-0.20828609 -0.61195344 -0.76815176 122 101 110
-0.20529222 -0.61348772 -0.76618397 112 89 106
-0.20705241 -0.61242354 -0.76726431 115 94 106
-0.20540671 -0.6142689 -0.76665586 127 105 120
-0.20743978 -0.61357045 -0.76849794 131 108 121
-0.2088051 -0.612158 -0.76903558 124 101 111
-0.20893282 -0.61250454 -0.76954752 125 101 113
-0.20742439 -0.61362094 -0.76852524 131 108 121
-0.20798276 -0.61399955 -0.7699154 130 104 119
-0.20710535 -0.61497533 -0.76982689 134 107 124
-0.20659585 -0.61437207 -0.7681306 135 111 126
-0.20440215 -0.61506343 -0.76614964 144 123 138
-0.2060829 -0.61555254 -0.76865613 136 111 127
-0.20558 -0.61580771 -0.76795322 137 112 127
-0.20564479 -0.6153878 -0.76784027 138 114 130
-0.20642413 -0.61533999 -0.76911241 136 110 126
-0.20545669 -0.61695039 -0.76834875 132 108 120
-0.20524995 -0.61897057 -0.76916927 125 100 110
-0.2046265 -0.61665779 -0.76708961 131 106 120
-0.20367625 -0.61808181 -0.76677835 117 90 101
-0.20477113 -0.61618215 -0.76699096 134 110 124
-0.20500879 -0.61912227 -0.76892823 125 100 110
-0.20326491 -0.6180656 -0.76628661 113 85 96
-0.20409565 -0.61774719 -0.7670815 122 96 108
-0.20474082 -0.61551338 -0.76662529 139 116 131
-0.2043356 -0.61548537 -0.76626384 144 122 136
-0.2055172 -0.61929804 -0.76979905 124 98 105
-0.20221637 -0.62124503 -0.76656663 109 82 90
-0.20347245 -0.61920971 -0.76716626 111 83 93
-0.2026539 -0.61961436 -0.76637977 106 77 86
-0.20272084 -0.6200881 -0.7666617 108 81 89
-0.2042539 -0.61980134 -0.76833683 121 96 105
-0.20482616 -0.61977524 -0.76920742 125 100 107
-0.20285536 -0.62163591 -0.76766777 115 89 96
-0.20321248 -0.62153417 -0.76820087 117 91 96
-0.20327595 -0.62172109 -0.76863772 116 89 94
-0.20381823 -0.62138242 -0.76927608 118 91 96
-0.20394778 -0.62101781 -0.76897514 121 95 99
-0.20275836 -0.62269986 -0.76907635 109 81 86
-0.20156664 -0.62456924 -0.769593 100 72 79
-0.20266712 -0.62307799 -0.76948476 106 78 83
-0.20167142 -0.6240595 -0.76896554 102 75 81
-0.20205224 -0.62360227 -0.76902688 104 76 82
-0.19745399 -0.62668705 -0.76639163 119 78 89
-0.19903502 -0.62553477 -0.76692897 112 78 87
-0.20009246 -0.62466419 -0.76716322 108 77 85
-0.19790322 -0.62661874 -0.76693356 116 77 88
-0.19874799 -0.62550795 -0.76642382 114 79 89
-0.19999254 -0.62533778 -0.76813328 105 74 83
-0.19989109 -0.62522477 -0.76778108 107 75 84
-0.19895142 -0.62558544 -0.76688004 112 78 87
-0.20045032 -0.62567824 -0.76938075 101 72 79
-0.1999093 -0.62624359 -0.76925224 106 76 83
-0.20020176 -0.6257087 -0.76908141 102 72 80
-0.19772142 -0.62827605 -0.76903087 115 77 87
-0.19947615 -0.6270228 -0.76952142 111 81 87
-0.19802977 -0.62772286 -0.76862609 115 78 88
-0.19779167 -0.62803662 -0.76877147 115 78 88
-0.1979032 -0.62707895 -0.76750791 117 79 89
-0.1954626 -0.62862384 -0.76686484 118 79 88
-0.19399093 -0.62892878 -0.76624858 121 87 94
-0.19461572 -0.62945014 -0.76708573 117 80 87
-0.19594476 -0.62824756 -0.76682234 118 79 88
-0.19712009 -0.62775636 -0.76748365 118 78 88
-0.19605826 -0.62896025 -0.76799297 116 77 87
-0.19593313 -0.6293965 -0.7684871 115 77 86
-0.19408584 -0.63040549 -0.76777273 115 78 84
-0.19530398 -0.6297189 -0.7682125 115 77 85
-0.19566354 -0.62924647 -0.76794446 116 78 86
-0.19376898 -0.63070285 -0.76783204 115 78 84
-0.19641504 -0.63001108 -0.76990026 115 78 86
-0.19311452 -0.63040406 -0.76700693 116 81 87
-0.19241987 -0.63056105 -0.7666747 114 78 87
-0.19447196 -0.6308648 -0.76882911 116 80 85
-0.19340266 -0.63130486 -0.76818347 116 81 85
-0.19351956 -0.6325593 -0.76988894 119 90 90
-0.19179584 -0.63113576 -0.76680958 114 79 88
-0.19234191 -0.63152862 -0.76767474 116 82 89
-0.19093816 -0.63153362 -0.7666589 115 82 94
-0.19248682 -0.63189846 -0.76824456 117 85 90
-0.1917358 -0.63129437 -0.76693946 115 81 90
-0.19240075 -0.63268077 -0.7693221 122 94 97
-0.19254559 -0.63285273 -0.7697829 126 98 100
-0.19120133 -0.63264537 -0.76862705 127 98 105
-0.18817377 -0.63338852 -0.76680952 128 97 115
-0.23297562 -0.5713982 -0.78271735 130 117 140
-0.2324619 -0.57083255 -0.78229326 127 110 136
-0.23217461 -0.57183421 -0.78222954 119 110 135
-0.23220243 -0.57100862 -0.78211957 123 107 133
-0.23286341 -0.57337528 -0.78282595 124 114 138
-0.23360665 -0.57425427 -0.78334153 126 110 135
-0.23325402 -0.57342255 -0.78308082 124 112 137
-0.23299848 -0.57324815 -0.7829085 123 113 138
-0.23570833 -0.57615364 -0.78477675 132 99 129
-0.2342263 -0.57426089 -0.78374326 127 106 134
-0.23262195 -0.57261187 -0.78263992 121 115 139
-0.23528978 -0.5743264 -0.78443599 136 112 137
-0.23607755 -0.57565749 -0.78499717 134 100 130
-0.23632158 -0.57521272 -0.78513896 140 108 135
-0.23127817 -0.57521981 -0.78195262 122 106 127
-0.23167016 -0.57586944 -0.78220344 125 111 130
-0.23126917 -0.57408571 -0.78182727 116 103 126
-0.23139796 -0.57349741 -0.78184831 114 103 126
-0.23540151 -0.57797724 -0.7853052 152 123 147
-0.23386501 -0.5790329 -0.78456968 162 134 151
-0.23385355 -0.57960105 -0.78483731 169 144 159
-0.23372585 -0.57928878 -0.78458118 165 138 154
-0.23340034 -0.57628542 -0.78331846 132 114 136
-0.23573902 -0.57649148 -0.78490019 136 101 131
-0.23257858 -0.57754117 -0.78319013 145 128 144
-0.23265104 -0.57652885 -0.7829113 134 120 139
-0.23291318 -0.57864511 -0.78376222 157 133 148
-0.23311646 -0.57624614 -0.78312188 132 116 136
-0.23321143 -0.57841504 -0.78388143 154 130 146
-0.23206076 -0.57807952 -0.78300077 150 132 145
-0.23237835 -0.57826823 -0.7832911 152 133 148
-0.23134387 -0.57992125 -0.78307521 170 144 151
-0.23168598 -0.57939363 -0.78315276 164 140 150
-0.23118734 -0.57912332 -0.78270531 161 138 147
-0.23049521 -0.57884896 -0.78211671 158 136 143
-0.23158365 -0.57687289 -0.78230822 136 121 136
-0.2318057 -0.57682592 -0.78242648 137 123 138
-0.23136927 -0.57643658 -0.78209585 128 112 130
-0.23352425 -0.58229053 -0.78526139 139 113 129
-0.23334797 -0.58044028 -0.78473371 168 144 157
-0.23337086 -0.58317316 -0.78531992 124 98 115
-0.23387881 -0.58159417 -0.78540528 150 127 142
-0.23294529 -0.58312047 -0.78468746 130 106 120
-0.2329489 -0.58352184 -0.78467125 126 103 117
-0.23313877 -0.58379632 -0.78500223 120 95 110
-0.23033649 -0.5831582 -0.7823382 176 157 164
-0.23229234 -0.58065277 -0.78378588 168 143 154
-0.23196144 -0.58365321 -0.78339446 144 125 134
-0.2316159 -0.58132166 -0.78329641 173 150 159
-0.23144522 -0.58258671 -0.78311062 163 143 151
-0.23025109 -0.58190966 -0.78231132 177 155 161
-0.23110613 -0.58048815 -0.78294837 173 147 154
-0.22960366 -0.58349293 -0.78182226 183 165 170
-0.22973797 -0.58115548 -0.78195047 174 150 153
-0.23179297 -0.580576 -0.78344369 173 148 158
-0.23007905 -0.580203 -0.78220969 171 145 148
-0.23305178 -0.5845235 -0.78498602 123 99 114
-0.23273672 -0.58465147 -0.78444719 130 109 121
-0.23243323 -0.58404553 -0.78372097 133 115 124
-0.23251636 -0.58573163 -0.78440213 140 119 130
-0.23183148 -0.58578676 -0.78365475 142 121 131
-0.23195696 -0.58671033 -0.78410888 146 123 134
-0.23225491 -0.58673179 -0.78444248 145 121 134
-0.2323537 -0.58501118 -0.78396052 137 117 127
-0.23129651 -0.58581126 -0.78307748 143 123 133
-0.23177648 -0.58775252 -0.78426874 151 126 138
-0.22966111 -0.58690768 -0.78185511 157 138 146
-0.22969024 -0.58509964 -0.7818656 171 153 159
-0.22980002 -0.58595705 -0.78194308 162 143 151
-0.22992593 -0.58545727 -0.78202462 164 145 153
-0.2303699 -0.5848555 -0.78231794 161 143 150
-0.23245676 -0.58789283 -0.78506869 150 123 137
-0.22966543 -0.58861113 -0.78222096 155 132 142
-0.23089731 -0.58858573 -0.78356206 153 128 139
-0.23138154 -0.58807647 -0.78393948 152 127 139
-0.2312745 -0.58832562 -0.78389704 152 127 139
-0.22957247 -0.58956403 -0.78240502 155 131 140
-0.23112944 -0.58905834 -0.78399289 152 126 138
-0.22957145 -0.59019732 -0.78261906 155 129 139
-0.23228797 -0.58811218 -0.7849955 150 124 137
-0.22997747 -0.59154338 -0.78472781 147 125 130
-0.23107882 -0.58992773 -0.78474903 149 124 135
-0.23025577 -0.59154361 -0.78529561 145 125 129
-0.23152317 -0.58933997 -0.78484589 149 124 136
-0.22937495 -0.5913921 -0.78329098 152 127 134
-0.22883733 -0.59255016 -0.78335804 153 126 135
-0.22890618 -0.59460229 -0.78514922 151 123 134
-0.22962482 -0.59304971 -0.78536564 147 124 131
-0.22911519 -0.59244817 -0.78384262 151 126 133
-0.22924432 -0.5918076 -0.78359061 151 127 133
-0.22777025 -0.59275037 -0.78205919 154 126 136
-0.22773959 -0.59567255 -0.78445125 151 120 135
-0.22796902 -0.59357995 -0.782969 154 124 136
-0.22702487 -0.59532869 -0.78337085 150 120 135
-0.22810367 -0.59529471 -0.7845425 152 122 135
-0.226979 -0.59536797 -0.78335249 150 120 135
-0.22844063 -0.59426272 -0.78406036 153 124 135
-0.22699183 -0.59354597 -0.78185737 152 123 136
-0.22582401 -0.59581971 -0.78243178 148 117 134
-0.2251979 -0.59712934 -0.7827177 143 114 134
-0.2267087 -0.59665197 -0.78404325 147 118 134
-0.22502272 -0.59719938 -0.78257531 143 114 133
-0.2257672 -0.59798896 -0.78401208 142 117 136
-0.22610353 -0.59747368 -0.7839945 144 117 135
-0.22510567 -0.59866732 -0.78379065 139 116 137
-0.22519724 -0.59833819 -0.7836414 140 116 136
-0.22836518 -0.59589154 -0.78532362 151 121 135
-0.22648166 -0.59846264 -0.78535545 145 125 143
-0.22485688 -0.59955817 -0.78424329 138 119 140
-0.22682846 -0.59763968 -0.78499168 145 121 138
-0.22323196 -0.59910434 -0.78166556 163 142 159
-0.22317645 -0.59946072 -0.78186131 163 144 160
-0.2244592 -0.59791541 -0.78245282 143 117 137
-0.2245146 -0.59923667 -0.78353977 139 118 139
-0.2246531 -0.60027617 -0.78471476 132 113 134
-0.22491349 -0.59995359 -0.78473401 136 118 138
-0.22450733 -0.60064638 -0.78486294 132 113 133
-0.22380097 -0.60237491 -0.78542876 139 118 134
-0.22304082 -0.60105962 -0.78310663 159 139 155
-0.22331509 -0.60020512 -0.78270859 158 138 155
-0.22342619 -0.60151947 -0.78405762 150 130 146
-0.22426821 -0.59991789 -0.78376484 142 122 142
-0.2228336 -0.60210025 -0.7833184 149 129 144
-0.22300273 -0.60283405 -0.7844255 147 127 141
-0.22270341 -0.60257959 -0.78330028 143 124 138
-0.22219601 -0.60273093 -0.78185809 132 116 130
-0.22281182 -0.60068858 -0.7821238 158 139 154
-0.22315094 -0.60345715 -0.78537971 146 124 138
-0.22130042 -0.6063323 -0.78362954 131 111 123
-0.22182177 -0.60666299 -0.78464782 140 118 130
-0.22126615 -0.60519618 -0.78244871 123 106 118
-0.22091678 -0.60552126 -0.78231043 120 104 115
-0.22195257 -0.60566419 -0.78387153 136 115 128
-0.22264838 -0.60365844 -0.7840203 137 117 131
-0.2222438 -0.60420388 -0.78331637 132 114 127
-0.22217178 -0.60622334 -0.78510284 144 120 134
-0.22256024 -0.60468334 -0.78476804 142 120 134
-0.22194892 -0.60361499 -0.78182238 123 107 120
-0.22066182 -0.60709536 -0.78358936 130 110 120
-0.21960267 -0.60664225 -0.78169084 120 104 113
-0.21967575 -0.60693371 -0.78208774 123 106 115
-0.22106667 -0.60749573 -0.78450751 137 114 125
-0.22064306 -0.60810441 -0.78449935 134 111 122
-0.22010973 -0.60926408 -0.78490138 137 112 125
-0.21919748 -0.60793442 -0.78242958 126 108 118
-0.22007194 -0.60751522 -0.78321302 129 110 119
-0.22022495 -0.60814226 -0.78402132 133 112 123
-0.21953666 -0.60801423 -0.78296578 129 109 119
-0.21902195 -0.6083374 -0.78257787 127 108 119
-0.21885349 -0.60937721 -0.78317338 129 108 119
-0.21868311 -0.61123711 -0.78451204 135 109 123
-0.21861766 -0.60852438 -0.78184026 121 102 112
-0.21848713 -0.61092943 -0.78377706 130 105 118
-0.21890718 -0.60899746 -0.78294337 128 108 119
-0.21856153 -0.61124218 -0.78423822 133 107 121
-0.21692152 -0.61332601 -0.78204089 116 93 104
-0.21750461 -0.61384833 -0.78318161 125 103 115
-0.21718407 -0.61351544 -0.78253502 120 97 109
-0.21774414 -0.61302859 -0.78307623 124 101 113
-0.21732129 -0.6134612 -0.78271955 121 98 110
-0.21790008 -0.61408538 -0.78388041 130 108 122
-0.21848233 -0.61222512 -0.78438175 134 109 123
-0.21864 -0.61230683 -0.7847653 137 112 127
-0.21886308 -0.61139888 -0.78502822 139 113 127
-0.21841766 -0.61269015 -0.78436071 134 110 124
-0.21817484 -0.61243695 -0.78373522 129 105 118
-0.21630009 -0.61421537 -0.78165036 121 98 107
-0.21715638 -0.61592448 -0.78403598 130 107 119
-0.21694176 -0.61729205 -0.78530967 130 104 116
-0.21721852 -0.61611015 -0.78435272 131 108 120
-0.21593384 -0.61848021 -0.78537881 116 90 100
-0.21678144 -0.61625177 -0.78383565 127 103 114
-0.21643762 -0.61677879 -0.78401738 122 98 108
-0.21606947 -0.61695594 -0.78377295 119 95 104
-0.21608281 -0.6168341 -0.78364992 119 95 104
-0.21388732 -0.61832923 -0.78199142 109 86 89
-0.21575366 -0.61561972 -0.78183389 125 102 110
-0.21473433 -0.61894029 -0.78411746 108 84 89
-0.21386021 -0.61838543 -0.78201389 109 86 88
-0.2146524 -0.61801237 -0.78287458 112 89 94
-0.21380979 -0.6189453 -0.78259909 106 83 86
-0.21405171 -0.61850673 -0.7824744 109 86 89
-0.21536042 -0.61669493 -0.78246909 119 96 103
-0.21304986 -0.62179869 -0.78412062 115 90 98
-0.21307649 -0.62053365 -0.7829541 110 86 90
-0.21410188 -0.61980474 -0.78393549 109 85 90
-0.21369961 -0.62207115 -0.78539324 119 93 103
-0.21334122 -0.61955941 -0.78245175 106 83 85
-0.21447885 -0.62018192 -0.78491008 112 87 94
-0.21431124 -0.62078327 -0.78519648 114 89 97
-0.21391964 -0.61944187 -0.78329545 107 83 87
-0.2144459 -0.61951715 -0.78423363 109 84 90
-0.21179952 -0.62278014 -0.78268903 118 90 103
-0.21225682 -0.62141812 -0.78230351 112 86 94
-0.2126687 -0.62028474 -0.78204447 107 82 87
-0.21257207 -0.62178302 -0.78326982 114 87 97
-0.21251956 -0.62228799 -0.78364342 116 89 101
-0.21107015 -0.62431085 -0.78320807 128 104 115
-0.21109456 -0.62444353 -0.78343529 129 106 117
-0.21167466 -0.6235581 -0.7833845 123 96 110
-0.21049191 -0.6241464 -0.78184628 126 101 113
-0.21045451 -0.62421894 -0.78187048 127 102 114
-0.20928758 -0.62650597 -0.78314811 172 158 166
-0.20935546 -0.62648463 -0.78328282 174 159 168
-0.20955905 -0.62633532 -0.78349614 173 159 168
-0.21083562 -0.62477094 -0.78342551 135 113 123
-0.21259111 -0.62354678 -0.78520662 129 104 116
-0.21098176 -0.62566173 -0.78553599 191 178 184
-0.21126688 -0.62513286 -0.78513986 169 152 159
-0.21173625 -0.62464529 -0.78527778 157 138 147
-0.21099906 -0.62553722 -0.78532135 184 169 176
-0.20838951 -0.62675226 -0.78177285 139 121 128
-0.2093263 -0.62737435 -0.78522313 208 199 206
-0.20768914 -0.62777442 -0.78270972 152 134 144
-0.2065426 -0.62844056 -0.78202403 119 97 107
-0.20813516 -0.62701786 -0.78188938 140 122 129
-0.20885128 -0.62788761 -0.78540039 195 184 193
-0.2079207 -0.62788969 -0.78347099 162 147 156
-0.20768087 -0.62832355 -0.78406012 160 145 154
-0.20704553 -0.62851304 -0.78321433 141 122 133
-0.20728852 -0.62837839 -0.783382 148 130 140
-0.20641074 -0.62882322 -0.78366959 121 103 113
-0.2066081 -0.62873799 -0.78386825 127 110 119
-0.20558701 -0.62885123 -0.7847352 85 74 80
-0.20609502 -0.62889737 -0.78371078 110 92 102
-0.20585035 -0.62866676 -0.78540999 90 82 87
-0.20436957 -0.63004583 -0.78268993 96 74 85
-0.20376594 -0.63059193 -0.7831834 101 81 92
-0.20448089 -0.62972224 -0.78382349 89 73 81
-0.20487283 -0.62909019 -0.78526866 70 61 66
-0.20406647 -0.62991935 -0.78502172 92 83 88
-0.20494631 -0.62922686 -0.78406316 75 61 68
-0.20144767 -0.63273275 -0.78443003 119 107 114
-0.20265034 -0.63139653 -0.78490824 118 108 114
-0.20169157 -0.63221401 -0.78541803 117 109 114
-0.20233926 -0.63196647 -0.78395212 119 106 113
-0.201738 -0.63302958 -0.78222495 120 99 110
-0.20304018 -0.6313448 -0.78335321 108 91 100
-0.20301513 -0.63105226 -0.78470606 113 102 109
-0.20240562 -0.63218224 -0.78273386 114 94 104
-0.19994441 -0.63454801 -0.78358161 114 99 101
-0.20008859 -0.63451654 -0.78321511 116 99 103
-0.20048963 -0.63376915 -0.78418356 115 103 106
-0.20106433 -0.63355047 -0.78287375 122 104 113
-0.2005972 -0.63391626 -0.78326213 118 102 107
-0.20092756 -0.6335026 -0.7835446 120 104 111
-0.19774988 -0.63617688 -0.7851432 110 101 97
-0.19824836 -0.63573068 -0.78438461 121 110 107
-0.19864058 -0.63528854 -0.7851097 110 102 97
-0.19729327 -0.63661134 -0.78546572 105 97 93
-0.19982244 -0.63481414 -0.78321952 117 99 103
-0.19892593 -0.63521868 -0.78414172 119 106 105
-0.19919398 -0.63477206 -0.7853328 105 97 93
-0.19434872 -0.63809299 -0.78424031 126 112 116
-0.19666468 -0.63707763 -0.78545439 107 99 96
-0.19593862 -0.63669932 -0.78423399 118 107 104
-0.19636165 -0.63696879 -0.7850045 111 102 99
-0.19536717 -0.63810223 -0.78533357 113 103 106
-0.19607821 -0.63710195 -0.78486836 113 104 101
-0.19587311 -0.63678318 -0.78280663 140 123 123
-0.19569433 -0.6367321 -0.78347743 129 115 113
-0.19681431 -0.63670903 -0.78426129 121 110 107
-0.19406503 -0.63910383 -0.78504664 122 109 115
-0.19401966 -0.63909727 -0.78498411 123 109 116
-0.19330148 -0.64020741 -0.78546846 116 106 111
-0.19152345 -0.64151418 -0.78547817 159 154 157
-0.24711548 -0.57874006 -0.80002791 151 152 158
-0.2470239 -0.57916772 -0.80014718 157 159 160
-0.24621545 -0.57961208 -0.79924554 160 159 156
-0.24691324 -0.57883137 -0.79976934 155 155 158
-0.24567279 -0.57908058 -0.79810882 158 150 152
-0.24433187 -0.58193648 -0.79832727 161 142 145
-0.24416655 -0.58244109 -0.79845273 158 136 142
-0.24472365 -0.58281064 -0.79968774 158 139 147
-0.24493176 -0.58287698 -0.80006397 157 139 148
-0.24534968 -0.58049911 -0.79863524 163 156 152
-0.24559096 -0.58174372 -0.80005801 159 150 153
-0.24527071 -0.58305526 -0.80071443 156 140 150
-0.24525146 -0.58246195 -0.80017668 157 144 150
-0.24509835 -0.58298534 -0.80040151 156 140 149
-0.24491805 -0.58123153 -0.79863083 161 149 149
-0.24606125 -0.581747 -0.80075091 158 153 155
-0.24375185 -0.58184755 -0.797378 164 142 146
-0.2434907 -0.58293235 -0.79787832 161 134 146
-0.2437132 -0.58248961 -0.79783916 161 137 145
-0.2432479 -0.58269566 -0.79734218 164 138 148
-0.24415928 -0.58467269 -0.80036384 149 123 139
-0.24331313 -0.58684081 -0.80111915 146 122 135
-0.24358892 -0.58586043 -0.80060124 148 122 136
-0.24289611 -0.58620477 -0.79989815 151 123 139
-0.2425957 -0.58582908 -0.79912847 155 126 142
-0.2434583 -0.58458298 -0.79922289 153 124 142
-0.24313255 -0.5849306 -0.79907525 154 125 143
-0.24145755 -0.58753949 -0.7973423 153 125 140
-0.24229331 -0.58619624 -0.79859501 155 126 142
-0.24249598 -0.58598006 -0.79898888 155 126 142
-0.24194814 -0.58599293 -0.79745442 158 127 145
-0.24256845 -0.58648866 -0.79961133 152 124 140
-0.24230067 -0.5877105 -0.79986078 148 122 135
-0.24096726 -0.59125918 -0.79999697 151 129 136
-0.24035516 -0.59069163 -0.79869646 143 115 128
-0.24094673 -0.59041399 -0.79919964 151 127 135
-0.24066116 -0.58911282 -0.79762745 146 118 131
-0.24087363 -0.5899151 -0.79864025 149 124 134
-0.24150217 -0.58996964 -0.79957318 155 133 140
-0.24153173 -0.58854985 -0.7984162 153 127 138
-0.24188554 -0.58971554 -0.80043238 153 131 138
-0.24161276 -0.58882105 -0.79888165 153 128 138
-0.24221992 -0.58880293 -0.80057812 150 126 136
-0.23868637 -0.59175658 -0.7977249 139 109 123
-0.23963678 -0.59091294 -0.79805541 141 111 125
-0.23990199 -0.59003776 -0.79757494 141 111 125
-0.24025908 -0.59267503 -0.8004269 141 116 128
-0.23731489 -0.59401387 -0.79777867 144 122 131
-0.23859374 -0.59232944 -0.79803574 141 113 125
-0.23913786 -0.59204334 -0.79845291 141 112 126
-0.23634385 -0.59547114 -0.79785538 146 128 135
-0.23866752 -0.59303725 -0.79862738 143 118 130
-0.23777342 -0.59375858 -0.79812551 144 121 131
-0.23863481 -0.59406567 -0.79958534 143 122 131
-0.23797561 -0.5946905 -0.79930264 144 124 132
-0.24009641 -0.59217733 -0.79971629 142 115 128
-0.23966916 -0.59369111 -0.80062598 141 119 129
-0.23648776 -0.59566331 -0.79825056 146 129 135
-0.23919207 -0.5944705 -0.80087739 141 120 128
-0.23884238 -0.59437376 -0.80020845 142 122 130
-0.23855576 -0.59459329 -0.80005217 143 122 130
-0.23697414 -0.59608269 -0.79960191 142 123 129
-0.23680304 -0.59694666 -0.80057776 136 116 122
-0.23801067 -0.59580177 -0.80080503 142 122 128
-0.23628964 -0.59678471 -0.7995373 138 119 126
-0.23614101 -0.59790605 -0.80087084 130 109 115
-0.23611438 -0.59644485 -0.79872215 141 123 129
-0.23556286 -0.59668636 -0.79831791 141 122 127
-0.23558815 -0.59740198 -0.799218 135 115 120
-0.23486082 -0.59754479 -0.79778898 149 125 133
-0.23462397 -0.59819275 -0.79810995 148 122 131
-0.23435822 -0.59872121 -0.79817808 149 121 131
-0.23387547 -0.59925628 -0.79767698 157 125 137
-0.23463996 -0.59900594 -0.79934847 137 111 118
-0.23431779 -0.59946036 -0.79915726 141 113 121
-0.23285702 -0.60151392 -0.79986304 128 99 114
-0.23286556 -0.60151666 -0.79989016 128 99 114
-0.23314984 -0.60128546 -0.80011201 127 99 112
-0.23305494 -0.6018163 -0.80099273 120 95 109
-0.23384535 -0.60093188 -0.80110103 120 95 105
-0.23337196 -0.60077578 -0.79959279 131 101 113
-0.23355833 -0.59974098 -0.79767764 156 122 135
-0.23268884 -0.60057157 -0.79742271 149 112 127
-0.23161484 -0.6023342 -0.79789633 143 114 129
-0.2318287 -0.6018939 -0.79762274 146 114 130
-0.23200192 -0.60151601 -0.79733104 149 115 131
-0.23160762 -0.60236162 -0.79794681 142 114 129
-0.23173332 -0.60327202 -0.80111331 100 79 95
-0.23218203 -0.60230833 -0.79997498 121 93 110
-0.25212806 -0.58227295 -0.8131941 126 109 125
-0.24847105 -0.59113204 -0.81425405 101 60 76
-0.24832317 -0.59170866 -0.814623 101 59 76
-0.25022244 -0.58882165 -0.81355691 137 112 119
-0.25000623 -0.58959025 -0.81420827 125 97 104
-0.24985114 -0.59043169 -0.81500632 113 82 87
-0.24916981 -0.58926183 -0.81296164 123 91 105
-0.24970345 -0.58923733 -0.81349009 128 99 109
-0.2498098 -0.58894819 -0.81327111 132 105 115
-0.25035802 -0.58940357 -0.81484133 114 91 93
-0.25032249 -0.58980519 -0.81503826 116 91 93
-0.2503061 -0.58863807 -0.81577867 58 46 48
-0.25042641 -0.588983 -0.81429291 124 103 106
-0.2501803 -0.59037191 -0.8163262 80 56 56
-0.25030789 -0.58808202 -0.81602603 34 29 30
-0.24938101 -0.59198815 -0.81621891 94 60 65
-0.24893859 -0.59215993 -0.81591576 90 57 66
-0.19989745 -0.60464245 -0.76149559 98 78 91
-0.19913465 -0.60457784 -0.76095378 86 69 80
-0.19927655 -0.60531378 -0.76104295 103 89 99
-0.19971319 -0.60565466 -0.76134825 117 103 112
-0.19956982 -0.60582441 -0.76124346 118 106 114
-0.1996237 -0.6042701 -0.76130676 87 66 79
-0.198221 -0.60628176 -0.7604897 89 67 76
-0.19968064 -0.60618216 -0.76131833 127 116 124
-0.19823936 -0.60521454 -0.76038468 79 63 72
-0.19911835 -0.60640275 -0.76101887 114 98 106
-0.1991597 -0.60997838 -0.76167619 125 99 111
-0.19894177 -0.60743099 -0.76102954 119 96 105
-0.19871241 -0.60836685 -0.76108915 113 87 97
-0.19782929 -0.60794181 -0.76049435 89 58 69
-0.19773638 -0.60748494 -0.76034737 87 55 66
-0.19754633 -0.61058277 -0.76063663 118 88 102
-0.19852959 -0.6100744 -0.76130033 113 84 96
-0.19796358 -0.61025602 -0.76090539 114 85 98
-0.19611159 -0.61073953 -0.75981557 98 68 77
-0.19584724 -0.60977131 -0.75955826 80 48 56
-0.19575764 -0.61082584 -0.7596314 92 63 71
-0.19520874 -0.61099237 -0.75934964 84 55 61
-0.1968096 -0.61120117 -0.76025194 117 88 101
-0.19767436 -0.61135942 -0.76081961 128 100 115
-0.19773899 -0.61173236 -0.76089633 131 103 116
-0.19850603 -0.61379695 -0.76162165 144 120 125
-0.19819619 -0.61408162 -0.76137131 143 120 123
-0.19753303 -0.61198795 -0.76076066 132 104 116
-0.19786909 -0.61303562 -0.76107001 137 112 120
-0.19466992 -0.61413389 -0.75935149 114 86 93
-0.19432075 -0.61478323 -0.75931782 127 97 109
-0.19339724 -0.61449605 -0.75890344 119 87 103
-0.1935761 -0.61399806 -0.75889385 109 78 90
-0.19539995 -0.61517459 -0.75981116 137 110 118
-0.19378038 -0.61400789 -0.75897682 110 80 90
-0.19619474 -0.61274236 -0.75994641 112 86 91
-0.1970174 -0.61402357 -0.76041311 132 108 111
-0.19684005 -0.61374754 -0.7603125 128 104 107
-0.19723056 -0.61316621 -0.76051968 133 108 115
-0.19702908 -0.61142379 -0.7603882 123 95 108
-0.19643694 -0.61182082 -0.76006818 114 86 95
-0.19822533 -0.61659074 -0.76160288 134 112 113
-0.19877757 -0.61547923 -0.76193315 149 127 127
-0.19791369 -0.61655074 -0.76132208 133 111 112
-0.19737619 -0.61758351 -0.76102197 121 98 102
-0.1977313 -0.6180501 -0.76139039 118 95 99
-0.19564864 -0.61824548 -0.76041496 124 100 109
-0.1941151 -0.61719304 -0.75965732 139 113 125
-0.19388066 -0.6173442 -0.75960118 144 119 130
-0.19452035 -0.61835867 -0.76002747 142 120 128
-0.19428957 -0.61856085 -0.75998247 147 127 133
-0.1939429 -0.61798257 -0.75974602 148 125 134
-0.19495487 -0.61591601 -0.75974989 131 103 115
-0.19719447 -0.6159606 -0.76064879 135 112 113
-0.19712362 -0.61737901 -0.76084167 122 99 103
-0.19594632 -0.61756516 -0.76040179 118 92 103
-0.19667257 -0.61588621 -0.76042932 135 111 114
-0.19661416 -0.61643642 -0.76049185 130 105 110
-0.19130756 -0.61720097 -0.7587347 111 70 98
-0.19308195 -0.61724067 -0.75930655 146 118 132
-0.19318153 -0.61903542 -0.75968099 162 143 148
-0.19310018 -0.61646777 -0.75916421 140 110 126
-0.19268665 -0.61722147 -0.75918078 138 107 124
-0.19302467 -0.61598021 -0.75904751 134 101 121
-0.19794022 -0.62006187 -0.76210374 110 84 89
-0.19712093 -0.62052947 -0.76168722 112 85 92
-0.19604771 -0.621364 -0.76170659 139 118 123
-0.19563958 -0.62170762 -0.76170546 147 127 133
-0.19416896 -0.62226039 -0.76139271 174 160 167
-0.1948816 -0.62091494 -0.76107168 154 138 144
-0.1935928 -0.62072074 -0.7605207 173 158 163
-0.19567339 -0.62041831 -0.76114511 139 121 127
-0.19432269 -0.62147939 -0.76111192 167 152 158
-0.19487819 -0.62016356 -0.76074708 150 132 138
-0.19372268 -0.62222582 -0.76121551 181 168 174
-0.19034661 -0.62220502 -0.75966871 144 121 130
-0.19121237 -0.62186986 -0.76005489 150 125 139
-0.19118936 -0.62293905 -0.76026881 164 148 153
-0.19108561 -0.62207592 -0.76003152 151 128 140
-0.19161455 -0.62163335 -0.76021719 151 126 143
-0.19314007 -0.6218068 -0.76083559 179 165 172
-0.19190064 -0.6206063 -0.75993598 148 121 138
-0.192671 -0.62037587 -0.76007485 161 140 150
-0.19330531 -0.62036407 -0.76026583 173 158 162
-0.19234848 -0.62091279 -0.76020628 158 136 149
-0.19281545 -0.62035662 -0.76011121 164 144 153
-0.19495603 -0.62305707 -0.76205158 166 147 152
-0.19212103 -0.62632132 -0.76197845 146 126 129
-0.19256778 -0.62518066 -0.76180047 162 145 149
-0.19057871 -0.62527627 -0.76055825 166 144 150
-0.19072157 -0.62402648 -0.76030344 163 145 149
-0.19165301 -0.62407601 -0.76080823 175 158 164
-0.19094782 -0.6239593 -0.76040512 166 148 153
-0.19185899 -0.62307751 -0.7606532 174 160 165
-0.18922579 -0.62386107 -0.75953943 146 124 128
-0.19122529 -0.62710935 -0.76183957 145 122 125
-0.22316562 -0.58261889 -0.77699369 142 130 132
-0.2232299 -0.58106029 -0.77709156 132 121 113
-0.22374865 -0.58213186 -0.77748895 152 141 133
-0.22381018 -0.58323336 -0.77750808 161 149 148
-0.22376828 -0.58219373 -0.77750337 153 141 134
-0.22162409 -0.583148 -0.77572477 127 117 114
-0.22303304 -0.58345836 -0.77686673 151 139 139
-0.22310375 -0.58391839 -0.77691537 159 148 145
-0.22182195 -0.58285177 -0.77589178 126 114 114
-0.22172225 -0.58308548 -0.77580595 128 117 115
-0.22383748 -0.58534473 -0.777188 156 142 143
-0.22279251 -0.58475417 -0.77647716 148 136 133
-0.22201861 -0.58400309 -0.77602541 145 135 128
-0.22316813 -0.58603865 -0.77645594 134 119 120
-0.22298254 -0.58527148 -0.77650243 143 130 129
-0.22429964 -0.58676362 -0.77720022 141 122 129
-0.22346634 -0.58599275 -0.77671367 140 124 126
-0.22238773 -0.58644223 -0.77588749 130 112 116
-0.22255231 -0.58590609 -0.77599949 128 113 113
-0.22326733 -0.58721453 -0.77638674 130 109 117
-0.22167121 -0.58661282 -0.77545887 131 113 118
-0.22379518 -0.58741981 -0.7766934 129 108 117
-0.22321522 -0.58669221 -0.77637023 129 110 115
-0.22039185 -0.58644778 -0.77464324 129 111 116
-0.22041218 -0.58722389 -0.77463812 131 110 120
-0.2195515 -0.58693182 -0.77393192 121 100 110
-0.22128861 -0.58900666 -0.77511418 135 112 126
-0.22201559 -0.58936495 -0.77569115 135 110 124
-0.22244121 -0.59097475 -0.77568763 135 109 124
-0.22333401 -0.59151381 -0.77637208 135 106 122
-0.22304977 -0.59034091 -0.77639818 135 107 122
-0.22261605 -0.59143484 -0.77573532 135 108 123
-0.2219751 -0.59081358 -0.77530104 135 110 125
-0.2213499 -0.58953381 -0.7750417 135 112 126
-0.2237408 -0.58836275 -0.7766853 131 107 120
-0.2221984 -0.58935297 -0.7758503 135 109 124
-0.22458389 -0.59043968 -0.77734685 132 104 119
-0.22444025 -0.58838028 -0.7771005 130 105 118
-0.22313786 -0.58840328 -0.77633172 132 108 121
-0.22300866 -0.58899999 -0.77630204 133 108 122
-0.22012965 -0.58919507 -0.77407897 128 105 120
-0.22064193 -0.58924174 -0.7744748 134 112 126
-0.22226705 -0.5943048 -0.77686214 133 106 126
-0.22159727 -0.59504414 -0.77670926 132 107 128
-0.22357322 -0.59310442 -0.77738386 134 105 123
-0.22281964 -0.59189379 -0.77589011 134 107 123
-0.22070961 -0.59331828 -0.77480161 133 111 128
-0.22076972 -0.59333342 -0.77486545 133 111 128
-0.22288334 -0.59270483 -0.77642626 134 106 123
-0.22079003 -0.59318411 -0.77479607 133 111 128
-0.22079282 -0.5955267 -0.77617919 132 108 129
-0.22135928 -0.59257615 -0.7749579 134 110 127
-0.22197847 -0.59440666 -0.77660245 132 106 126
-0.22056569 -0.59527218 -0.77580816 133 110 131
-0.22049265 -0.59311515 -0.774463 136 115 130
