ply
format ascii 1.0
comment PCL generated
element vertex 150
property float x
property float y
property float z
property uchar red
property uchar green
property uchar blue
element camera 1
property float view_px
property float view_py
property float view_pz
property float x_axisx
property float x_axisy
property float x_axisz
property float y_axisx
property float y_axisy
property float y_axisz
property float z_axisx
property float z_axisy
property float z_axisz
property float focal
property float scalex
property float scaley
property float centerx
property float centery
property int viewportx
property int viewporty
property float k1
property float k2
end_header
-0.21932316 -0.11130044 -0.82047796 190 180 212
-0.21871725 -0.11125254 -0.82046199 193 185 212
-0.22010328 -0.11134066 -0.82053787 187 174 212
-0.2169439 -0.11198935 -0.82060617 192 190 204
-0.21678928 -0.11172333 -0.82042015 194 194 207
-0.22145696 -0.12378081 -0.81944954 103 86 116
-0.21920417 -0.12311156 -0.81874198 88 71 100
-0.21979713 -0.12339292 -0.81872523 92 75 105
-0.22685 -0.11207563 -0.82876837 123 119 128
-0.22586186 -0.11385658 -0.83078289 135 132 143
-0.22479218 -0.11497999 -0.83142114 113 111 123
-0.22219789 -0.11197696 -0.82903659 120 115 130
-0.22317815 -0.11324054 -0.82992268 116 113 126
-0.22329092 -0.11328907 -0.82967651 118 114 127
-0.22337766 -0.11321346 -0.82908094 121 117 130
-0.2233883 -0.11327902 -0.82927704 120 116 129
-0.22224714 -0.11205912 -0.82913643 119 114 130
-0.22440426 -0.11497021 -0.83155227 108 107 119
-0.22275664 -0.11252621 -0.83011949 125 121 134
-0.22282568 -0.11272781 -0.83021986 121 118 131
-0.2239476 -0.11175468 -0.83204484 196 191 201
-0.2223115 -0.11173611 -0.82944894 133 128 142
-0.22645777 -0.11702116 -0.83230799 118 111 129
-0.22566336 -0.11586381 -0.83205986 115 111 127
-0.22478056 -0.11732556 -0.83084428 113 109 123
-0.22502303 -0.11677559 -0.83147007 111 107 121
-0.22535805 -0.11788809 -0.83131534 113 107 122
-0.22550525 -0.11882126 -0.83100539 115 108 124
-0.22544591 -0.11886786 -0.83090019 115 108 124
-0.22160694 -0.1183384 -0.83117831 90 82 85
-0.222012 -0.11796714 -0.8288095 104 101 111
-0.2220744 -0.11793299 -0.82852757 106 104 114
-0.22166105 -0.11783898 -0.82924098 99 95 103
-0.2211273 -0.11791881 -0.83088732 86 80 82
-0.22375801 -0.11768521 -0.83002609 113 109 121
-0.22180232 -0.11827132 -0.83119762 91 84 87
-0.22421931 -0.11615857 -0.83116311 109 106 118
-0.2236701 -0.11789235 -0.82989466 113 108 121
-0.22392899 -0.11699015 -0.83057904 110 107 119
-0.22357316 -0.11837517 -0.82949078 115 110 123
-0.22173509 -0.1175207 -0.83202261 85 78 80
-0.22448914 -0.11827191 -0.82993603 117 112 128
-0.2243384 -0.11754837 -0.83012605 116 112 126
-0.22363858 -0.11582315 -0.83220631 96 94 102
-0.22007804 -0.11774118 -0.82937771 83 80 83
-0.22015908 -0.11761526 -0.82916987 85 82 86
-0.21978411 -0.11780481 -0.82860589 81 76 82
-0.22034958 -0.11794189 -0.83098829 80 75 74
-0.22066915 -0.11708517 -0.82886165 91 90 95
-0.22695559 -0.11945069 -0.83229947 116 107 124
-0.22701567 -0.11975686 -0.83190179 121 113 130
-0.21801537 -0.11138029 -0.82122797 186 180 203
-0.21901363 -0.11138308 -0.82106519 185 176 206
-0.22144285 -0.12157311 -0.82360053 96 84 109
-0.22158752 -0.12204508 -0.82315993 95 80 108
-0.22201449 -0.12152356 -0.82425082 106 97 118
-0.22363368 -0.1230194 -0.82404917 122 109 135
-0.22137569 -0.1220861 -0.82289064 92 75 105
-0.22269811 -0.12202204 -0.82433188 114 104 126
-0.22068399 -0.12262362 -0.82151085 77 53 91
-0.22002612 -0.12195894 -0.82159692 84 65 96
-0.21902707 -0.11984536 -0.82287294 108 105 120
-0.21970747 -0.12004659 -0.8234877 101 98 113
-0.22003749 -0.12251054 -0.82095021 80 56 92
-0.22043057 -0.12175285 -0.82235271 83 66 95
-0.21958299 -0.12180035 -0.82122952 89 70 101
-0.21719767 -0.11978967 -0.82293147 92 77 77
-0.21888927 -0.12006246 -0.82419282 85 72 76
-0.21979934 -0.12005339 -0.82413805 94 87 99
-0.21754801 -0.11985874 -0.8232519 89 75 75
-0.21689528 -0.1198101 -0.82303166 87 70 67
-0.21692085 -0.11980645 -0.82301414 88 71 68
-0.21618578 -0.12067327 -0.8243562 63 38 25
-0.2155429 -0.12076056 -0.82330537 62 42 33
-0.21631102 -0.1203238 -0.82382274 65 41 30
-0.21621446 -0.12004603 -0.82219213 92 81 82
-0.21650578 -0.1197781 -0.82190698 102 93 97
-0.22307853 -0.12308323 -0.82339656 113 96 126
-0.22190419 -0.12320948 -0.8220312 93 70 107
-0.22324111 -0.12336519 -0.82312596 113 96 126
-0.22207473 -0.12341782 -0.82162035 96 74 110
-0.22259837 -0.12357254 -0.82147676 105 87 119
-0.22113518 -0.12337202 -0.82081282 82 55 96
-0.22148405 -0.12339925 -0.82106566 87 62 102
-0.22541562 -0.11178766 -0.83566046 133 128 136
-0.22556341 -0.11200681 -0.83629924 110 105 114
-0.22463566 -0.11184528 -0.83417374 187 181 189
-0.22434272 -0.11311153 -0.83537555 132 124 129
-0.22441703 -0.11228836 -0.83429593 173 166 172
-0.22450702 -0.11317756 -0.83591586 122 116 122
-0.22439565 -0.11132949 -0.83288109 217 211 220
-0.22413349 -0.11210489 -0.83340728 185 178 184
-0.22420724 -0.11395256 -0.83261716 135 133 142
-0.2236537 -0.11452116 -0.83532822 88 75 75
-0.22379534 -0.11497905 -0.83471686 80 71 73
-0.22406599 -0.11404022 -0.83330119 125 120 127
-0.22401415 -0.11296777 -0.8334015 157 150 156
-0.22727175 -0.11888575 -0.83303052 120 112 129
-0.22187498 -0.11685307 -0.83443475 65 52 49
-0.22087918 -0.11787222 -0.83451003 69 49 46
-0.22173479 -0.11699457 -0.8338933 68 56 53
-0.22199273 -0.11673411 -0.83485931 64 49 45
-0.22402208 -0.1152598 -0.8335166 85 82 88
-0.22256923 -0.11646909 -0.83309728 80 74 76
-0.22342204 -0.11575507 -0.83336866 83 78 82
-0.22350615 -0.11533147 -0.8355366 62 50 49
-0.22408268 -0.11524714 -0.833305 88 85 92
-0.22369872 -0.11530817 -0.83476162 71 62 64
-0.22716759 -0.11944016 -0.83259034 117 109 125
-0.22488365 -0.11031929 -0.8273288 109 105 111
-0.22523762 -0.11046028 -0.82750529 109 105 110
-0.22482641 -0.11095605 -0.82626039 104 99 105
-0.22634237 -0.11063348 -0.82847691 109 106 112
-0.22542204 -0.11256447 -0.82761478 113 108 117
-0.22563855 -0.11172411 -0.82699573 106 101 109
-0.22461066 -0.1125461 -0.82668179 112 106 114
-0.22534692 -0.1117401 -0.82668358 106 101 108
-0.22467317 -0.11398152 -0.82822633 124 119 129
-0.22229396 -0.11138158 -0.82795089 119 113 127
-0.22248638 -0.11169036 -0.82806295 120 114 128
-0.22429928 -0.11231211 -0.82676965 112 106 115
-0.22379254 -0.11225425 -0.82725024 115 109 120
-0.22399291 -0.11298472 -0.82778686 120 114 125
-0.22094505 -0.11866596 -0.82647961 92 90 100
-0.22203851 -0.11843368 -0.82781339 105 102 113
-0.22243944 -0.11902259 -0.8274076 108 104 117
-0.22298823 -0.11881258 -0.82820106 114 110 124
-0.22182846 -0.11797326 -0.82822764 103 101 111
-0.21960667 -0.11858287 -0.82766271 78 71 79
-0.22008632 -0.11840611 -0.82732874 83 79 87
-0.22038187 -0.11801808 -0.82749343 87 84 92
-0.22256371 -0.12121669 -0.82508081 111 104 121
-0.22085153 -0.11997012 -0.82491666 94 90 104
-0.22287121 -0.12136304 -0.82523912 113 105 123
-0.22316968 -0.12009621 -0.82690078 115 109 126
-0.22363716 -0.12106977 -0.82628483 120 113 131
-0.22319297 -0.12045116 -0.82653821 116 109 126
-0.22217555 -0.1192155 -0.8269223 105 101 114
-0.22183342 -0.11987709 -0.825885 101 96 110
-0.22179218 -0.11934045 -0.82642746 100 96 110
-0.21895799 -0.11923953 -0.82759255 70 60 69
-0.22068267 -0.11992271 -0.82486594 92 88 102
-0.21929438 -0.12028108 -0.82617778 84 72 87
-0.21987441 -0.11999654 -0.82575661 85 77 91
-0.2191277 -0.12023692 -0.82501715 81 67 73
-0.21928331 -0.12015613 -0.82462877 81 67 71
-0.21867856 -0.12035629 -0.82559401 79 62 69
-0.21959913 -0.12034038 -0.82550561 87 76 90
-0.21642917 -0.12109882 -0.82666349 67 40 39
-0.21662639 -0.12073036 -0.82624555 65 37 33
0 0 0 1 0 0 0 1 0 0 0 1 0 0 0 0 0 150 1 0 0
