ply
format ascii 1.0
comment PCL generated
element vertex 125
property float x
property float y
property float z
property uchar red
property uchar green
property uchar blue
element camera 1
property float view_px
property float view_py
property float view_pz
property float x_axisx
property float x_axisy
property float x_axisz
property float y_axisx
property float y_axisy
property float y_axisz
property float z_axisx
property float z_axisy
property float z_axisz
property float focal
property float scalex
property float scaley
property float centerx
property float centery
property int viewportx
property int viewporty
property float k1
property float k2
end_header
-0.2601234 -0.059488568 -0.81948853 194 166 186
-0.2597743 -0.060204607 -0.81860656 190 165 183
-0.2595979 -0.060237434 -0.81842393 191 167 184
-0.26073042 -0.06246214 -0.82037795 187 152 180
-0.2604486 -0.060678776 -0.81985825 189 158 179
-0.2607514 -0.062294587 -0.82042366 188 153 180
-0.25980613 -0.061364826 -0.81849945 186 159 180
-0.26011673 -0.062045854 -0.81913644 187 157 181
-0.25985211 -0.064440131 -0.81825179 178 139 171
-0.2599991 -0.062420513 -0.81882244 185 153 179
-0.25928929 -0.063476339 -0.81777674 184 152 178
-0.25899485 -0.062620938 -0.81763577 189 162 183
-0.25941396 -0.062124033 -0.81803358 187 159 180
-0.25826532 -0.062807158 -0.81694585 192 169 187
-0.25914061 -0.060739506 -0.81790215 191 169 185
-0.25845051 -0.063193232 -0.81709397 191 165 185
-0.25810251 -0.061986819 -0.81684715 194 173 190
-0.26055282 -0.06666141 -0.81965202 196 171 193
-0.25995561 -0.064828917 -0.81845254 181 144 175
-0.26063603 -0.064692236 -0.82003284 185 148 181
-0.26071492 -0.064501218 -0.82023293 184 146 181
-0.26010987 -0.066181868 -0.81880128 194 168 190
-0.25810987 -0.064459167 -0.81667084 192 165 187
-0.26661983 -0.056167558 -0.83238882 173 143 162
-0.26658359 -0.054201066 -0.83184528 157 117 144
-0.26571488 -0.056158103 -0.8297528 167 125 150
-0.26636845 -0.056232397 -0.8316716 172 139 160
-0.26590198 -0.055270951 -0.8300997 161 118 144
-0.26536593 -0.054135382 -0.82866412 173 126 146
-0.26554292 -0.055783883 -0.82919705 165 120 145
-0.26632109 -0.05391619 -0.83104849 155 111 139
-0.26570025 -0.055109523 -0.82955533 164 119 144
-0.26545304 -0.055602398 -0.82896185 167 122 146
-0.26577279 -0.054905325 -0.82972628 163 118 143
-0.26582754 -0.059219517 -0.83006644 169 138 160
-0.26575604 -0.060448714 -0.82971793 171 141 166
-0.26616633 -0.058319084 -0.83107525 173 143 165
-0.26639467 -0.057455309 -0.83178872 175 146 166
-0.26638767 -0.059178643 -0.83154517 179 153 176
-0.2659004 -0.058186691 -0.83034158 170 137 159
-0.26537701 -0.060021084 -0.82874846 164 129 154
-0.26535434 -0.056953415 -0.82879913 169 125 149
-0.26554739 -0.059609499 -0.82926011 165 132 156
-0.26537955 -0.060242254 -0.82874745 163 130 154
-0.26609218 -0.056921385 -0.83094788 173 139 160
-0.26530641 -0.06208932 -0.82866365 177 150 171
-0.26201943 -0.055709299 -0.82373911 178 151 170
-0.2618548 -0.056621604 -0.82326412 178 153 170
-0.26248586 -0.058762379 -0.82404411 174 144 166
-0.26245007 -0.059651725 -0.82385284 178 147 170
-0.26181501 -0.059418481 -0.8226679 180 148 170
-0.2614457 -0.060092945 -0.82186705 185 151 174
-0.26233181 -0.059803043 -0.82360536 180 148 171
-0.26129648 -0.060421783 -0.82153577 187 153 175
-0.26173314 -0.056952294 -0.82298082 180 154 171
-0.26191348 -0.056803603 -0.82332748 177 151 168
-0.26108393 -0.059852801 -0.82122397 187 153 175
-0.26091701 -0.058463488 -0.82123184 192 164 182
-0.26149639 -0.059111793 -0.82210302 180 148 169
-0.26199445 -0.057473376 -0.82332456 174 146 164
-0.26303318 -0.062266938 -0.82441807 189 163 188
-0.26208809 -0.062500536 -0.82292324 184 151 180
-0.26173365 -0.063540295 -0.82215196 187 153 184
-0.26267451 -0.062604547 -0.82379568 189 160 187
-0.26252869 -0.064099565 -0.82324219 195 168 196
-0.26297912 -0.064025149 -0.82394648 197 174 200
-0.26180574 -0.061795101 -0.82246643 184 150 178
-0.26215643 -0.06096746 -0.82315713 183 151 176
-0.26157281 -0.062237788 -0.82200998 185 150 178
-0.26225942 -0.061118741 -0.82335114 183 150 176
-0.26133734 -0.063236997 -0.82153612 185 149 180
-0.26133522 -0.062612981 -0.82154608 185 150 179
-0.26262903 -0.064512551 -0.82331342 197 173 200
-0.26126722 -0.06516619 -0.82119232 192 161 191
-0.26173693 -0.064697489 -0.82193941 192 162 192
-0.26215214 -0.064668491 -0.82257533 195 168 196
-0.26695803 -0.056459941 -0.83300173 176 149 166
-0.26668331 -0.055672534 -0.83245569 169 137 159
-0.26686695 -0.053337738 -0.83246744 151 111 139
-0.26669571 -0.058246519 -0.83245534 182 157 179
-0.26718184 -0.056750387 -0.83334589 178 155 170
-0.26404056 -0.051601578 -0.82702243 181 144 172
-0.2643545 -0.051383808 -0.82750618 182 146 169
-0.26376534 -0.051004265 -0.82679391 183 151 180
-0.26375064 -0.052631296 -0.82637012 175 134 167
-0.26303977 -0.052271932 -0.82566774 181 146 175
-0.264162 -0.053914186 -0.82694244 173 130 161
-0.26496729 -0.053272624 -0.82802588 176 129 151
-0.26461697 -0.053134959 -0.82754225 175 130 155
-0.26399392 -0.053354803 -0.82669592 174 132 163
-0.26442975 -0.05620401 -0.82721478 166 126 151
-0.26434734 -0.056493349 -0.8270607 164 126 150
-0.2637628 -0.054504164 -0.82625711 169 130 160
-0.26397547 -0.053557709 -0.82666922 173 131 163
-0.26355943 -0.056597095 -0.82581478 161 129 152
-0.2632021 -0.056590494 -0.82535386 162 132 153
-0.2624253 -0.053424291 -0.82480031 180 147 172
-0.26246983 -0.055276494 -0.82461202 171 142 162
-0.26273566 -0.053987689 -0.82506412 175 142 167
-0.26514375 -0.056758735 -0.82833672 168 123 148
-0.26508951 -0.056963146 -0.82824457 167 124 148
-0.26492789 -0.057058111 -0.827981 166 124 149
-0.2643382 -0.057822801 -0.82701033 162 127 152
-0.26397392 -0.057818308 -0.82636511 162 129 154
-0.26444262 -0.060477737 -0.8268792 169 134 161
-0.26395199 -0.058753762 -0.8261888 166 132 158
-0.2643519 -0.05974156 -0.82681149 167 132 158
-0.26377589 -0.056889743 -0.82611996 161 128 152
-0.26318833 -0.059685983 -0.82502073 175 143 168
-0.26335484 -0.059250101 -0.8252551 172 139 165
-0.26289144 -0.057665203 -0.82485402 167 138 159
-0.26318768 -0.057808105 -0.82522327 167 136 159
-0.26335132 -0.057289906 -0.82548273 164 133 156
-0.26483715 -0.060732741 -0.82763588 168 134 159
-0.26512 -0.062056676 -0.82826471 177 149 170
-0.26493487 -0.060560863 -0.82781124 165 131 157
-0.26522735 -0.060967106 -0.82839739 167 134 158
-0.26442173 -0.063577935 -0.82680982 194 171 191
-0.26413354 -0.063207611 -0.82615542 192 168 190
-0.26413628 -0.063579246 -0.8261103 195 172 194
-0.26368976 -0.061530434 -0.8253023 182 150 178
-0.26429838 -0.063792765 -0.82647771 196 174 195
-0.26361224 -0.064218082 -0.82481033 201 182 206
-0.2633794 -0.061638065 -0.82493109 184 155 181
-0.26348546 -0.06104305 -0.82512945 179 147 174
0 0 0 1 0 0 0 1 0 0 0 1 0 0 0 0 0 125 1 0 0
