ply
format ascii 1.0
comment PCL generated
element vertex 998
property float x
property float y
property float z
property uchar red
property uchar green
property uchar blue
element camera 0
property float view_px
property float view_py
property float view_pz
property float x_axisx
property float x_axisy
property float x_axisz
property float y_axisx
property float y_axisy
property float y_axisz
property float z_axisx
property float z_axisy
property float z_axisz
property float focal
property float scalex
property float scaley
property float centerx
property float centery
property int viewportx
property int viewporty
property float k1
property float k2
end_header
-0.10746486 -0.35512775 -0.6836971 166 154 181
-0.1068822 -0.35654375 -0.68359226 150 129 165
-0.10719384 -0.35515821 -0.68358028 165 152 179
-0.1074574 -0.35748002 -0.68394887 143 121 164
-0.10612655 -0.35907876 -0.68357188 136 112 148
-0.10511009 -0.3603521 -0.68329155 130 104 134
-0.10664853 -0.35947213 -0.68387264 131 108 140
-0.10445432 -0.36108616 -0.6830976 127 99 127
-0.10678198 -0.35778767 -0.68369329 142 121 161
-0.10410256 -0.36039165 -0.6828447 132 105 135
-0.10179309 -0.36061662 -0.68195456 129 105 131
-0.10015898 -0.36105171 -0.68139994 122 103 127
-0.10054108 -0.36079133 -0.681508 125 105 129
-0.10155005 -0.36063915 -0.68186635 128 105 130
-0.096373737 -0.36084533 -0.68016559 125 99 115
-0.099123552 -0.36055768 -0.68097591 125 107 127
-0.096641041 -0.36112145 -0.68028587 123 98 115
-0.09832754 -0.36039025 -0.68070716 127 107 125
-0.096489623 -0.36049679 -0.6801486 127 102 117
-0.10587619 -0.36202064 -0.68389362 124 101 118
-0.10547058 -0.36206713 -0.68371242 125 102 120
-0.10494564 -0.36241141 -0.6835193 128 106 123
-0.10546649 -0.3619529 -0.68369389 125 101 120
-0.10413706 -0.36393559 -0.68336743 138 124 130
-0.10452227 -0.36458081 -0.68363971 139 128 129
-0.10112023 -0.36310855 -0.68206525 131 118 128
-0.10118596 -0.36441815 -0.68230778 133 120 125
-0.1001529 -0.36309087 -0.68171912 125 109 123
-0.10104927 -0.36350784 -0.68210691 131 118 127
-0.099699669 -0.36421958 -0.68174738 124 105 118
-0.10132664 -0.36378849 -0.68225235 133 121 128
-0.1015256 -0.36159903 -0.6819908 125 103 127
-0.10274485 -0.36137754 -0.68241656 127 100 127
-0.1018527 -0.36340937 -0.68237889 135 124 131
-0.10159693 -0.36264071 -0.68217015 131 115 129
-0.1033259 -0.36492506 -0.68315434 147 141 136
-0.10192306 -0.36361206 -0.68243498 137 127 132
-0.096148893 -0.36189029 -0.68025005 125 97 112
-0.096731037 -0.36380321 -0.68072587 132 105 115
-0.096321136 -0.36200148 -0.68032044 125 98 113
-0.096507311 -0.36201781 -0.6803804 125 98 114
-0.096757926 -0.36400688 -0.68076569 133 106 116
-0.097278804 -0.3634322 -0.68083751 130 105 117
-0.096422032 -0.36507645 -0.68083471 136 108 113
-0.097461358 -0.36429763 -0.6810382 131 106 116
-0.098844722 -0.36290488 -0.68124944 124 104 120
-0.097392127 -0.36469421 -0.68108231 132 107 115
-0.097774647 -0.36495179 -0.68124843 131 107 114
-0.094944559 -0.36361057 -0.68017334 123 93 106
-0.095699012 -0.36268365 -0.68023419 129 99 111
-0.10370144 -0.36889535 -0.6839633 110 90 116
-0.10477138 -0.36571679 -0.68393034 135 127 127
-0.10373167 -0.36653039 -0.68358535 134 124 128
-0.10082938 -0.36859033 -0.68278247 113 96 115
-0.10012554 -0.36667025 -0.68226677 120 102 115
-0.10014792 -0.36677253 -0.68228823 119 101 115
-0.10004181 -0.36608806 -0.68216211 121 103 115
-0.10047887 -0.36701524 -0.68244982 118 100 115
-0.10106237 -0.3678624 -0.68278605 115 97 115
-0.1031257 -0.36598352 -0.68325704 139 129 130
-0.10269173 -0.36708403 -0.68328589 124 109 122
-0.1031393 -0.36620617 -0.68329883 136 126 129
-0.10321228 -0.36854678 -0.68371356 111 92 117
-0.10276078 -0.36736324 -0.68335676 121 105 121
-0.098245524 -0.36855653 -0.68186265 120 100 114
-0.096790142 -0.36770529 -0.68129712 127 101 112
-0.095879175 -0.36884153 -0.68116575 124 97 110
-0.098146304 -0.36854371 -0.68183011 120 100 114
-0.097262293 -0.36782181 -0.68145931 125 101 113
-0.098739609 -0.36840892 -0.68199635 120 101 115
-0.099332586 -0.36772627 -0.68210173 119 102 115
-0.098280288 -0.36757129 -0.68174464 124 103 114
-0.096322805 -0.36528823 -0.68083578 137 108 113
-0.097937264 -0.36615199 -0.68146038 129 105 114
-0.09954235 -0.3661069 -0.68197066 123 104 115
-0.093977921 -0.36821836 -0.68052828 123 98 103
-0.095667817 -0.36538532 -0.68064004 139 108 112
-0.094410747 -0.36883864 -0.6807363 121 96 104
-0.094566151 -0.36888152 -0.68078709 121 96 105
-0.094480291 -0.36597797 -0.68038476 128 99 105
-0.10273771 -0.37088102 -0.68385726 106 84 108
-0.10207528 -0.37125286 -0.68363988 106 85 109
-0.10211141 -0.37245262 -0.68383211 105 82 102
-0.10292375 -0.36985469 -0.68378204 106 86 114
-0.10147823 -0.37053129 -0.68329602 108 89 113
-0.10095257 -0.36959162 -0.68295991 111 94 115
-0.10246765 -0.36937711 -0.68353438 108 89 115
-0.10019755 -0.37026522 -0.68275011 111 94 113
-0.099686466 -0.37086099 -0.6826269 111 94 112
-0.10060585 -0.36929849 -0.68278223 112 96 115
-0.096837051 -0.37104791 -0.6817286 117 92 107
-0.096251599 -0.37111828 -0.68152928 119 92 105
-0.096952118 -0.37169257 -0.68182951 116 91 105
-0.096855238 -0.37074712 -0.68170679 118 92 108
-0.096648291 -0.37085956 -0.68164456 118 92 107
-0.096045636 -0.37220061 -0.68155819 117 90 101
-0.09881784 -0.370341 -0.68228018 114 95 112
-0.097604118 -0.36976233 -0.68182522 118 96 111
-0.098603763 -0.37025091 -0.68220156 115 95 112
-0.098873124 -0.37094721 -0.68237919 112 93 111
-0.099316873 -0.37170091 -0.68261868 110 91 110
-0.099522457 -0.36923504 -0.6823498 115 99 115
-0.094884701 -0.36971879 -0.68096507 123 97 110
-0.091833994 -0.37283656 -0.68035793 123 105 116
-0.092509232 -0.37227535 -0.68050379 123 103 116
-0.093655542 -0.37109232 -0.68073088 123 100 113
-0.092438705 -0.3712236 -0.68038958 120 100 109
-0.095333792 -0.37094975 -0.68121165 121 94 106
-0.094276488 -0.37241659 -0.6810376 120 96 107
-0.093913913 -0.37150112 -0.6808449 122 99 111
-0.095522039 -0.36984515 -0.68116367 123 95 108
-0.095585175 -0.36978483 -0.6811766 123 95 108
-0.095358998 -0.37167472 -0.68128705 120 92 103
-0.091745377 -0.37171999 -0.68023622 119 100 109
-0.099824734 -0.37335962 -0.68302321 109 89 108
-0.10119788 -0.37486902 -0.68379772 122 95 109
-0.1006036 -0.37455994 -0.68351036 119 94 110
-0.10110787 -0.37510452 -0.68379349 124 96 111
-0.099655494 -0.37453786 -0.68311912 120 95 113
-0.09988939 -0.37429041 -0.68317974 118 94 112
-0.098483555 -0.37593615 -0.682899 136 103 116
-0.097137943 -0.37584823 -0.68239623 139 112 123
-0.097591966 -0.37592295 -0.68257159 138 110 121
-0.099223703 -0.37450278 -0.68295974 121 95 112
-0.096435897 -0.37314048 -0.68178791 115 89 100
-0.09688551 -0.3734163 -0.68198478 117 90 102
-0.097983845 -0.37316179 -0.68233538 112 88 104
-0.099324852 -0.37376642 -0.68289196 114 91 109
-0.097629584 -0.37334776 -0.68223691 114 89 104
-0.092585057 -0.37427604 -0.68074971 131 114 126
-0.094088584 -0.37404251 -0.68116742 129 108 118
-0.094630323 -0.37481403 -0.68142486 135 115 125
-0.093964875 -0.37346897 -0.68105829 124 101 112
-0.095474727 -0.37310109 -0.68145657 117 90 99
-0.095532686 -0.37439772 -0.681638 129 106 115
-0.091746628 -0.37512413 -0.68059605 133 113 132
-0.09109021 -0.3730858 -0.68021303 115 93 111
-0.090582907 -0.37332824 -0.68012249 112 88 109
-0.10002062 -0.37933519 -0.68388867 146 120 130
-0.10045304 -0.37715712 -0.68380719 142 109 121
-0.098550051 -0.37748376 -0.68311548 146 118 130
-0.099593036 -0.37913549 -0.68369353 146 118 130
-0.099228069 -0.37905991 -0.68355125 147 121 132
-0.12780482 -0.35298398 -0.69627905 111 89 95
-0.12732652 -0.35285145 -0.6958617 113 91 98
-0.12830666 -0.35381281 -0.6967274 103 78 84
-0.12769024 -0.35427675 -0.69623941 110 86 93
-0.1273832 -0.35397917 -0.69598168 114 91 99
-0.12707749 -0.35627359 -0.69579685 115 93 101
-0.1278563 -0.35640395 -0.69643486 106 82 88
-0.12928891 -0.35714874 -0.69775927 107 82 94
-0.13034056 -0.35740119 -0.69870883 106 80 95
-0.12723847 -0.3571398 -0.69595414 112 91 97
-0.13112186 -0.36097991 -0.69957274 112 79 95
-0.13098197 -0.35939822 -0.69937056 108 79 94
-0.12814987 -0.36043593 -0.69701481 111 86 93
-0.12889606 -0.36098787 -0.69768536 111 84 92
-0.12730375 -0.35832959 -0.69610888 114 92 99
-0.12763222 -0.36061314 -0.69660467 111 88 93
-0.1270079 -0.35854119 -0.69588536 114 93 98
-0.12930764 -0.35995346 -0.6979236 112 84 95
-0.12822013 -0.35983956 -0.69701421 112 87 95
-0.13020228 -0.35893205 -0.69865602 109 81 95
-0.12787619 -0.35802847 -0.6965692 114 91 99
-0.12970825 -0.35779899 -0.69817108 108 83 96
-0.12892993 -0.35904226 -0.6975413 112 86 97
-0.12872562 -0.35809442 -0.69731957 112 87 98
-0.12942989 -0.35750595 -0.69791317 109 84 97
-0.12972537 -0.35764098 -0.69817919 108 83 96
-0.12671314 -0.3595995 -0.6957835 113 92 97
-0.12928218 -0.36448824 -0.69844866 136 111 110
-0.12989712 -0.36255419 -0.69869536 120 88 95
-0.13031249 -0.36340874 -0.69917279 128 102 108
-0.12836422 -0.36404863 -0.69760197 131 100 97
-0.12906823 -0.36413792 -0.69821572 133 105 104
-0.12958167 -0.36344644 -0.69855452 127 98 102
-0.12776883 -0.36328954 -0.69701582 125 96 94
-0.12836048 -0.36259535 -0.69742376 120 91 93
-0.12896603 -0.36229444 -0.69788891 117 88 92
-0.12760602 -0.36230287 -0.69676661 117 91 92
-0.12797566 -0.36206868 -0.69704473 115 89 92
-0.12730651 -0.36388621 -0.69670331 129 100 95
-0.12987059 -0.36143875 -0.69853657 111 81 91
-0.12638354 -0.36497149 -0.69613606 135 104 96
-0.12685841 -0.36499313 -0.6964733 137 106 96
-0.1263915 -0.36286965 -0.69590014 119 95 93
-0.13016294 -0.36726698 -0.69943064 149 129 136
-0.12827207 -0.36546466 -0.69770777 142 115 110
-0.129081 -0.36695564 -0.69848841 147 123 125
-0.12958306 -0.36676005 -0.69890511 147 125 128
-0.12884298 -0.36667714 -0.69826841 146 121 121
-0.12981912 -0.36559305 -0.69903594 144 124 124
-0.1272752 -0.36736181 -0.69708586 148 120 117
-0.12758227 -0.36636081 -0.69719803 144 115 109
-0.12758486 -0.36834341 -0.69744968 151 126 127
-0.1283313 -0.36832049 -0.69802588 151 127 130
-0.12956531 -0.36845979 -0.6990006 152 129 137
-0.12690733 -0.36803913 -0.69688869 150 123 121
-0.12682419 -0.36706716 -0.69670719 146 118 112
-0.12623957 -0.36886579 -0.69651771 148 127 127
-0.12586947 -0.36589471 -0.69588524 136 108 101
-0.12599429 -0.36682031 -0.69608682 139 115 109
-0.12863383 -0.37110531 -0.69859284 161 136 148
-0.12823868 -0.36974099 -0.69812727 156 133 140
-0.12955062 -0.36920527 -0.69908249 155 133 143
-0.12742387 -0.36951569 -0.69746894 156 131 135
-0.12838908 -0.37118736 -0.69841254 161 136 147
-0.12804309 -0.36988604 -0.69799244 157 133 139
-0.12924701 -0.37278622 -0.69925934 166 142 160
-0.12790219 -0.37300313 -0.69820744 169 144 157
-0.12782331 -0.37088874 -0.69793117 160 136 144
-0.12850884 -0.37257066 -0.69864821 166 142 156
-0.12602241 -0.37084717 -0.69659311 161 138 139
-0.12653412 -0.37199527 -0.69706023 166 142 147
-0.12659815 -0.37181273 -0.6970858 165 141 146
-0.12667331 -0.37251762 -0.69720852 168 144 151
-0.12670176 -0.36932433 -0.69690269 154 130 131
-0.1250596 -0.37077639 -0.69590425 154 137 136
-0.1248831 -0.37182489 -0.69590151 162 143 142
-0.12782688 -0.37405071 -0.69833082 177 156 167
-0.12861547 -0.37606367 -0.69931972 191 178 188
-0.12834375 -0.37359229 -0.69866174 173 150 164
-0.12727797 -0.37357304 -0.69780731 174 151 161
-0.12857527 -0.37423536 -0.69896132 177 157 171
-0.12812749 -0.37557793 -0.69884288 188 173 182
-0.12706172 -0.37682739 -0.69812006 201 191 191
-0.12711164 -0.3744339 -0.69779998 181 162 168
-0.12723349 -0.37602353 -0.69814521 194 181 184
-0.12620187 -0.37561086 -0.69734257 180 161 170
-0.12569755 -0.37647414 -0.69713783 180 162 172
-0.12546344 -0.37489676 -0.69674289 163 138 154
-0.12498135 -0.37600341 -0.69658971 165 142 158
-0.12677331 -0.37423253 -0.69751406 178 156 164
-0.1263423 -0.37639865 -0.69755548 189 174 179
-0.12474792 -0.37511376 -0.69629228 159 134 151
-0.12436387 -0.37423956 -0.69587952 163 141 149
-0.12473507 -0.37445822 -0.6961717 163 139 150
-0.12649934 -0.3733348 -0.69719154 169 144 154
-0.12542729 -0.37367016 -0.69651264 167 144 151
-0.12364083 -0.37719688 -0.69587708 155 128 152
-0.12420577 -0.37785181 -0.69634897 168 143 161
-0.1238803 -0.37940839 -0.69636577 176 146 161
-0.1249821 -0.37868798 -0.69699252 187 163 173
-0.1254652 -0.37802365 -0.69721448 189 169 177
-0.1236603 -0.37855428 -0.69608939 166 136 156
-0.12479555 -0.38001719 -0.69710022 187 162 174
-0.12485396 -0.37943235 -0.69703269 188 163 173
-0.12444641 -0.38077214 -0.69699526 184 157 172
-0.12472463 -0.3796106 -0.69697499 187 161 172
-0.12540269 -0.37854698 -0.69725353 192 171 177
-0.12295239 -0.37971637 -0.69579464 166 130 152
-0.12376005 -0.38315299 -0.6969046 196 174 181
-0.12323607 -0.38124585 -0.69622087 178 143 160
-0.1244178 -0.38298857 -0.69729745 190 163 179
-0.12521999 -0.38347867 -0.69790208 190 162 184
-0.12432555 -0.3824653 -0.6971429 185 153 173
-0.12489788 -0.38180956 -0.69744486 185 157 177
-0.12514743 -0.38139182 -0.69756883 188 164 180
-0.12460501 -0.3816517 -0.69721991 184 154 173
-0.12414575 -0.38130817 -0.69685537 182 150 168
-0.12532626 -0.38202932 -0.6977725 188 162 182
-0.12274422 -0.38140753 -0.69593287 178 144 159
-0.14321938 -0.35580543 -0.711092 139 124 101
-0.14326972 -0.35651281 -0.71118975 146 132 110
-0.14276263 -0.35617658 -0.71060061 148 137 108
-0.14186105 -0.35530066 -0.70961529 139 126 97
-0.14243081 -0.35445052 -0.71012425 133 118 83
-0.1419626 -0.3566649 -0.70981777 154 144 118
-0.14236426 -0.35629573 -0.71019351 151 141 112
-0.14213945 -0.35714903 -0.71003091 159 150 125
-0.14191552 -0.35708597 -0.70980155 158 149 125
-0.14011903 -0.35352907 -0.70779419 124 108 77
-0.14138719 -0.35426289 -0.70907754 129 114 83
-0.13982739 -0.35450783 -0.70756263 131 117 92
-0.13997209 -0.35520676 -0.70774317 136 123 102
-0.14140865 -0.35495624 -0.70913696 134 120 93
-0.1429316 -0.35899988 -0.71100295 154 141 126
-0.14279641 -0.36118644 -0.71103978 146 128 127
-0.14180717 -0.36108238 -0.71000236 146 129 127
-0.14140256 -0.35982531 -0.70947659 151 137 127
-0.14126828 -0.35989293 -0.70934319 151 137 127
-0.14081673 -0.36069795 -0.70894343 147 130 127
-0.14221539 -0.36018077 -0.71034896 150 135 128
-0.14047512 -0.36047849 -0.7085709 147 132 126
-0.14156985 -0.3577857 -0.70950031 159 150 130
-0.13981842 -0.35758546 -0.70773172 153 144 134
-0.14078681 -0.35934678 -0.70880371 153 140 127
-0.14052948 -0.35809162 -0.70847398 155 144 131
-0.14003812 -0.35951376 -0.70806211 149 136 128
-0.14143629 -0.3578828 -0.70937186 158 149 130
-0.14287089 -0.3635585 -0.71124065 145 126 132
-0.14267668 -0.36469111 -0.71110588 146 127 137
-0.1418259 -0.36376148 -0.71016026 146 129 135
-0.140232 -0.36516565 -0.70854735 145 132 140
-0.14079668 -0.36399671 -0.70908111 145 131 136
-0.14201899 -0.36257237 -0.71029848 146 129 131
-0.14073817 -0.36510798 -0.70908135 146 131 140
-0.1418127 -0.36337972 -0.71012479 146 129 134
-0.14241941 -0.36501515 -0.71086037 147 128 139
-0.14100973 -0.36286363 -0.70924938 145 130 132
-0.1396051 -0.36234653 -0.70777613 143 127 130
-0.13988076 -0.36216989 -0.70805573 143 127 129
-0.14136934 -0.36175242 -0.709584 145 127 128
-0.1397703 -0.36416355 -0.70800954 144 132 137
-0.14098997 -0.3616153 -0.7091862 144 127 128
-0.14262289 -0.36538252 -0.71109116 148 128 140
-0.14235796 -0.36680698 -0.71087563 155 137 148
-0.14121202 -0.36752617 -0.70968568 158 142 153
-0.1404275 -0.36781532 -0.70886201 159 143 155
-0.13943648 -0.36890525 -0.7078535 164 150 161
-0.14198691 -0.36622873 -0.71045464 152 134 145
-0.14181764 -0.36873898 -0.71038467 164 149 159
-0.14155537 -0.36711937 -0.71003377 156 139 150
-0.13949981 -0.3664197 -0.70782119 151 139 147
-0.14168671 -0.36580041 -0.71011752 150 132 143
-0.14116721 -0.36638725 -0.70958948 152 135 146
-0.14017381 -0.36751044 -0.70857972 157 142 153
-0.13971741 -0.36587569 -0.70803058 148 136 144
-0.14090894 -0.36570093 -0.70928818 148 133 143
-0.14030541 -0.36625132 -0.70866948 151 137 146
-0.14265388 -0.37000123 -0.71132338 165 149 157
-0.13937171 -0.36933172 -0.70782185 164 151 161
-0.1399267 -0.36956123 -0.70844603 165 150 160
-0.13919523 -0.37026599 -0.70776612 163 147 156
-0.1411202 -0.36951998 -0.70971256 165 150 159
-0.14219721 -0.36926803 -0.71082503 166 151 160
-0.13917218 -0.37207094 -0.70800656 161 139 146
-0.1393092 -0.37148899 -0.70806307 162 142 149
-0.14136587 -0.37099031 -0.71012235 163 144 152
-0.14143778 -0.37068775 -0.71017975 164 145 153
-0.14208086 -0.36992073 -0.71076649 165 148 157
-0.14254372 -0.37062025 -0.711236 165 147 155
-0.14081533 -0.37129974 -0.70960695 163 143 150
-0.14115173 -0.37159491 -0.70994014 163 142 149
-0.14065495 -0.37286186 -0.70951325 161 137 144
-0.14172633 -0.3728959 -0.71054125 161 138 146
-0.14045423 -0.37372622 -0.70944357 163 140 150
-0.14078833 -0.37334615 -0.70969939 162 138 147
-0.14103283 -0.37532124 -0.7102679 171 149 165
-0.14099199 -0.37525219 -0.71021712 170 148 164
-0.1403923 -0.37443537 -0.70950425 167 143 156
-0.14176011 -0.37529486 -0.71096027 171 149 166
-0.14213771 -0.37442234 -0.71117443 167 145 159
-0.1417681 -0.37389052 -0.71073025 165 142 153
-0.13962822 -0.37630671 -0.70890898 174 158 173
-0.14001018 -0.37514624 -0.70921922 169 148 162
-0.13887076 -0.37412697 -0.7079221 164 143 151
-0.13906747 -0.37606353 -0.70829207 173 158 170
-0.14091344 -0.37684727 -0.71032155 177 160 179
-0.13941365 -0.37655547 -0.70870131 175 161 175
-0.13856901 -0.37551972 -0.70773894 171 154 165
-0.14128855 -0.37919775 -0.7108891 170 153 171
-0.1399872 -0.37830636 -0.70944083 173 159 173
-0.13962275 -0.37706667 -0.70896482 177 163 178
-0.14134099 -0.37725827 -0.71080697 177 159 180
-0.14106613 -0.37983763 -0.71069789 168 152 168
-0.13984616 -0.3773897 -0.70922559 176 162 177
-0.13918237 -0.37777418 -0.70855618 175 163 176
-0.14088002 -0.38016492 -0.71054101 169 153 169
-0.14027591 -0.38103789 -0.71008694 176 163 180
-0.14022717 -0.38132605 -0.71009493 175 160 178
-0.15122834 -0.37538567 -0.72119379 95 74 98
-0.15127528 -0.3754774 -0.72125328 96 74 98
-0.15133953 -0.3763414 -0.72139162 102 82 101
-0.15018414 -0.37663966 -0.72013038 112 103 118
-0.14995447 -0.37662312 -0.71987993 115 107 120
-0.14996046 -0.37683219 -0.71990252 116 109 121
-0.14957373 -0.37314776 -0.71922809 92 69 106
-0.14984375 -0.37435761 -0.71959132 99 84 111
-0.15078574 -0.37703857 -0.7208246 110 97 112
-0.15102477 -0.37751999 -0.72111726 109 94 110
-0.15207569 -0.37944409 -0.72239375 106 83 101
-0.15266995 -0.37824491 -0.72299391 100 71 88
-0.15239932 -0.37866852 -0.72271407 102 76 93
-0.15190338 -0.37973469 -0.72221935 107 86 104
-0.15121789 -0.38053274 -0.72154915 118 99 118
-0.1508978 -0.37793028 -0.7209993 111 97 113
-0.15055807 -0.37787524 -0.72063124 114 102 118
-0.15151842 -0.38003805 -0.72183138 113 93 111
-0.15031898 -0.3802537 -0.72056425 125 112 131
-0.14985938 -0.37880749 -0.71995443 122 109 128
-0.15033679 -0.37818199 -0.72041845 117 106 123
-0.14938094 -0.37731668 -0.7193132 124 119 128
-0.14929977 -0.37828514 -0.71930528 127 118 131
-0.15191779 -0.38265154 -0.72263074 96 74 93
-0.15151583 -0.3819257 -0.72207636 106 87 106
-0.15188017 -0.38163114 -0.72241604 105 83 102
-0.15220888 -0.38186333 -0.72280759 100 76 95
-0.15132251 -0.38363424 -0.72214651 92 74 92
-0.15057363 -0.38307822 -0.72120839 102 88 103
-0.15028392 -0.38225543 -0.72076905 113 100 117
-0.14992879 -0.38395458 -0.72062361 98 87 101
-0.14993361 -0.38434598 -0.72068316 94 83 96
-0.14957471 -0.38446191 -0.72031367 96 86 101
-0.14987116 -0.38096347 -0.72014505 129 114 135
-0.14879076 -0.38265523 -0.71921885 119 108 130
-0.14972939 -0.38513485 -0.72057122 89 77 91
-0.1489232 -0.38529921 -0.71972692 97 85 103
-0.14849864 -0.38484672 -0.71921045 103 96 116
-0.089023039 -0.35686904 -0.67762631 139 119 141
-0.087975666 -0.35473344 -0.67711651 167 153 171
-0.088471517 -0.35724765 -0.6775468 135 111 135
-0.090886362 -0.3572368 -0.6781019 133 116 137
-0.0885178 -0.35473785 -0.67724204 167 154 171
-0.089160033 -0.35469499 -0.67738402 167 156 172
-0.086771265 -0.3570258 -0.67715424 135 112 138
-0.086561464 -0.35629556 -0.67703629 145 122 154
-0.085936271 -0.35669622 -0.67694145 136 115 143
-0.084843673 -0.35596737 -0.67663342 143 124 157
-0.084731579 -0.3551749 -0.67653036 155 136 175
-0.086115949 -0.35551044 -0.67685848 155 134 169
-0.087617762 -0.35562533 -0.6771574 156 137 159
-0.086825684 -0.35606891 -0.67706317 149 127 157
-0.083795883 -0.35463464 -0.67627615 160 142 186
-0.083435021 -0.35530636 -0.67626768 149 130 172
-0.082255311 -0.3572593 -0.67621583 119 94 133
-0.083238132 -0.35484463 -0.67617947 156 137 183
-0.096343905 -0.35862678 -0.67979032 132 114 124
-0.095874898 -0.36081094 -0.67999184 124 98 113
-0.095987998 -0.35796899 -0.67956042 133 117 126
-0.093499057 -0.36003435 -0.67922527 122 100 121
-0.092546672 -0.3607668 -0.67909896 113 95 120
-0.092164718 -0.35801041 -0.67853141 128 111 132
-0.093135707 -0.36035269 -0.67918372 118 98 120
-0.093890488 -0.36016864 -0.67935097 122 100 119
-0.09246365 -0.36083296 -0.67908835 112 94 120
-0.09417557 -0.35943037 -0.67930186 127 105 122
-0.09483096 -0.35981548 -0.67954022 126 103 119
-0.094090968 -0.35832393 -0.67909497 130 112 127
-0.094721116 -0.35807776 -0.67922139 131 115 126
-0.094825283 -0.35995141 -0.67956132 126 102 118
-0.094516501 -0.35890874 -0.67930549 128 109 123
-0.090045705 -0.36071411 -0.67842394 118 98 117
-0.089970194 -0.35954151 -0.678271 119 98 125
-0.09058322 -0.360744 -0.67858207 114 95 119
-0.088605396 -0.35845014 -0.67775577 128 104 127
-0.091769978 -0.35901713 -0.67859912 120 105 129
-0.09040501 -0.35921502 -0.67831814 120 101 127
-0.090429559 -0.35804319 -0.6781252 127 108 132
-0.091525473 -0.35793835 -0.67835993 127 111 133
-0.0898581 -0.35927635 -0.67820251 121 100 126
-0.085139148 -0.35911962 -0.67704004 120 100 113
-0.085646935 -0.35803914 -0.67702043 124 103 122
-0.085784584 -0.35808939 -0.67705572 124 103 122
-0.087475337 -0.35751161 -0.67735541 132 107 130
-0.095508598 -0.36181596 -0.68004751 123 94 109
-0.089456432 -0.37148622 -0.67970866 92 55 87
-0.090069085 -0.37197128 -0.67988759 100 69 96
-0.089704819 -0.37332752 -0.67992795 102 71 101
-0.090361543 -0.37336427 -0.68007672 110 85 107
-0.089301899 -0.37368402 -0.67987067 102 70 101
-0.12292004 -0.34927243 -0.69189733 90 50 73
-0.12704603 -0.35270947 -0.69560331 111 89 98
-0.1234348 -0.35264423 -0.69265616 119 90 107
-0.12553768 -0.35301557 -0.69440633 118 92 104
-0.12423804 -0.35333988 -0.69338393 123 98 112
-0.12309581 -0.35126734 -0.69223315 107 72 91
-0.1244887 -0.35129902 -0.69336945 104 71 87
-0.12319325 -0.35298201 -0.69249582 122 94 112
-0.12401247 -0.3521162 -0.69306952 113 82 98
-0.12644024 -0.35167998 -0.69499075 104 79 90
-0.12633967 -0.35113466 -0.6948483 99 73 85
-0.12607677 -0.35238826 -0.69477636 111 85 96
-0.12434223 -0.34969214 -0.6930722 90 55 73
-0.12567602 -0.35181862 -0.69438863 106 78 91
-0.12453571 -0.34961185 -0.6932196 88 54 72
-0.12543321 -0.3499141 -0.69397885 89 59 75
-0.12227707 -0.35343498 -0.69188815 125 91 112
-0.12261316 -0.35347763 -0.69212723 126 96 115
-0.12264726 -0.35015571 -0.69180435 99 61 81
-0.12562633 -0.35633811 -0.69471991 123 104 114
-0.12637556 -0.35572004 -0.69525307 120 99 108
-0.12413665 -0.35710505 -0.69364548 130 113 126
-0.12677625 -0.35630149 -0.6955663 117 96 104
-0.12585129 -0.35605037 -0.69487685 122 103 112
-0.12661232 -0.355681 -0.69542646 119 98 106
-0.12501605 -0.35366607 -0.69405162 124 100 113
-0.12407541 -0.35470313 -0.69339752 128 106 120
-0.12487367 -0.35501543 -0.69408023 127 107 119
-0.12424631 -0.35442168 -0.69350636 127 104 118
-0.12589853 -0.35358438 -0.69476062 122 99 109
-0.12384788 -0.35531911 -0.69327837 130 109 123
-0.12239448 -0.35714602 -0.69239306 133 117 128
-0.12160268 -0.35741982 -0.69190121 132 118 124
-0.12229995 -0.35393587 -0.69196457 127 96 115
-0.12641974 -0.36024675 -0.69564503 112 92 96
-0.12645091 -0.36024204 -0.69566751 112 92 96
-0.12554002 -0.35827634 -0.69478244 121 102 110
-0.12605371 -0.3607139 -0.69542599 113 94 98
-0.12342744 -0.35771528 -0.69316429 133 116 130
-0.124511 -0.3585512 -0.69405383 126 108 118
-0.12532771 -0.35908166 -0.69471347 120 101 110
-0.12388797 -0.36051536 -0.69387919 119 103 116
-0.1251377 -0.36086589 -0.69480002 115 97 105
-0.12357385 -0.35955799 -0.69352371 124 108 122
-0.12454364 -0.35953432 -0.69419616 122 105 115
-0.12307679 -0.35863274 -0.69304544 130 114 130
-0.12265988 -0.36000192 -0.69296271 123 109 126
-0.12301634 -0.35773307 -0.69287598 134 118 133
-0.1219665 -0.36113691 -0.69266385 119 106 123
-0.12092245 -0.36106449 -0.69195974 120 108 126
-0.12148872 -0.35950848 -0.69211578 126 113 128
-0.12223747 -0.35864577 -0.69248891 130 116 131
-0.12119687 -0.3588286 -0.69182944 127 114 124
-0.12615564 -0.36177999 -0.69562471 113 92 95
-0.12408677 -0.36134973 -0.69413596 115 99 111
-0.12512802 -0.36134234 -0.69486076 113 95 103
-0.1257043 -0.36341923 -0.69548947 123 99 97
-0.12387998 -0.36210033 -0.69407398 119 102 112
-0.12464361 -0.36282229 -0.69468504 122 101 106
-0.12305649 -0.3627353 -0.69357771 114 95 108
-0.123982 -0.36303863 -0.69424969 122 101 108
-0.12429182 -0.36485314 -0.69467199 121 94 94
-0.12383217 -0.36280683 -0.69411981 121 101 110
-0.12403122 -0.3639726 -0.69439113 120 96 100
-0.12297674 -0.36361265 -0.69362569 112 90 101
-0.12304267 -0.36254862 -0.69354677 114 96 109
-0.12055045 -0.36474913 -0.69215107 112 81 102
-0.12185938 -0.36472708 -0.69301468 111 83 96
-0.12131923 -0.3641504 -0.69259083 112 85 103
-0.12062866 -0.3634319 -0.69204909 115 91 111
-0.12023821 -0.36479354 -0.69194943 112 80 103
-0.12062214 -0.36334118 -0.69203407 115 91 112
-0.12056122 -0.36338478 -0.69199872 115 91 112
-0.12440794 -0.36762014 -0.69508165 129 110 111
-0.12530273 -0.3664363 -0.69555575 133 109 104
-0.12466241 -0.36665645 -0.69514132 128 105 104
-0.12541008 -0.3670471 -0.69570279 136 114 110
-0.12491668 -0.36741054 -0.69540668 133 113 111
-0.12463838 -0.3688322 -0.69537497 135 120 121
-0.1237129 -0.36870563 -0.69468659 127 110 114
-0.12348553 -0.36657986 -0.69431156 117 94 98
-0.12147961 -0.36684367 -0.69303066 115 91 98
-0.12256333 -0.36901408 -0.6939261 123 105 111
-0.12254945 -0.36574513 -0.69359607 111 85 90
-0.12071868 -0.36858359 -0.69272268 123 102 110
-0.12241404 -0.36774036 -0.69370693 118 97 103
-0.12078027 -0.36832148 -0.69273567 122 100 109
-0.1216315 -0.36720356 -0.69316161 117 94 101
-0.1212742 -0.36683244 -0.69289434 116 91 99
-0.12217589 -0.366072 -0.6933918 112 87 93
-0.12040927 -0.36666176 -0.69229972 116 89 103
-0.12124092 -0.36622649 -0.69279325 114 87 98
-0.12001616 -0.36765343 -0.69216889 120 96 107
-0.12421423 -0.36922917 -0.69510615 134 118 121
-0.12438601 -0.36957264 -0.69527286 138 123 125
-0.12428198 -0.37108997 -0.69537932 151 134 134
-0.12371021 -0.37150633 -0.69502038 151 133 134
-0.12343307 -0.3703703 -0.69467497 138 120 123
-0.12028109 -0.37016386 -0.69261932 123 101 110
-0.12148249 -0.36965528 -0.69331723 123 103 111
-0.11971098 -0.37049145 -0.69229805 122 99 109
-0.12187368 -0.36999595 -0.6936025 123 101 109
-0.11986201 -0.37168154 -0.69252944 120 93 103
-0.12003828 -0.37093595 -0.69255495 122 96 106
-0.12162791 -0.37275371 -0.69381732 148 127 129
-0.12287388 -0.37177461 -0.69449598 152 137 136
-0.12024031 -0.37300766 -0.69294536 132 105 112
-0.12259063 -0.37089202 -0.694188 138 120 123
-0.12238301 -0.37012964 -0.6939463 126 106 112
-0.12176863 -0.37172589 -0.69376647 137 116 120
-0.11884455 -0.37267423 -0.69202566 120 88 101
-0.11865671 -0.3728168 -0.69193834 120 88 101
-0.12336403 -0.37523127 -0.69536722 158 137 150
-0.12407144 -0.37391746 -0.69562501 165 145 149
-0.12328088 -0.37543273 -0.69534481 157 136 150
-0.11989865 -0.37602651 -0.693232 132 110 123
-0.12206518 -0.37636614 -0.69470292 139 111 135
-0.11932372 -0.37523872 -0.69272321 127 104 115
-0.12070625 -0.37566546 -0.69369745 133 106 124
-0.12105679 -0.37576443 -0.69394296 134 107 126
-0.12094957 -0.37585762 -0.69388884 134 108 126
-0.11970773 -0.3747929 -0.69289804 127 100 113
-0.12231431 -0.37451929 -0.69455457 150 128 138
-0.11993032 -0.37372622 -0.69286233 124 93 107
-0.1206217 -0.37370509 -0.69331092 133 106 117
-0.1228937 -0.37564364 -0.69512254 150 126 144
-0.12220984 -0.37573379 -0.69469053 141 113 134
-0.12285965 -0.37659606 -0.69526041 143 116 142
-0.11899767 -0.37602615 -0.69265497 130 110 119
-0.11908412 -0.37475204 -0.69248861 125 100 110
-0.11742886 -0.37688437 -0.69189548 131 114 123
-0.11814896 -0.37389609 -0.69181818 123 93 106
-0.12318145 -0.37770337 -0.69564474 152 122 148
-0.12281727 -0.37894714 -0.69559318 159 126 150
-0.12191027 -0.38076234 -0.69529092 171 135 152
-0.12274898 -0.37858546 -0.69549668 156 124 148
-0.12018143 -0.38066882 -0.69419008 162 133 144
-0.12146142 -0.3799645 -0.69489086 162 131 147
-0.12196758 -0.38044459 -0.69528002 168 134 151
-0.12218587 -0.37889162 -0.69518787 156 125 147
-0.11916482 -0.37799862 -0.6930896 141 122 130
-0.12075844 -0.37846747 -0.69420952 148 123 139
-0.11950126 -0.37734768 -0.69319761 137 120 129
-0.12100327 -0.37711513 -0.69413757 139 118 135
-0.11999704 -0.37848192 -0.69371527 146 124 136
-0.12031211 -0.37883514 -0.69398135 149 125 138
-0.11797944 -0.37949207 -0.69263971 141 116 123
-0.11824262 -0.37880257 -0.69267797 139 116 123
-0.11818948 -0.38062769 -0.69295901 151 123 129
-0.11909363 -0.37969172 -0.69333595 151 129 136
-0.11893866 -0.37909308 -0.69314134 146 125 132
-0.1167395 -0.37916809 -0.69185984 134 108 115
-0.1174596 -0.37730342 -0.6919803 132 114 123
-0.11760751 -0.37695307 -0.69201022 132 115 124
-0.12229358 -0.38156629 -0.6956712 178 145 160
-0.12159678 -0.38117838 -0.6951645 173 140 154
-0.12110087 -0.38183948 -0.69496953 175 147 157
-0.11953496 -0.38246629 -0.69408095 168 143 152
-0.11610879 -0.38397676 -0.69216806 144 128 145
-0.1161493 -0.3839896 -0.69219548 144 128 145
-0.11859949 -0.38203195 -0.69341385 158 133 144
-0.1170963 -0.38369602 -0.69274092 151 130 146
-0.11887655 -0.38360384 -0.69384038 165 135 152
-0.11911334 -0.38255727 -0.69382012 164 135 148
-0.11621719 -0.38097599 -0.69184202 137 104 110
-0.11725821 -0.38175133 -0.69256127 147 121 131
-0.11715307 -0.38159552 -0.69247854 146 119 128
-0.1160793 -0.38373578 -0.69211853 143 126 142
-0.11630782 -0.38116693 -0.6919207 138 107 114
-0.11550067 -0.38495427 -0.69193202 141 125 147
-0.11640991 -0.38595662 -0.69259489 146 120 152
-0.11674776 -0.3858434 -0.69279575 149 122 153
-0.1156955 -0.38765043 -0.69230622 137 105 155
-0.11731891 -0.38600361 -0.69316828 153 122 155
-0.1166502 -0.38678539 -0.69282287 146 114 155
-0.11686239 -0.38699672 -0.69297546 148 113 157
-0.11578096 -0.39006847 -0.69255561 149 120 162
-0.1161005 -0.38960707 -0.69268149 146 114 165
-0.11634786 -0.3895379 -0.69282949 149 119 167
-0.11497366 -0.39165244 -0.69226605 162 140 157
-0.11515023 -0.39079824 -0.69228357 154 128 157
-0.11456269 -0.38988194 -0.69185978 146 117 157
-0.11522906 -0.39263618 -0.692518 173 155 158
-0.11750653 -0.34388289 -0.68769646 134 113 136
-0.11789756 -0.34261012 -0.6878531 118 85 121
-0.11682726 -0.34341732 -0.68721235 151 134 149
-0.11742312 -0.34472436 -0.6877082 140 125 142
-0.11581641 -0.34466308 -0.68663514 182 170 172
-0.11617078 -0.34469223 -0.68687379 173 161 166
-0.11594679 -0.34566724 -0.68679619 182 169 173
-0.11614227 -0.34589255 -0.68695223 176 164 169
-0.11659435 -0.34787738 -0.68749416 156 147 161
-0.11629738 -0.34750959 -0.68725139 165 155 167
-0.11676945 -0.34748909 -0.68756407 153 144 158
-0.11536569 -0.34772328 -0.68663412 177 162 174
-0.11552685 -0.34859535 -0.68684113 165 151 169
-0.11594005 -0.3476868 -0.68703055 172 161 171
-0.11651262 -0.35032389 -0.68772447 136 124 147
-0.11636061 -0.35095114 -0.68769407 129 114 138
-0.11555183 -0.34966567 -0.68697542 153 138 162
-0.11535501 -0.35308516 -0.68729544 101 78 105
-0.11348823 -0.35328898 -0.68632323 113 96 121
-0.11403859 -0.35309684 -0.68659329 108 89 114
-0.11433647 -0.3526502 -0.68669963 108 87 111
-0.11440481 -0.35228604 -0.6866858 114 93 117
-0.11477705 -0.35153961 -0.68677503 125 106 130
-0.11493299 -0.35220671 -0.68694532 115 94 119
-0.11419217 -0.35193247 -0.68652904 119 100 122
-0.11076693 -0.35314536 -0.68491399 142 134 157
-0.11553481 -0.35533959 -0.68770504 106 86 107
-0.11208153 -0.35448086 -0.68572986 130 119 144
-0.11283407 -0.35717544 -0.68649894 125 102 136
-0.11223588 -0.35590816 -0.68600988 128 110 142
-0.11299004 -0.35542771 -0.68633598 126 114 136
-0.11162002 -0.35652465 -0.68577486 129 105 147
-0.11256817 -0.35582787 -0.68617195 127 111 139
-0.11368033 -0.35362417 -0.68646568 110 93 119
-0.11330746 -0.35492247 -0.68643653 122 109 130
-0.11426938 -0.3535648 -0.68677092 104 84 111
-0.11490522 -0.35553762 -0.68736529 109 92 112
-0.11302729 -0.35446867 -0.68622863 122 109 132
-0.11266623 -0.35431495 -0.6860168 125 113 136
-0.11008787 -0.35627168 -0.68500787 135 113 154
-0.10883889 -0.35646579 -0.68445146 140 119 160
-0.11013958 -0.35613415 -0.68501282 135 114 154
-0.1105352 -0.35688487 -0.68530256 132 107 152
-0.11025184 -0.35520637 -0.68493551 136 120 154
-0.10952225 -0.3569248 -0.68483496 136 112 156
-0.10866477 -0.35473025 -0.68417317 153 142 171
-0.11013471 -0.35416704 -0.68475282 141 131 159
-0.10924097 -0.35499436 -0.68445379 145 131 163
-0.10942543 -0.35493028 -0.68452728 143 130 161
-0.11517345 -0.3582305 -0.68787843 122 107 121
-0.11329047 -0.36011344 -0.68714017 131 115 124
-0.11409676 -0.35926697 -0.68745244 127 111 122
-0.11434834 -0.36030531 -0.68776554 134 116 128
-0.11318715 -0.36083075 -0.68720102 136 118 127
-0.11214889 -0.36114872 -0.68667096 136 119 125
-0.11140888 -0.35851997 -0.68592846 130 105 141
-0.11354879 -0.35898551 -0.68710315 125 110 120
-0.11140575 -0.35997465 -0.68611008 133 112 132
-0.11154312 -0.36105394 -0.68631768 134 118 123
-0.11453357 -0.35744891 -0.68742317 120 103 122
-0.1124726 -0.35983074 -0.68664837 130 113 124
-0.10873158 -0.35750932 -0.68454802 138 113 158
-0.10984959 -0.35765165 -0.68509138 133 106 152
-0.10860634 -0.35893252 -0.68469936 129 104 139
-0.10742212 -0.36125344 -0.68448812 118 94 112
-0.10751121 -0.3609865 -0.68449038 119 95 115
-0.10795695 -0.35859129 -0.6843459 134 110 147
-0.10899749 -0.36105812 -0.68516725 124 103 117
-0.10874629 -0.36023107 -0.68495113 122 96 122
-0.11057292 -0.36011887 -0.6857512 130 108 129
-0.11055273 -0.361285 -0.68588907 132 114 121
-0.10792341 -0.36090258 -0.6846689 119 95 115
-0.10999149 -0.36063349 -0.68555683 128 107 123
-0.10733443 -0.35827175 -0.68400919 139 115 154
-0.10696954 -0.36087996 -0.68422735 121 97 119
-0.11158379 -0.36174908 -0.68644053 134 118 123
-0.11401881 -0.3617273 -0.6878041 139 119 130
-0.11200584 -0.36138123 -0.68662763 136 119 125
-0.11286209 -0.36334419 -0.68737376 131 111 121
-0.11402716 -0.36213559 -0.68786401 137 117 129
-0.11181547 -0.36387014 -0.68685573 129 110 120
-0.11217289 -0.36327305 -0.68697709 130 111 120
-0.11183359 -0.36371359 -0.68684494 129 111 120
-0.10853437 -0.36335963 -0.68527538 122 102 116
-0.10851432 -0.36458874 -0.68544221 124 109 120
-0.10823809 -0.3650063 -0.68538111 125 112 121
-0.1089449 -0.36315864 -0.68542606 122 100 115
-0.10910963 -0.36521986 -0.68579251 125 112 121
-0.10980691 -0.36473322 -0.68602771 125 107 119
-0.10970217 -0.36341476 -0.68579531 123 102 116
-0.10868147 -0.3624126 -0.68520588 121 98 114
-0.11128611 -0.36154255 -0.68625009 135 119 123
-0.10943746 -0.3615483 -0.68542695 126 106 117
-0.1098891 -0.36365601 -0.68591094 124 102 116
-0.10717428 -0.36449963 -0.68483949 125 113 121
-0.10672157 -0.36408132 -0.68457401 127 114 120
-0.10623882 -0.364149 -0.68436432 130 117 122
-0.10672643 -0.36383489 -0.68454099 126 112 120
-0.10662891 -0.36202756 -0.68423849 122 101 115
-0.11281525 -0.36605805 -0.68772733 126 106 119
-0.11217756 -0.36756113 -0.6875965 128 112 124
-0.11201235 -0.36571863 -0.68722332 126 107 120
-0.11148465 -0.36819923 -0.68731678 129 114 126
-0.10840991 -0.36832488 -0.68595856 120 96 117
-0.10795762 -0.36852199 -0.68578637 117 90 114
-0.10972022 -0.36761457 -0.68643665 127 115 126
-0.10779747 -0.36912972 -0.68580568 115 82 111
-0.10799153 -0.36805245 -0.68573141 119 94 116
-0.10839534 -0.36793101 -0.6858933 121 99 118
-0.10813531 -0.36576924 -0.68545324 125 115 123
-0.10927097 -0.36636129 -0.68604308 126 114 124
-0.10890248 -0.36555299 -0.68575442 126 113 122
-0.11013225 -0.3664133 -0.68642771 127 112 123
-0.10881329 -0.36652762 -0.68586928 126 116 124
-0.11093093 -0.36631584 -0.68676132 127 110 122
-0.10710681 -0.36826247 -0.68537027 115 87 113
-0.1049761 -0.36835694 -0.68444687 112 91 115
-0.10550532 -0.36741981 -0.68453985 115 99 118
-0.10407072 -0.36874697 -0.68410677 109 89 115
-0.10531994 -0.36839241 -0.68460351 112 90 115
-0.10386294 -0.36857894 -0.68398541 112 93 116
-0.10644913 -0.36549354 -0.68465722 128 118 123
-0.10693738 -0.36526528 -0.68484187 127 118 123
-0.1046378 -0.3669132 -0.6840657 124 111 122
-0.11162459 -0.37129253 -0.68781203 130 111 125
-0.10813975 -0.37304592 -0.68644935 124 100 113
-0.10743427 -0.37021354 -0.68577975 116 84 110
-0.10818103 -0.37015212 -0.68610549 117 85 112
-0.10752216 -0.36926216 -0.68569982 114 79 110
-0.10862282 -0.37183315 -0.68651313 122 95 114
-0.10758595 -0.37265709 -0.68615335 122 97 111
-0.10907284 -0.36921024 -0.68638456 120 94 117
-0.11099108 -0.36998394 -0.68733698 128 111 126
-0.11002432 -0.369782 -0.68688065 124 102 122
-0.1106048 -0.37072825 -0.6872586 127 106 123
-0.10904383 -0.36943811 -0.68640035 120 94 117
-0.10954844 -0.36957714 -0.68664277 122 98 119
-0.10417058 -0.36916298 -0.68421274 108 85 114
-0.10480553 -0.36942506 -0.68453085 109 83 112
-0.1038823 -0.36967063 -0.68416125 107 85 111
-0.10626756 -0.37022594 -0.68529385 110 78 105
-0.10418466 -0.37090927 -0.68447918 106 81 104
-0.1040616 -0.37018028 -0.68431622 107 83 108
-0.10455666 -0.3701424 -0.68452841 108 82 108
-0.10497497 -0.37264553 -0.68506068 109 83 100
-0.10645127 -0.37227887 -0.68562895 116 89 106
-0.10619269 -0.37041506 -0.68528801 110 78 104
-0.10611257 -0.3722727 -0.68548727 114 87 105
-0.1073186 -0.37050685 -0.68576795 116 85 109
-0.10719216 -0.3700771 -0.68566155 114 82 109
-0.10322809 -0.37057355 -0.68401492 106 84 108
-0.11018398 -0.37487718 -0.68761802 130 109 123
-0.10896712 -0.37588504 -0.68719989 131 110 121
-0.10916442 -0.37574244 -0.68727094 131 110 122
-0.10855145 -0.3759023 -0.687006 132 110 120
-0.10836331 -0.37505209 -0.68680954 129 107 118
-0.10867064 -0.37472805 -0.68690467 129 107 118
-0.10765007 -0.37567487 -0.6865719 130 107 117
-0.11072576 -0.37311983 -0.68761355 129 106 122
-0.10895289 -0.37312514 -0.68682265 125 102 116
-0.10938217 -0.37357002 -0.6870721 127 105 119
-0.10556761 -0.37660086 -0.68581188 131 108 115
-0.10407299 -0.37461326 -0.68493438 116 91 103
-0.1048273 -0.37673822 -0.68551773 133 109 115
-0.10491342 -0.37562224 -0.6854142 123 99 109
-0.10490718 -0.37634784 -0.68550241 130 105 113
-0.10517685 -0.37365982 -0.68527448 113 88 102
-0.1049262 -0.37338874 -0.68513501 111 86 100
-0.10702026 -0.37435067 -0.68613106 124 100 111
-0.10697711 -0.37345317 -0.68599659 121 97 109
-0.10572467 -0.37420306 -0.68557292 117 93 105
-0.10585304 -0.37494379 -0.68572241 119 96 108
-0.10220705 -0.37590569 -0.68434799 129 101 112
-0.10343122 -0.37675801 -0.68493533 135 109 115
-0.10347251 -0.37621179 -0.68488312 130 104 111
-0.10332298 -0.37569836 -0.68476015 126 100 109
-0.1013981 -0.37613544 -0.68405706 133 102 114
-0.10119452 -0.3763282 -0.68399948 135 104 116
-0.10985241 -0.37713271 -0.68781853 128 111 125
-0.10832746 -0.37933818 -0.68750024 135 117 127
-0.10801496 -0.37717569 -0.68695718 132 111 121
-0.10880146 -0.3801733 -0.68787706 135 119 130
-0.10772125 -0.3786743 -0.68708968 136 117 125
-0.10535462 -0.37720492 -0.68581152 135 112 118
-0.10615281 -0.37909546 -0.68648612 140 124 127
-0.10580709 -0.37863773 -0.68625867 139 121 125
-0.10589544 -0.37932029 -0.68641812 141 125 128
-0.10666554 -0.37762469 -0.68643814 135 115 121
-0.10499608 -0.37781963 -0.68577087 138 116 121
-0.10350773 -0.37747097 -0.68505216 139 114 120
-0.10123505 -0.37698242 -0.68410081 140 109 119
-0.10159876 -0.37878796 -0.68444943 143 118 126
-0.10180531 -0.37822026 -0.68446583 142 116 123
-0.10076736 -0.37934968 -0.68418705 145 121 129
-0.1390757 -0.3519451 -0.7065776 113 97 77
-0.13884476 -0.3526344 -0.70639002 122 104 81
-0.13846017 -0.35190159 -0.70593512 115 94 79
-0.1395072 -0.35389328 -0.70719612 128 113 85
-0.13943385 -0.35468811 -0.70716578 134 120 97
-0.13920607 -0.35618183 -0.70700967 146 134 119
-0.13875309 -0.35623825 -0.70649725 146 133 120
-0.13859297 -0.35467792 -0.70625913 138 121 100
-0.13849883 -0.35736153 -0.70629239 151 140 133
-0.13739821 -0.35465989 -0.70511574 129 112 94
-0.13928531 -0.35997668 -0.70732141 146 131 129
-0.13899206 -0.35944226 -0.70695353 147 133 130
-0.13695504 -0.35954368 -0.70494169 147 127 123
-0.13635123 -0.36101198 -0.70445907 144 119 117
-0.13741156 -0.36109933 -0.70549488 146 122 120
-0.13811629 -0.35821646 -0.70597553 151 136 131
-0.13865541 -0.35848334 -0.70651788 151 137 131
-0.13812642 -0.36123729 -0.70619881 147 124 122
-0.13724756 -0.36011103 -0.70526582 147 126 123
-0.13570687 -0.35768408 -0.70366609 132 129 119
-0.1369056 -0.35859382 -0.70484567 144 130 124
-0.13705297 -0.35748029 -0.70492977 141 135 126
-0.13646062 -0.35845622 -0.70441771 140 129 122
-0.13637228 -0.35888359 -0.70435536 141 127 121
-0.13646194 -0.35895047 -0.70444351 142 127 122
-0.13901077 -0.36139864 -0.70710999 145 125 125
-0.13910972 -0.36179823 -0.70723325 144 126 127
-0.13877054 -0.36491933 -0.70698035 145 134 140
-0.13797663 -0.36421546 -0.70620143 149 134 137
-0.13636267 -0.36381271 -0.70468837 156 137 136
-0.13816689 -0.36242804 -0.70630884 149 129 129
-0.13545421 -0.36507034 -0.70389402 159 142 143
-0.13744228 -0.3637425 -0.70568734 151 134 135
-0.13729431 -0.36353245 -0.70554197 152 134 134
-0.13752244 -0.36388728 -0.70576733 151 135 136
-0.13641298 -0.36141011 -0.70454788 144 119 117
-0.13740407 -0.36190408 -0.70554918 148 126 124
-0.13729781 -0.36204392 -0.70545703 149 126 125
-0.13547456 -0.36380216 -0.70382518 154 134 133
-0.13766342 -0.36191797 -0.70580214 149 127 125
-0.13584214 -0.36321315 -0.70413566 152 131 130
-0.13882379 -0.36632168 -0.70709395 151 140 147
-0.13880302 -0.36847517 -0.70715535 161 150 159
-0.13690946 -0.36849147 -0.70541161 158 143 157
-0.13525005 -0.36883464 -0.70391822 157 137 156
-0.13862024 -0.36909026 -0.70698804 164 153 162
-0.13860022 -0.36591852 -0.70684725 149 138 145
-0.13755552 -0.36865389 -0.7060045 160 146 158
-0.13779005 -0.3672978 -0.70616502 154 141 151
-0.13844295 -0.36696041 -0.70674479 153 142 150
-0.13731867 -0.36596105 -0.70567274 150 137 145
-0.13659184 -0.3664946 -0.70502955 153 138 147
-0.13696051 -0.36621317 -0.70535517 152 137 146
-0.13581337 -0.36669913 -0.70431918 156 139 148
-0.1367041 -0.36623806 -0.70511872 153 138 146
-0.13774106 -0.36576623 -0.70605332 149 137 144
-0.13816871 -0.3655237 -0.70643592 147 136 143
-0.13481198 -0.37206391 -0.70393389 158 136 153
-0.13695455 -0.37038067 -0.70564789 162 146 158
-0.13516392 -0.37131444 -0.70415014 159 137 154
-0.13837518 -0.3692553 -0.70678312 164 152 162
-0.13576007 -0.37190273 -0.70477307 160 140 155
-0.13610715 -0.37019575 -0.70485246 160 142 157
-0.13519551 -0.37058157 -0.70407754 159 137 155
-0.13836394 -0.37035593 -0.70693225 163 148 156
-0.13801095 -0.3711414 -0.70672357 162 144 153
-0.13864662 -0.3693347 -0.70704198 164 153 161
-0.13704412 -0.37101007 -0.70581824 162 145 157
-0.13659444 -0.372125 -0.70556909 160 139 151
-0.1351373 -0.3730092 -0.70436388 159 136 151
-0.13786103 -0.37212694 -0.70673144 161 139 148
-0.1373743 -0.37280616 -0.70639139 160 136 145
-0.13450097 -0.37221736 -0.70367318 159 136 154
-0.13641554 -0.37305236 -0.70554739 159 135 147
-0.13570698 -0.37402198 -0.70498592 164 143 159
-0.13823378 -0.37374589 -0.70728666 164 140 149
-0.13811769 -0.37400925 -0.70720446 165 142 152
-0.13738686 -0.37469289 -0.70659566 168 148 161
-0.1379818 -0.37565327 -0.70723361 173 156 170
-0.13681057 -0.37555817 -0.70615208 172 156 173
-0.13499127 -0.37368453 -0.70432162 163 142 159
-0.13445447 -0.37470606 -0.70402259 174 155 176
-0.13410552 -0.37543824 -0.70383048 182 164 186
-0.13461991 -0.37328637 -0.70393586 161 139 155
-0.14796911 -0.36011538 -0.71657532 102 73 94
-0.14742057 -0.36013302 -0.71598226 112 84 108
-0.14733885 -0.36036992 -0.71589559 113 87 109
-0.14763872 -0.35924453 -0.71621263 109 77 106
-0.14673936 -0.36004326 -0.71525192 125 97 126
-0.14814076 -0.35878724 -0.71674883 100 65 95
-0.14870203 -0.36396864 -0.71755528 108 83 100
-0.14879428 -0.36463404 -0.71767807 116 90 110
-0.14718537 -0.36468747 -0.71590298 128 112 125
-0.14929327 -0.36487457 -0.71823663 116 86 110
-0.14749834 -0.36481977 -0.71625274 127 110 124
-0.14958954 -0.36513677 -0.71857202 117 85 111
-0.14891855 -0.36434561 -0.71780622 111 85 104
-0.14685284 -0.36147264 -0.7153911 123 100 119
-0.14742073 -0.36170253 -0.71603608 113 90 108
-0.14685199 -0.36357206 -0.71548265 129 112 126
-0.14687885 -0.36188248 -0.71543825 123 102 120
-0.14738996 -0.36400163 -0.71610296 121 103 116
-0.1473244 -0.36770028 -0.71621042 135 116 131
-0.14698656 -0.36828655 -0.71590364 144 123 134
-0.1478423 -0.36748224 -0.71673256 123 106 127
-0.14767788 -0.36733979 -0.71655065 126 109 128
-0.14845864 -0.36850199 -0.71745145 115 96 122
-0.14734071 -0.3662152 -0.71611595 128 114 132
-0.14676154 -0.36606622 -0.71550143 139 124 136
-0.14923441 -0.36685389 -0.71821308 109 86 116
-0.14772642 -0.3658796 -0.71652967 127 110 129
-0.14830138 -0.3656193 -0.71715981 124 103 124
-0.14892641 -0.36580202 -0.71785337 119 94 118
-0.14844917 -0.36668363 -0.71734279 116 97 122
-0.14883621 -0.36981466 -0.71798962 110 88 118
-0.14804523 -0.36980239 -0.71716499 126 103 124
-0.14888744 -0.37063247 -0.71816027 108 85 116
-0.14736603 -0.36945552 -0.71640867 140 116 131
-0.14836113 -0.36966172 -0.71747345 120 97 122
-0.14827345 -0.37084094 -0.71755153 120 96 121
-0.14888752 -0.37066218 -0.71816462 107 85 116
-0.14785463 -0.37259841 -0.71725637 126 98 121
-0.14687611 -0.3712813 -0.71605259 148 120 131
-0.14651248 -0.37073505 -0.71560091 156 128 135
-0.14683755 -0.37012681 -0.71592027 150 124 134
-0.14702167 -0.37144259 -0.71622902 144 117 130
-0.14763023 -0.37161323 -0.71692765 132 105 125
-0.14632031 -0.37097749 -0.71540177 156 127 134
-0.14879677 -0.37434766 -0.71844488 116 97 119
-0.14936006 -0.37383443 -0.71904284 100 80 112
-0.14897932 -0.37470448 -0.71867591 114 98 119
-0.14842376 -0.37433979 -0.71802413 123 103 122
-0.14896822 -0.37458694 -0.71865505 114 97 119
-0.14917552 -0.37445343 -0.71887904 109 91 116
-0.14822131 -0.37646505 -0.71796966 141 135 140
-0.14684126 -0.37673047 -0.71648484 166 163 164
-0.14724095 -0.37667659 -0.71691704 159 155 158
-0.14665979 -0.37503225 -0.71612638 161 144 150
-0.14703999 -0.37494141 -0.71653372 154 136 143
-0.14654209 -0.37618124 -0.71610582 169 161 163
-0.1461063 -0.37592337 -0.71562791 167 158 162
-0.14591967 -0.3768177 -0.71551943 171 169 172
-0.14617026 -0.37368935 -0.71546578 156 128 138
-0.14773196 -0.37699372 -0.71748364 152 150 153
-0.1479135 -0.3790848 -0.71785676 150 141 154
-0.14820813 -0.37964872 -0.71822619 146 134 150
-0.14735286 -0.377139 -0.71708107 159 156 159
-0.14896825 -0.37967038 -0.71905959 132 120 138
-0.14847174 -0.3791635 -0.71847409 141 131 145
-0.14650439 -0.3803651 -0.71651727 138 124 149
-0.14697675 -0.37985823 -0.71695644 143 132 151
-0.14703716 -0.37850952 -0.71686924 157 151 161
-0.14672594 -0.37821665 -0.71651 160 155 163
-0.14627336 -0.37886655 -0.7161122 156 148 162
-0.14626145 -0.3807914 -0.71631485 136 121 149
-0.14546013 -0.37915298 -0.71530706 158 147 167
-0.1457323 -0.37853193 -0.7155177 162 154 168
-0.14791451 -0.38296705 -0.71833986 117 107 130
-0.14789248 -0.3809514 -0.71804172 132 117 142
-0.14776355 -0.3824093 -0.71810532 121 110 133
-0.14756033 -0.38135952 -0.71774882 129 115 140
-0.14728861 -0.38180643 -0.71752465 126 113 138
-0.14691916 -0.38196516 -0.71714342 124 111 137
-0.14719747 -0.38231632 -0.71749634 122 110 135
-0.1459657 -0.38223591 -0.71615064 128 106 134
-0.14543761 -0.38092643 -0.71548271 144 126 158
-0.14599606 -0.38139313 -0.71610254 134 116 145
-0.14804824 -0.38625127 -0.71889192 99 80 105
-0.14706858 -0.38484699 -0.7175346 103 82 109
-0.14808023 -0.38592824 -0.71888244 100 83 107
