ply
format ascii 1.0
comment PCL generated
element vertex 214
property float x
property float y
property float z
property uchar red
property uchar green
property uchar blue
element camera 1
property float view_px
property float view_py
property float view_pz
property float x_axisx
property float x_axisy
property float x_axisz
property float y_axisx
property float y_axisy
property float y_axisz
property float z_axisx
property float z_axisy
property float z_axisz
property float focal
property float scalex
property float scaley
property float centerx
property float centery
property int viewportx
property int viewporty
property float k1
property float k2
end_header
-0.060814306 -0.30270377 -0.68377221 223 214 220
-0.060210481 -0.30270779 -0.68377006 223 214 218
-0.057182521 -0.30259845 -0.68393552 225 230 214
-0.065824792 -0.3041462 -0.6834963 219 214 231
-0.065084971 -0.3045699 -0.68336105 218 216 232
-0.066681966 -0.30624932 -0.68279797 194 189 215
-0.066722989 -0.30509821 -0.68317723 205 199 221
-0.064753383 -0.30319089 -0.68381757 234 231 242
-0.065614335 -0.30411884 -0.68350661 220 216 232
-0.065996893 -0.30295005 -0.68389952 224 217 225
-0.065519243 -0.3027463 -0.68396747 230 224 231
-0.066681467 -0.30355173 -0.68369776 215 205 217
-0.062357817 -0.30582359 -0.68284887 205 204 225
-0.060735885 -0.30589285 -0.68275595 205 204 228
-0.062106352 -0.30569011 -0.68288004 206 205 225
-0.061184078 -0.30507883 -0.68303311 210 206 225
-0.061199848 -0.30470461 -0.6831522 212 207 224
-0.062787235 -0.30541736 -0.68299615 207 205 223
-0.064284071 -0.30390248 -0.68357515 227 226 238
-0.063838042 -0.303633 -0.68363851 228 225 236
-0.064387418 -0.30465987 -0.68333137 219 219 235
-0.061824318 -0.3031559 -0.68368083 224 217 225
-0.061222047 -0.30307475 -0.6836732 222 214 221
-0.062399436 -0.30372095 -0.68352735 220 215 226
-0.056799505 -0.30297136 -0.68383366 225 233 216
-0.057864722 -0.30470401 -0.68324393 218 220 221
-0.057657499 -0.30637175 -0.68273717 217 210 221
-0.057396688 -0.30513826 -0.68313247 220 218 220
-0.059613135 -0.3061513 -0.68270892 207 207 227
-0.058587167 -0.30564818 -0.68291557 213 213 224
-0.060415938 -0.30419639 -0.68328995 215 209 223
-0.059983328 -0.30471295 -0.68314517 212 211 224
-0.059211213 -0.30312192 -0.68368173 222 219 219
-0.058300126 -0.30327275 -0.6836732 222 224 218
-0.059452683 -0.30408865 -0.68336552 216 215 222
-0.058171447 -0.30337498 -0.68364638 221 224 219
-0.053646781 -0.30401611 -0.68365896 209 206 193
-0.053656891 -0.30309856 -0.68397284 205 200 182
-0.052995306 -0.30603984 -0.68300509 214 210 209
-0.053212766 -0.30419987 -0.68362254 207 201 190
-0.055269711 -0.30378151 -0.68363994 221 224 211
-0.056415852 -0.30287769 -0.68387955 225 233 214
-0.055221476 -0.30427489 -0.68347776 222 225 215
-0.054893345 -0.30580473 -0.68301284 220 216 216
-0.05638082 -0.30370748 -0.68362063 225 229 216
-0.056573875 -0.30596039 -0.68291688 223 215 218
-0.052912988 -0.30648813 -0.68285728 215 211 214
-0.055129863 -0.30578542 -0.68301213 220 216 216
-0.050036471 -0.30618846 -0.68308687 205 192 197
-0.052663479 -0.30486023 -0.68342853 206 199 191
-0.050190344 -0.30580804 -0.68321061 203 190 193
-0.050174028 -0.30631939 -0.68303597 206 193 199
-0.051117688 -0.30575442 -0.68318886 206 196 196
-0.049136005 -0.30576733 -0.68324149 202 184 188
-0.050616615 -0.30484968 -0.68350977 201 187 183
-0.052227698 -0.3034966 -0.68390644 199 188 173
-0.049123347 -0.30508101 -0.68344414 200 181 180
-0.049716014 -0.30368119 -0.68385649 198 176 166
-0.047681272 -0.30602777 -0.68325758 185 154 169
-0.048064213 -0.30510494 -0.68349922 189 159 165
-0.047835685 -0.30599695 -0.68325424 187 158 171
-0.046815317 -0.30654261 -0.68317538 172 133 158
-0.048150472 -0.30647409 -0.68308794 193 169 183
-0.06456849 -0.30728051 -0.68247527 193 192 215
-0.064873151 -0.30751422 -0.68239427 193 191 211
-0.066204399 -0.30704853 -0.68253541 192 188 212
-0.061140556 -0.30841127 -0.68203187 178 169 201
-0.060753517 -0.30886155 -0.68191415 171 157 193
-0.063172005 -0.30984029 -0.68163323 164 148 176
-0.060896568 -0.30819613 -0.68209147 181 172 204
-0.061409906 -0.30837491 -0.68203962 180 171 201
-0.062678233 -0.30871153 -0.6819427 178 169 195
-0.064246498 -0.30870652 -0.68201298 177 169 193
-0.061066706 -0.30688179 -0.68245679 199 199 226
-0.060986016 -0.30707717 -0.68239081 197 195 223
-0.062693156 -0.30683374 -0.68254334 198 199 224
-0.064200953 -0.30896193 -0.68192941 175 165 189
-0.057707179 -0.3081423 -0.68223035 202 187 204
-0.056796111 -0.30723804 -0.68251753 220 208 217
-0.058747582 -0.30893183 -0.68197805 182 163 189
-0.059318967 -0.30948502 -0.68180227 171 150 182
-0.057250038 -0.30838177 -0.68215919 212 199 211
-0.059984297 -0.3073895 -0.68233818 194 188 216
-0.058508657 -0.30721572 -0.68245763 204 195 215
-0.059767332 -0.30827123 -0.68211251 183 170 201
-0.059880439 -0.30917138 -0.68186569 169 151 186
-0.058305483 -0.30692774 -0.68254489 210 201 219
-0.058522623 -0.30821544 -0.68218899 190 174 198
-0.055131301 -0.30967763 -0.68181354 224 215 218
-0.053536914 -0.30804518 -0.68236524 219 212 215
-0.052782964 -0.3091332 -0.68207657 223 212 215
-0.052811753 -0.30683106 -0.68275547 215 211 214
-0.054076131 -0.30911931 -0.68202442 223 214 217
-0.054475047 -0.30856845 -0.6821698 221 214 217
-0.056623232 -0.30882418 -0.68202651 225 214 220
-0.056620527 -0.30955094 -0.6818009 225 216 220
-0.05529305 -0.30693319 -0.68265158 220 211 217
-0.054474104 -0.30829555 -0.68225175 220 213 217
-0.056526285 -0.30846131 -0.68214196 224 214 219
-0.050742336 -0.30857331 -0.68233144 216 200 207
-0.050112229 -0.30987331 -0.68209416 216 204 207
-0.04914416 -0.30833679 -0.68255478 209 195 202
-0.049460985 -0.31029069 -0.68206525 215 204 206
-0.051148217 -0.30939659 -0.68209642 219 205 210
-0.052211571 -0.30991784 -0.68186951 225 210 214
-0.051376298 -0.30799353 -0.68247414 216 204 209
-0.050662134 -0.30668259 -0.68289232 209 198 205
-0.049957868 -0.30752724 -0.68267328 210 195 203
-0.052554373 -0.30836651 -0.68231302 220 211 214
-0.051172085 -0.30735818 -0.68267071 213 202 208
-0.04821448 -0.3100931 -0.68223298 202 187 192
-0.047227383 -0.31021538 -0.68232238 183 170 174
-0.047524188 -0.30837187 -0.68268502 187 160 176
-0.048182245 -0.30674869 -0.68301094 194 171 185
-0.048419207 -0.30784589 -0.68273562 200 182 192
-0.046735458 -0.30738571 -0.68297887 173 135 159
-0.046684437 -0.30741811 -0.68297541 172 134 158
-0.057012424 -0.31186301 -0.68113256 214 207 215
-0.058398779 -0.31382912 -0.68056762 186 175 192
-0.058146406 -0.31427413 -0.6804598 186 178 197
-0.057273269 -0.3132841 -0.68075037 203 197 212
-0.058303237 -0.31306779 -0.68077081 191 179 193
-0.056908254 -0.31216177 -0.68105787 214 208 217
-0.059154715 -0.31133521 -0.68124437 177 158 182
-0.057106309 -0.31099954 -0.68135619 218 207 213
-0.058529023 -0.31181264 -0.68110991 191 175 190
-0.058914423 -0.31149745 -0.68119884 182 164 185
-0.060214743 -0.31123185 -0.68126714 155 132 168
-0.05461549 -0.31380492 -0.68075103 209 203 220
-0.05363382 -0.31227368 -0.68118489 218 207 218
-0.052846603 -0.31246209 -0.68118864 218 204 216
-0.054749139 -0.31329018 -0.68086761 212 206 220
-0.05364573 -0.31317598 -0.68096489 213 203 218
-0.056545861 -0.31282586 -0.68089712 213 210 223
-0.054036506 -0.31180853 -0.68127328 220 211 219
-0.054861948 -0.31111565 -0.68141919 224 214 219
-0.054537531 -0.31081018 -0.68151349 226 215 219
-0.054407243 -0.31216872 -0.68116266 218 210 220
-0.056560013 -0.31424242 -0.68052483 205 206 224
-0.050820608 -0.31278992 -0.68132263 209 197 209
-0.050096333 -0.31313241 -0.68133801 206 195 205
-0.051493391 -0.31334713 -0.68111402 209 196 212
-0.049163915 -0.31154987 -0.68180698 210 200 204
-0.049648479 -0.31175172 -0.68170106 210 200 206
-0.049304388 -0.31085694 -0.68194652 213 203 206
-0.052553561 -0.31413502 -0.68080825 208 195 215
-0.050698593 -0.31181756 -0.68156648 213 202 210
-0.05244476 -0.31079966 -0.68163007 226 211 216
-0.051634014 -0.31267577 -0.68125957 213 200 213
-0.047501996 -0.31180489 -0.68194556 183 174 176
-0.04763636 -0.31154138 -0.68198854 187 177 179
-0.04774541 -0.31269348 -0.68172026 184 175 178
-0.047966544 -0.31130254 -0.6820035 194 184 186
-0.048575189 -0.31092435 -0.68201733 206 197 199
-0.057856765 -0.3151966 -0.68021065 182 174 194
-0.057186201 -0.31454605 -0.68041867 197 195 215
-0.05445097 -0.3151857 -0.68040967 194 184 205
-0.054703031 -0.3161597 -0.68019032 174 153 186
-0.053988911 -0.31667182 -0.68015105 163 129 174
-0.055088874 -0.31578508 -0.68023127 182 170 195
-0.053852312 -0.31587169 -0.68032491 179 155 190
-0.05530059 -0.31512231 -0.68036491 195 190 209
-0.056156665 -0.31562567 -0.68017155 186 184 201
-0.052535333 -0.31730461 -0.68014723 149 100 160
-0.052489225 -0.31508863 -0.68059731 195 176 204
-0.049035423 -0.31449598 -0.68116713 197 188 195
-0.049515862 -0.31471521 -0.68104678 195 185 196
-0.048592921 -0.3145349 -0.68120116 195 185 191
-0.057805959 -0.31582043 -0.68004119 173 164 182
-0.055128805 -0.31812561 -0.67966777 143 114 150
-0.05542206 -0.31724212 -0.67986578 157 134 167
-0.055892512 -0.31688234 -0.67990053 164 150 176
-0.053168226 -0.31800166 -0.6799522 135 77 146
-0.053616818 -0.31758127 -0.67999828 144 96 155
-0.054273341 -0.32002443 -0.67925376 133 76 130
-0.054402221 -0.31891191 -0.6795485 135 89 139
-0.065727875 -0.29870909 -0.68537068 167 149 137
-0.065224662 -0.30225301 -0.68413264 227 221 223
-0.066633232 -0.30210099 -0.68418568 213 200 201
-0.066573687 -0.3011052 -0.68451929 202 187 178
-0.066088848 -0.30193534 -0.6842404 216 205 204
-0.06456168 -0.3002784 -0.68479317 212 201 186
-0.066556789 -0.30131584 -0.68444866 205 190 184
-0.067241505 -0.29920688 -0.68525124 147 127 131
-0.067584381 -0.29946959 -0.6851669 146 126 133
-0.067280479 -0.29919592 -0.68525696 146 126 130
-0.06820558 -0.29997981 -0.68500113 145 124 136
-0.066849366 -0.30033827 -0.68481129 181 163 159
-0.061419502 -0.30115685 -0.68432277 217 207 202
-0.06126792 -0.30127302 -0.68427491 217 207 203
-0.064257905 -0.30263588 -0.68399179 238 236 241
-0.062389128 -0.30102021 -0.68442529 220 213 206
-0.062648714 -0.30053887 -0.68460178 217 209 198
-0.063769363 -0.30168086 -0.68428373 229 224 222
-0.062793843 -0.29985258 -0.68484008 209 199 182
-0.064297087 -0.3003132 -0.68477237 213 203 189
-0.06352371 -0.30056632 -0.68464303 217 208 197
-0.064387143 -0.30038422 -0.68475378 214 204 190
-0.058225811 -0.30182952 -0.6841296 217 214 201
-0.058338512 -0.30105561 -0.68436074 210 201 187
-0.056881446 -0.30088204 -0.68446976 210 205 181
-0.058306079 -0.30088928 -0.6844126 209 199 183
-0.057661206 -0.30070698 -0.68449295 208 199 179
-0.060497284 -0.30091742 -0.68435293 211 200 193
-0.059911262 -0.30131763 -0.68422604 212 200 195
-0.059219863 -0.3005676 -0.68448675 207 193 181
-0.054293506 -0.30231309 -0.68418568 204 199 178
-0.055218138 -0.30089107 -0.68456244 199 188 162
-0.055448718 -0.30136231 -0.68440503 205 199 174
-0.056045938 -0.3021487 -0.6841296 216 218 197
-0.05304794 -0.30257377 -0.68418175 197 187 166
-0.052954409 -0.30286092 -0.6840958 199 189 170
-0.051086307 -0.30306318 -0.68403691 197 180 164
-0.049318951 -0.30273914 -0.68413889 196 170 154
0 0 0 1 0 0 0 1 0 0 0 1 0 0 0 0 0 214 1 0 0
