ply
format ascii 1.0
comment PCL generated
element vertex 470
property float x
property float y
property float z
property uchar red
property uchar green
property uchar blue
element camera 1
property float view_px
property float view_py
property float view_pz
property float x_axisx
property float x_axisy
property float x_axisz
property float y_axisx
property float y_axisy
property float y_axisz
property float z_axisx
property float z_axisy
property float z_axisz
property float focal
property float scalex
property float scaley
property float centerx
property float centery
property int viewportx
property int viewporty
property float k1
property float k2
end_header
-0.11133035 -0.38388437 -0.68950689 155 135 156
-0.11245347 -0.38434938 -0.69017547 153 135 155
-0.10996007 -0.38456729 -0.68896335 166 146 163
-0.10883609 -0.38411388 -0.68840235 161 140 156
-0.11051967 -0.38345566 -0.68909037 150 129 150
-0.1102208 -0.38462055 -0.68908763 166 147 164
-0.11037468 -0.38349244 -0.68902886 151 129 150
-0.11001682 -0.38434899 -0.68896425 163 143 160
-0.10879614 -0.38302645 -0.68825752 150 128 145
-0.11244864 -0.38497365 -0.69024211 159 142 160
-0.11143872 -0.38661623 -0.68986183 169 145 161
-0.11156011 -0.38738981 -0.69001001 169 142 159
-0.11318135 -0.38539675 -0.69068843 154 136 155
-0.10759014 -0.38612396 -0.68796039 173 165 161
-0.10867015 -0.38580614 -0.68843853 171 161 162
-0.10770538 -0.38767111 -0.6880697 174 180 159
-0.10839365 -0.38741615 -0.68837255 173 177 160
-0.11041846 -0.38532233 -0.68921387 168 155 165
-0.10805691 -0.3871074 -0.68820834 173 174 160
-0.11108392 -0.38757268 -0.68977457 171 146 159
-0.10957213 -0.38822109 -0.68905342 173 164 158
-0.10948396 -0.38668102 -0.68884492 171 168 162
-0.10826568 -0.38799688 -0.68834746 174 180 159
-0.11067878 -0.38558361 -0.68935317 168 155 165
-0.10951027 -0.3882978 -0.68902922 173 165 158
-0.11224441 -0.38880578 -0.69052351 164 133 157
-0.11330605 -0.39145893 -0.69131249 169 148 157
-0.11237765 -0.39192766 -0.69078177 167 148 157
-0.11232086 -0.39159241 -0.69073373 168 147 157
-0.1123553 -0.39042768 -0.69070476 170 146 157
-0.11172416 -0.39246407 -0.6904152 164 148 156
-0.10796867 -0.39165962 -0.68847483 166 150 150
-0.10964551 -0.39093113 -0.68923652 169 165 157
-0.10847864 -0.39073932 -0.68865263 169 164 154
-0.10783771 -0.38983521 -0.68827045 172 175 155
-0.10990834 -0.39207998 -0.68945324 165 150 154
-0.10846316 -0.38895059 -0.6885336 174 177 157
-0.1104987 -0.3906599 -0.68966937 169 155 157
-0.10965572 -0.39038515 -0.68921745 170 165 157
-0.109383 -0.38897523 -0.68901509 173 166 157
-0.1098012 -0.38998666 -0.68927646 171 162 157
-0.11041313 -0.39024985 -0.6896072 170 155 157
-0.10721757 -0.38986427 -0.68798137 172 175 156
-0.11191107 -0.39323425 -0.69056404 165 148 161
-0.10787263 -0.39346942 -0.68854105 168 143 155
-0.11126591 -0.3928203 -0.69017005 165 149 159
-0.10780684 -0.39273816 -0.68847746 164 138 148
-0.10907846 -0.39301753 -0.68911642 166 143 155
-0.10960289 -0.39301547 -0.68937212 166 145 156
-0.10952049 -0.39366323 -0.68937546 169 149 162
-0.10991449 -0.39303029 -0.68952501 166 146 157
-0.10699195 -0.39443201 -0.68816096 172 148 161
-0.10674787 -0.39469588 -0.68807256 173 149 163
-0.1066937 -0.39276016 -0.687971 165 143 153
-0.10621282 -0.40220794 -0.68835777 153 131 144
-0.10603284 -0.40132064 -0.68820256 154 132 154
-0.10567563 -0.40239131 -0.68813932 145 123 136
-0.096994646 -0.37694684 -0.68248314 149 127 137
-0.096350946 -0.37656775 -0.6821999 147 128 137
-0.094069302 -0.37544325 -0.68133807 141 125 135
-0.093201198 -0.37646845 -0.68119377 143 124 142
-0.093021043 -0.37596151 -0.68107963 140 122 138
-0.09180852 -0.37633994 -0.68075478 138 117 140
-0.09113355 -0.37685722 -0.68064034 141 122 140
-0.098386966 -0.38033926 -0.68339276 152 133 142
-0.096177004 -0.38014162 -0.68255097 158 144 155
-0.096022047 -0.37830544 -0.68228436 154 140 149
-0.09666054 -0.37913105 -0.68261516 154 138 148
-0.095791683 -0.37897748 -0.68227553 156 143 153
-0.099328563 -0.38030007 -0.68373591 149 127 136
-0.098025754 -0.37853572 -0.68304944 149 128 137
-0.096313372 -0.37721846 -0.68226671 151 134 143
-0.092792816 -0.37966695 -0.68143749 154 138 156
-0.092568152 -0.37779006 -0.68115324 145 126 148
-0.093605407 -0.3799867 -0.68172067 156 141 157
-0.094050221 -0.38036126 -0.68189865 158 144 158
-0.092192017 -0.37933925 -0.68121767 152 136 154
-0.091803618 -0.38022572 -0.68120205 156 141 158
-0.093514197 -0.37820071 -0.68148792 148 131 150
-0.095529422 -0.37952068 -0.68225169 157 144 155
-0.095478587 -0.37845898 -0.68211526 155 141 151
-0.095552854 -0.3776724 -0.68204826 154 139 148
-0.095520727 -0.37878746 -0.6821655 156 142 152
-0.093606032 -0.37875417 -0.68157887 150 133 152
-0.090811767 -0.37754643 -0.68063283 148 129 147
-0.091560736 -0.3791405 -0.68101221 153 136 154
-0.090936124 -0.38082758 -0.68104035 164 151 163
-0.091170371 -0.3785055 -0.68083519 152 134 153
-0.091145292 -0.37836754 -0.6808126 151 133 152
-0.090411484 -0.37992412 -0.68079674 163 149 161
-0.09728761 -0.38413629 -0.68342376 168 150 162
-0.096795291 -0.38450107 -0.68328935 170 153 166
-0.096910544 -0.38447601 -0.68332678 170 153 165
-0.096790805 -0.38432568 -0.68327069 170 153 165
-0.096064314 -0.38141978 -0.68265998 161 148 160
-0.096000858 -0.38142705 -0.68263733 162 148 160
-0.097197361 -0.38122621 -0.68305618 158 141 152
-0.097186811 -0.38125405 -0.6830557 158 142 153
-0.097015105 -0.38314462 -0.6832248 165 147 159
-0.096659467 -0.38183826 -0.68293214 161 146 158
-0.093129531 -0.38402721 -0.68201905 163 144 161
-0.09301687 -0.38224068 -0.68180865 164 149 164
-0.094475836 -0.38362029 -0.68242282 170 154 169
-0.091868192 -0.38440537 -0.68164045 157 134 154
-0.092423022 -0.3842729 -0.68181026 160 138 157
-0.094980977 -0.38358322 -0.6825735 170 155 169
-0.09243869 -0.38094467 -0.68147802 160 146 161
-0.095382981 -0.38319376 -0.68264741 169 154 168
-0.092551045 -0.38132462 -0.68155891 161 147 162
-0.093207791 -0.38094577 -0.68171126 160 147 161
-0.089206263 -0.3836886 -0.68086725 170 151 172
-0.089612752 -0.38370624 -0.68097484 168 149 168
-0.09034957 -0.38345307 -0.68114042 166 147 160
-0.090354361 -0.38395178 -0.68119299 164 144 162
-0.089234464 -0.38404089 -0.68091083 169 149 173
-0.090118878 -0.38293597 -0.68102807 168 150 161
-0.091676056 -0.38265705 -0.6814152 159 140 157
-0.090873517 -0.38282394 -0.68121797 163 145 159
-0.090602867 -0.38243052 -0.68110782 165 149 161
-0.098400623 -0.38533589 -0.68391514 165 147 159
-0.097788043 -0.38502759 -0.68367904 168 150 162
-0.095799625 -0.38493457 -0.68298477 174 158 172
-0.097303621 -0.38554907 -0.6835531 168 151 166
-0.097671397 -0.38701931 -0.68379688 163 145 167
-0.096289605 -0.3874284 -0.68332678 166 148 176
-0.095930591 -0.38747472 -0.68319529 167 149 179
-0.097307034 -0.38802296 -0.68374574 162 144 171
-0.092346691 -0.3855719 -0.68188441 158 136 158
-0.091905653 -0.38864544 -0.68193793 166 162 177
-0.093975902 -0.38839048 -0.68260098 165 151 179
-0.092778601 -0.38759387 -0.68215662 163 150 172
-0.09220168 -0.38838485 -0.68201828 166 159 175
-0.091938339 -0.3868874 -0.68183523 162 148 166
-0.092794634 -0.38555545 -0.68203056 159 137 160
-0.093932882 -0.38588193 -0.68242604 163 143 167
-0.09420833 -0.38636252 -0.68254727 164 143 169
-0.095552795 -0.38680613 -0.68301803 169 151 177
-0.094569862 -0.38571799 -0.68262535 167 148 169
-0.094566412 -0.38508883 -0.68258429 168 150 168
-0.09054403 -0.38855025 -0.68159223 163 150 175
-0.089627616 -0.38816094 -0.68133903 162 144 175
-0.09090665 -0.38789269 -0.68162429 167 159 179
-0.088135906 -0.38727689 -0.68090576 161 135 176
-0.089227289 -0.38861266 -0.68128055 158 136 172
-0.09123829 -0.38789022 -0.68170828 167 159 177
-0.090455994 -0.38528121 -0.6813364 163 143 168
-0.090315819 -0.38651139 -0.68137938 167 153 177
-0.090961069 -0.38706937 -0.68158317 166 154 174
-0.090529762 -0.38558677 -0.68137532 164 145 169
-0.091316901 -0.38693371 -0.68166697 164 152 170
-0.09649121 -0.38927779 -0.68353117 160 141 174
-0.097789586 -0.38872033 -0.6839717 158 140 169
-0.096982397 -0.39024088 -0.68379444 155 136 165
-0.097530007 -0.38977015 -0.68396086 155 136 165
-0.095793545 -0.39257237 -0.68351728 140 117 143
-0.09589415 -0.38957363 -0.68332976 160 140 175
-0.092115648 -0.39170706 -0.68222332 150 135 159
-0.091935903 -0.3898088 -0.68203014 160 152 170
-0.091933817 -0.39241737 -0.68221241 146 129 156
-0.094248787 -0.39171925 -0.68293625 146 128 152
-0.0922492 -0.3900061 -0.68214858 159 149 168
-0.091870978 -0.39041674 -0.68205106 157 147 167
-0.093667328 -0.38894868 -0.68253887 164 152 177
-0.095537499 -0.39011255 -0.68324083 155 136 168
-0.092900388 -0.38909432 -0.68229818 163 155 174
-0.095632002 -0.38926059 -0.68320733 161 141 177
-0.092377253 -0.38908622 -0.68212587 164 157 173
-0.095078431 -0.39102131 -0.68315905 150 131 158
-0.090472668 -0.39132243 -0.68177205 148 126 160
-0.088753037 -0.39246488 -0.68147129 154 137 159
-0.089723729 -0.39189181 -0.68164694 151 131 159
-0.088725194 -0.38985345 -0.68125165 152 125 165
-0.088773593 -0.39173409 -0.68141633 153 133 161
-0.090404376 -0.39150131 -0.68177098 149 127 159
-0.090418786 -0.38884932 -0.68158478 161 146 173
-0.090983547 -0.39136586 -0.68189722 149 131 160
-0.091015965 -0.38949257 -0.6817736 159 147 170
-0.091206618 -0.38888085 -0.68177658 163 154 174
-0.09179423 -0.39033747 -0.68202019 158 148 168
-0.086964458 -0.38956225 -0.68078971 157 128 169
-0.085002638 -0.39137235 -0.68041623 165 143 170
-0.086404003 -0.39128631 -0.68077981 160 137 166
-0.085745104 -0.39214507 -0.68067366 163 142 165
-0.087350816 -0.39033478 -0.68095529 156 130 166
-0.085340731 -0.39193264 -0.68054813 164 142 167
-0.084676132 -0.3925727 -0.68042272 166 147 167
-0.085663743 -0.39198443 -0.68063879 163 142 166
-0.096571356 -0.39345255 -0.68388009 143 121 145
-0.09628275 -0.39317915 -0.6837489 142 119 144
-0.096104048 -0.39502236 -0.68379509 139 115 137
-0.092778713 -0.39506724 -0.68265969 142 124 144
-0.092088647 -0.39297619 -0.68229979 145 127 153
-0.092881471 -0.39437589 -0.68265069 142 124 146
-0.092839643 -0.39378729 -0.68260002 143 124 148
-0.091975883 -0.39445803 -0.68235487 143 127 148
-0.094654858 -0.39544815 -0.68330699 140 118 138
-0.094918512 -0.39506957 -0.6833719 139 117 138
-0.09466818 -0.39523104 -0.68329817 140 118 138
-0.093444481 -0.39288884 -0.68274695 143 123 149
-0.093438424 -0.39268452 -0.68273246 143 123 150
-0.095323823 -0.39520404 -0.68351543 139 116 136
-0.092811301 -0.3935025 -0.68257296 143 125 150
-0.088359334 -0.39506561 -0.68146247 141 119 144
-0.089017034 -0.39531976 -0.68164569 141 121 143
-0.089555532 -0.39636362 -0.68181348 135 115 137
-0.088178635 -0.39596781 -0.68143284 134 110 137
-0.088230297 -0.3942312 -0.6814099 146 126 149
-0.090235956 -0.39301923 -0.68184787 149 133 155
-0.089256182 -0.39307961 -0.68162715 152 136 156
-0.090220042 -0.39475483 -0.68195266 147 132 149
-0.091651097 -0.39263248 -0.68214798 146 129 155
-0.091011286 -0.39470452 -0.68213081 145 130 148
-0.08772523 -0.39631927 -0.68131822 131 105 135
-0.086755596 -0.39641783 -0.68110937 131 108 138
-0.084807396 -0.39646676 -0.6806798 133 114 145
-0.085662797 -0.39498982 -0.68077153 145 123 150
-0.086268924 -0.39584652 -0.68096322 137 114 143
-0.084925041 -0.39501303 -0.68060917 146 125 152
-0.087100774 -0.39373428 -0.6810962 151 131 154
-0.087731406 -0.39312047 -0.68125182 153 135 156
-0.085176937 -0.39307505 -0.68056762 161 141 162
-0.087589741 -0.3937583 -0.68122751 149 129 152
-0.086539015 -0.39452684 -0.6809628 147 125 150
-0.086674333 -0.39307415 -0.68096817 157 138 159
-0.083719604 -0.39432099 -0.68029612 155 136 160
-0.083409145 -0.39591885 -0.68033439 144 125 153
-0.083784826 -0.39634067 -0.68044478 137 119 150
-0.083292559 -0.39337325 -0.68014055 166 147 167
-0.088429809 -0.39760384 -0.68156356 123 98 122
-0.08950264 -0.39804354 -0.68187636 122 99 118
-0.089087553 -0.39668292 -0.68169904 131 109 133
-0.084631443 -0.39924356 -0.68077785 129 108 143
-0.08572606 -0.39990339 -0.68104804 120 98 127
-0.085992806 -0.39876914 -0.68104827 118 97 121
-0.084994823 -0.39942822 -0.68086582 126 105 138
-0.085429549 -0.40000048 -0.68098885 123 100 132
-0.086060904 -0.3996802 -0.68110919 117 95 122
-0.085964337 -0.39650902 -0.68093914 131 110 141
-0.085587285 -0.39729035 -0.68089032 126 106 134
-0.085326619 -0.39651519 -0.6807977 132 112 143
-0.086411901 -0.39803156 -0.68110669 120 99 124
-0.087261401 -0.39773914 -0.68128234 121 98 123
-0.085404634 -0.39739013 -0.6808542 126 106 134
-0.083134405 -0.40015388 -0.68049008 143 124 159
-0.083645321 -0.39884281 -0.6805402 137 118 154
-0.08326149 -0.39867958 -0.6804443 141 124 155
-0.083264172 -0.39873248 -0.68044758 141 124 155
-0.082924917 -0.39764774 -0.68031752 144 128 155
-0.082955256 -0.39755762 -0.68032014 143 127 154
-0.082548469 -0.39668554 -0.68019229 146 128 153
-0.084052436 -0.40328687 -0.68075353 112 89 124
-0.085836425 -0.40253448 -0.68119878 117 95 127
-0.084644519 -0.40121663 -0.6808762 128 106 145
-0.084932081 -0.4022415 -0.68096375 120 97 133
-0.084948167 -0.40113387 -0.68094385 126 104 142
-0.083769247 -0.40149924 -0.68066543 127 106 146
-0.083627753 -0.40235624 -0.68064708 121 100 138
-0.08310961 -0.40293074 -0.68054432 120 101 138
-0.083244003 -0.40375841 -0.68058449 113 93 127
-0.082281858 -0.40050957 -0.68031049 150 133 162
-0.080920897 -0.40411294 -0.68009222 123 115 148
-0.08142703 -0.40233096 -0.68016207 138 126 156
-0.081202745 -0.40321997 -0.68013364 130 120 152
-0.082090504 -0.40490249 -0.68037844 111 94 125
-0.081243671 -0.40598923 -0.68025661 110 91 117
-0.080912031 -0.40540034 -0.68015379 115 101 130
-0.082310162 -0.39481187 -0.68002498 160 142 164
-0.081514552 -0.39461169 -0.67985052 163 149 171
-0.081925996 -0.39372018 -0.67987978 167 154 174
-0.082452148 -0.39340484 -0.67996782 168 153 173
-0.080975115 -0.39549237 -0.67978966 162 147 167
-0.08083152 -0.39526537 -0.67974627 164 149 169
-0.078391783 -0.39575529 -0.67922926 176 154 182
-0.076867618 -0.39615521 -0.6788677 175 145 190
-0.079010472 -0.39590001 -0.6793831 174 153 176
-0.077890359 -0.39606744 -0.67911446 174 148 183
-0.079009138 -0.39530519 -0.67936546 178 161 182
-0.079340376 -0.39558169 -0.67945039 175 158 177
-0.081290387 -0.39892963 -0.68001813 159 144 163
-0.081449643 -0.39862451 -0.68003881 158 141 161
-0.081163831 -0.39921728 -0.68000364 160 145 164
-0.080555148 -0.39894873 -0.67985588 166 151 166
-0.080229498 -0.39961457 -0.67980176 170 159 168
-0.077351607 -0.39767748 -0.67903525 173 146 185
-0.076764286 -0.39877614 -0.67899656 175 153 185
-0.076520838 -0.39897475 -0.67896152 175 154 185
-0.078446075 -0.39981851 -0.67941719 174 160 177
-0.078438543 -0.39904475 -0.67935848 173 155 179
-0.078236878 -0.39659199 -0.67921203 170 144 176
-0.078212395 -0.39796674 -0.67925429 172 150 179
-0.079654589 -0.39713401 -0.6795758 169 149 166
-0.079189703 -0.39783165 -0.67948723 171 151 171
-0.078655556 -0.39683467 -0.67932236 170 146 173
-0.079805493 -0.39744374 -0.67962343 169 151 166
-0.080697492 -0.40275455 -0.6800034 140 132 156
-0.080621257 -0.40117991 -0.6799432 158 149 165
-0.080603756 -0.40411162 -0.68002379 125 118 151
-0.077236086 -0.40220037 -0.67925769 161 151 174
-0.076676771 -0.40132558 -0.67912066 169 157 179
-0.077989809 -0.40396205 -0.67945021 149 142 167
-0.076964244 -0.40262559 -0.67920262 163 153 175
-0.076597646 -0.40160576 -0.67910671 169 158 179
-0.077213436 -0.40084535 -0.67922282 170 158 178
-0.079120114 -0.40255052 -0.67966861 147 139 165
-0.079334967 -0.40306622 -0.67972958 140 133 163
-0.0796398 -0.40357074 -0.67980844 134 128 160
-0.0787386 -0.4023357 -0.67958355 150 141 167
-0.075768486 -0.40403378 -0.67896479 172 163 179
-0.075808875 -0.40172175 -0.67893815 176 163 184
-0.075808547 -0.4017821 -0.67893887 176 163 184
-0.08041022 -0.40453896 -0.68000281 122 115 148
-0.079898939 -0.4066003 -0.67999947 115 97 123
-0.080030337 -0.40443465 -0.67991769 124 119 154
-0.077451795 -0.40466514 -0.67934757 152 144 167
-0.079593845 -0.40434712 -0.67981547 130 124 158
-0.076540552 -0.40464121 -0.67914283 163 154 172
-0.076782972 -0.40474394 -0.67920071 160 151 170
-0.10655531 -0.38067144 -0.68689805 146 133 138
-0.10595194 -0.3808006 -0.68662447 147 134 141
-0.10553014 -0.37999701 -0.68632537 145 129 135
-0.10474097 -0.38065097 -0.68602604 149 133 144
-0.10651994 -0.38083714 -0.68690109 146 134 139
-0.10524449 -0.37962204 -0.68614328 144 127 133
-0.10052627 -0.38070223 -0.68425053 149 128 138
-0.10248125 -0.37999406 -0.6849463 148 127 138
-0.10007963 -0.38075751 -0.68407869 149 127 137
-0.10192425 -0.38018885 -0.68474716 148 127 138
-0.1082214 -0.38206175 -0.68787646 147 130 141
-0.10750639 -0.38196829 -0.68751776 152 139 144
-0.10742959 -0.38457268 -0.68781114 171 152 161
-0.10398679 -0.38241303 -0.68588585 157 139 154
-0.10519991 -0.38284668 -0.68652308 162 143 156
-0.10357486 -0.38155785 -0.68558025 154 136 151
-0.10391388 -0.38426945 -0.68608457 159 143 159
-0.10465572 -0.38243464 -0.68620986 159 141 154
-0.10574409 -0.38440257 -0.68698037 166 148 160
-0.10531843 -0.38236549 -0.68651915 160 141 154
-0.10555962 -0.3812207 -0.6864894 151 136 145
-0.10494448 -0.38175228 -0.68626201 156 139 151
-0.10564014 -0.38121969 -0.68652785 151 136 145
-0.10384566 -0.38090456 -0.68562782 152 135 149
-0.10536185 -0.38139582 -0.6864168 153 137 147
-0.10007462 -0.38099089 -0.68410176 150 129 138
-0.10026158 -0.38166869 -0.68424231 152 132 142
-0.10178114 -0.38216686 -0.68489772 155 137 149
-0.099764235 -0.38448703 -0.68431699 162 144 152
-0.10001804 -0.38291287 -0.68426573 156 137 146
-0.10315593 -0.38279617 -0.68555367 156 139 154
-0.10143641 -0.38324195 -0.6848731 158 141 152
-0.10305154 -0.38226682 -0.68544227 155 138 152
-0.10206485 -0.38440675 -0.68528903 159 143 156
-0.10218449 -0.38219205 -0.6850614 156 138 151
-0.10004475 -0.38434076 -0.6844151 161 143 152
-0.099284023 -0.38337925 -0.68403721 159 139 148
-0.10602783 -0.38651684 -0.68727601 171 158 165
-0.10717675 -0.38856176 -0.68786788 175 188 158
-0.10671445 -0.38824859 -0.68764931 174 181 160
-0.10602497 -0.38814771 -0.68733728 173 174 163
-0.10671696 -0.38549766 -0.68754494 172 154 164
-0.1055098 -0.38686344 -0.68705779 171 157 167
-0.1053725 -0.38572457 -0.68691635 168 151 164
-0.10680246 -0.3850995 -0.68755835 171 152 163
-0.10489002 -0.38528571 -0.6866532 165 149 162
-0.10446676 -0.38657016 -0.68654203 167 152 166
-0.10578993 -0.3854146 -0.68709463 168 151 163
-0.10416564 -0.38712567 -0.68643713 167 153 167
-0.10000684 -0.3881945 -0.68475646 155 137 158
-0.10037693 -0.38793093 -0.68488395 158 140 159
-0.10057086 -0.38730785 -0.68490672 160 143 159
-0.10087474 -0.3865912 -0.68496591 163 147 159
-0.10135458 -0.38866064 -0.68535042 160 144 163
-0.099799208 -0.38773236 -0.68462944 156 137 156
-0.10123055 -0.38495901 -0.68499058 161 145 156
-0.10279373 -0.38682172 -0.68579394 165 151 165
-0.10044921 -0.38480863 -0.68464506 162 144 154
-0.10130873 -0.38503152 -0.68502927 161 145 156
-0.10256872 -0.38683251 -0.68569833 165 151 164
-0.10350648 -0.38715342 -0.68612307 165 152 167
-0.099314556 -0.38854104 -0.68451685 154 134 159
-0.099258967 -0.38772237 -0.68442202 156 137 158
-0.098434359 -0.38818955 -0.68416125 158 139 165
-0.098721966 -0.38504538 -0.6840027 165 147 157
-0.10577367 -0.38888705 -0.68726212 172 175 163
-0.1055102 -0.39098084 -0.68731034 167 151 160
-0.1054895 -0.38974452 -0.68720311 170 164 162
-0.10522847 -0.38869414 -0.68700314 172 172 165
-0.10488952 -0.3902446 -0.68697459 167 153 164
-0.10366408 -0.39198986 -0.68653905 164 157 179
-0.10424366 -0.3915875 -0.68677592 165 154 172
-0.1039549 -0.39186311 -0.68666321 164 155 176
-0.10430729 -0.39120364 -0.68677783 165 154 171
-0.10219595 -0.39249542 -0.68600106 162 152 176
-0.09994828 -0.39031985 -0.68492889 156 138 161
-0.09969724 -0.39071503 -0.68487203 157 138 161
-0.10026444 -0.39157489 -0.68517327 159 142 165
-0.099661119 -0.39044631 -0.6848318 157 137 160
-0.10094078 -0.39089301 -0.68536419 158 143 167
-0.10231217 -0.39035118 -0.68586242 161 150 171
-0.10206965 -0.3903195 -0.68576086 160 148 170
-0.10312764 -0.38962737 -0.68614483 165 155 172
-0.10182841 -0.38940269 -0.68559718 160 147 167
-0.10095756 -0.38876936 -0.68519586 158 141 162
-0.1024735 -0.38884482 -0.68582165 164 151 168
-0.098968811 -0.39011803 -0.68452722 152 132 156
-0.099428624 -0.39216936 -0.68491066 160 139 163
-0.099602669 -0.39147067 -0.68491036 159 139 162
-0.0981405 -0.39146399 -0.6843335 151 130 154
-0.097619109 -0.39123234 -0.68411213 149 129 154
-0.09871199 -0.38892597 -0.68432772 155 135 161
-0.10476432 -0.39260361 -0.68708557 163 152 170
-0.10623141 -0.39405593 -0.68781954 170 151 164
-0.10364416 -0.39384145 -0.68666863 166 157 178
-0.10362557 -0.39463708 -0.68672705 168 157 176
-0.10298476 -0.39618108 -0.68660533 170 153 168
-0.1027631 -0.39617065 -0.68651718 168 150 166
-0.10056879 -0.39453718 -0.68553746 159 137 160
-0.10145953 -0.3946642 -0.68589771 166 147 166
-0.10271806 -0.39584118 -0.68647635 169 152 168
-0.10335278 -0.39286089 -0.68647414 163 157 180
-0.10345971 -0.39444268 -0.68664575 167 157 176
-0.10210288 -0.39295194 -0.68600464 163 152 174
-0.10145472 -0.39417395 -0.68585831 166 149 168
-0.10213428 -0.3942264 -0.686122 166 151 170
-0.10257469 -0.39543152 -0.68638974 170 153 169
-0.097772025 -0.39526439 -0.68447125 146 122 144
-0.097085811 -0.39564145 -0.68422168 143 119 140
-0.099017143 -0.39445201 -0.68491501 151 127 152
-0.098601751 -0.39510092 -0.68479341 148 122 148
-0.09933272 -0.3955569 -0.68511915 146 117 147
-0.097752109 -0.39306793 -0.68432122 150 129 153
-0.097607598 -0.39311019 -0.68426692 149 128 152
-0.097416878 -0.39415184 -0.68425769 147 125 147
-0.097160228 -0.39489627 -0.68420362 145 122 143
-0.10490173 -0.39979672 -0.6875962 152 131 159
-0.10372216 -0.39967552 -0.68707132 143 122 151
-0.10367719 -0.39942545 -0.68704021 145 125 152
-0.10200654 -0.39890099 -0.68635046 137 111 144
-0.10119903 -0.39872909 -0.68603659 141 114 146
-0.10192829 -0.39950186 -0.68636006 140 116 147
-0.099609613 -0.39892352 -0.68545324 151 125 154
-0.10005161 -0.40033308 -0.68571019 154 132 158
-0.099975243 -0.39902517 -0.68559688 149 123 153
-0.1033685 -0.3986043 -0.68687385 151 131 155
-0.10199286 -0.39656672 -0.68623894 160 137 158
-0.10301419 -0.39845672 -0.6867274 149 128 153
-0.10074872 -0.39702034 -0.68576878 145 116 147
-0.10243769 -0.39919433 -0.68653345 138 113 145
-0.10232949 -0.39846954 -0.68645799 144 120 149
-0.096914232 -0.39673257 -0.68422872 140 114 135
-0.098013058 -0.39681056 -0.68467581 141 113 138
-0.09707655 -0.39663386 -0.68428719 140 113 135
-0.099540614 -0.39984992 -0.68548578 154 131 157
-0.098202221 -0.40019685 -0.68497574 153 134 147
-0.098898068 -0.39763463 -0.68508667 145 116 141
-0.099306099 -0.39701179 -0.68520862 143 112 142
-0.097865641 -0.39930558 -0.68478411 149 128 140
-0.10488813 -0.40260255 -0.68781137 135 112 126
-0.10401956 -0.40164101 -0.68734449 133 110 132
-0.10487086 -0.40308174 -0.68784589 133 109 120
-0.10371715 -0.4012073 -0.68717504 132 110 135
-0.10363156 -0.40231934 -0.68724996 126 101 117
-0.099994972 -0.40192059 -0.68576151 140 106 138
-0.10053668 -0.40134501 -0.68598801 146 122 142
-0.10278811 -0.40128243 -0.6868279 134 110 134
-0.10245171 -0.40267223 -0.68683881 129 103 114
-0.10186857 -0.40103725 -0.68645895 140 117 141
-0.10140158 -0.40136647 -0.68631631 141 118 138
-0.10264873 -0.40268353 -0.68691373 128 102 113
-0.098923028 -0.40168145 -0.68530977 141 108 137
-0.098530002 -0.40128508 -0.68514276 145 116 139
0 0 0 1 0 0 0 1 0 0 0 1 0 0 0 0 0 470 1 0 0
