ply
format ascii 1.0
comment PCL generated
element vertex 531
property float x
property float y
property float z
property uchar red
property uchar green
property uchar blue
element camera 1
property float view_px
property float view_py
property float view_pz
property float x_axisx
property float x_axisy
property float x_axisz
property float y_axisx
property float y_axisy
property float y_axisz
property float z_axisx
property float z_axisy
property float z_axisz
property float focal
property float scalex
property float scaley
property float centerx
property float centery
property int viewportx
property int viewporty
property float k1
property float k2
end_header
-0.18574788 -0.12136447 -0.77220303 125 113 144
-0.1857041 -0.1216366 -0.77371007 102 88 122
-0.18578826 -0.12155667 -0.77327549 110 96 130
-0.18327227 -0.12175637 -0.77333987 76 65 99
-0.18404715 -0.12167938 -0.77290684 89 77 112
-0.18177198 -0.12166608 -0.77095455 82 73 108
-0.181843 -0.12169714 -0.77142829 78 69 104
-0.18349312 -0.1216609 -0.77222604 89 78 113
-0.18334334 -0.12136151 -0.77016097 115 106 138
-0.18421228 -0.12146261 -0.77151257 110 98 132
-0.18215826 -0.1215688 -0.77023554 94 85 120
-0.18461151 -0.12128169 -0.77087015 126 115 146
-0.18209225 -0.12157851 -0.77022946 93 84 120
-0.17797278 -0.12294305 -0.77275372 103 83 101
-0.18028496 -0.12214342 -0.77276075 59 47 76
-0.18056111 -0.12224006 -0.77373785 71 60 88
-0.17860019 -0.1226975 -0.77263671 89 71 92
-0.17933489 -0.12254605 -0.7731511 84 68 92
-0.17988358 -0.12236122 -0.7731691 74 60 87
-0.18010394 -0.12197564 -0.77043301 73 59 90
-0.18121444 -0.12193093 -0.77314621 56 46 78
-0.18027647 -0.12190848 -0.77004355 78 64 97
-0.18112785 -0.12188493 -0.77226818 63 53 86
-0.17852362 -0.12234578 -0.77070034 57 37 65
-0.17746113 -0.1227925 -0.7711556 87 66 86
-0.17717642 -0.12278099 -0.77068996 86 65 86
-0.1765929 -0.12285522 -0.77021807 93 73 93
-0.17548941 -0.12331033 -0.77025598 124 105 121
-0.19401836 -0.12268852 -0.7865172 69 55 84
-0.1944308 -0.12280466 -0.78768301 63 52 78
-0.19412726 -0.12255649 -0.7889961 57 49 70
-0.19421516 -0.12272473 -0.78711146 69 56 83
-0.1894664 -0.12244515 -0.78758681 72 54 88
-0.1896604 -0.12242401 -0.78767926 71 53 86
-0.19088 -0.12263579 -0.78913856 74 58 83
-0.18983191 -0.1225382 -0.78811902 73 55 86
-0.19092967 -0.1220596 -0.78757286 63 49 78
-0.19095549 -0.12243506 -0.78863466 70 55 81
-0.19284108 -0.12209106 -0.78861016 61 51 71
-0.19073667 -0.12186431 -0.7866078 59 45 77
-0.19173993 -0.12214174 -0.78586209 62 45 80
-0.19184147 -0.1221104 -0.78638327 61 46 78
-0.19288173 -0.12211507 -0.78845173 61 51 72
-0.19190599 -0.12203623 -0.78725916 60 48 75
-0.18873876 -0.12273218 -0.78757882 78 59 90
-0.18830781 -0.12275974 -0.78717864 79 59 90
-0.18768056 -0.12258196 -0.78599477 75 56 88
-0.18797114 -0.12239189 -0.78579134 71 53 87
-0.18932028 -0.12212052 -0.78653336 66 49 84
-0.20224357 -0.1251722 -0.78746903 105 99 122
-0.20402569 -0.12496914 -0.78901464 125 114 137
-0.20237163 -0.12558188 -0.78876215 86 80 102
-0.20152028 -0.12554914 -0.78766227 83 78 101
-0.20313801 -0.12531377 -0.78892314 103 95 118
-0.20119865 -0.12600571 -0.7885533 59 56 78
-0.20001402 -0.12575018 -0.78853089 57 53 77
-0.19830005 -0.12487631 -0.78714752 80 73 100
-0.19838467 -0.12491943 -0.78721535 79 72 99
-0.19817439 -0.12478884 -0.78653532 84 77 105
-0.19878392 -0.12511484 -0.78735971 74 68 94
-0.19765206 -0.12465423 -0.78898758 75 67 93
-0.19942446 -0.12503201 -0.7865867 87 81 107
-0.1983622 -0.12487478 -0.78662145 82 76 103
-0.19903834 -0.12487761 -0.78632843 90 84 110
-0.20080605 -0.12569872 -0.78782928 70 66 89
-0.19503814 -0.1232271 -0.78673655 70 56 88
-0.1954065 -0.12333196 -0.78851217 58 49 77
-0.19617416 -0.12382977 -0.78866571 68 58 86
-0.19616535 -0.12380349 -0.78593367 86 74 106
-0.1965626 -0.12400829 -0.78624213 88 77 107
-0.19725122 -0.12448127 -0.78935176 76 67 94
-0.19640665 -0.12396891 -0.78701627 82 71 101
-0.18604352 -0.12408429 -0.78581876 97 75 104
-0.18840499 -0.12332711 -0.78817326 88 67 96
-0.18724613 -0.12305906 -0.78680223 85 64 93
-0.18753138 -0.1237511 -0.78735071 93 72 101
-0.18793219 -0.12419016 -0.78788429 99 77 106
-0.18811907 -0.12379316 -0.78799915 94 72 101
-0.1888352 -0.12385212 -0.7888757 94 73 101
-0.20534587 -0.12511308 -0.8089624 36 23 44
-0.2058744 -0.12531723 -0.8081941 32 20 39
-0.20579068 -0.12524757 -0.80866456 32 21 40
-0.20566274 -0.12526344 -0.80824059 33 21 41
-0.20558235 -0.12523019 -0.8083778 34 22 42
-0.20740935 -0.12558833 -0.80623215 53 42 58
-0.20710561 -0.12570241 -0.80699772 26 16 31
-0.20589812 -0.12547202 -0.80521852 50 35 58
-0.20168009 -0.12689091 -0.80620927 44 35 48
-0.20425776 -0.12600836 -0.80888742 44 31 48
-0.20332484 -0.12672061 -0.8083902 48 35 49
-0.20395644 -0.12558144 -0.8080551 39 27 47
-0.20318277 -0.12607911 -0.80754769 42 30 47
-0.20332159 -0.12577993 -0.80543143 38 26 46
-0.2048995 -0.12537429 -0.80627745 38 23 46
-0.20368391 -0.1257357 -0.80516869 38 25 46
-0.20385094 -0.12553373 -0.80674422 38 26 46
-0.20453274 -0.12538056 -0.80690318 38 24 46
-0.20355503 -0.12573014 -0.80546093 38 25 46
-0.20178397 -0.12780225 -0.80732018 48 37 49
-0.20230298 -0.12758981 -0.80783021 49 37 49
-0.20145361 -0.12752473 -0.80654675 46 36 48
-0.2013962 -0.12927197 -0.80836463 53 41 51
-0.20228477 -0.12753208 -0.80774146 49 37 49
-0.20052774 -0.12725119 -0.80529779 44 34 49
-0.19777793 -0.12995239 -0.80556691 57 36 61
-0.19933222 -0.12835108 -0.80540317 48 34 53
-0.19886272 -0.12863429 -0.80532622 49 33 54
-0.20100759 -0.1278546 -0.80633873 47 37 49
-0.20007604 -0.12905425 -0.8067106 53 39 54
-0.19965617 -0.12880829 -0.80602288 52 37 56
-0.20073217 -0.12753038 -0.80571049 45 35 50
-0.19950587 -0.12920335 -0.80630201 54 38 57
-0.201096 -0.12936205 -0.80806637 53 41 51
-0.19943896 -0.12958981 -0.80665523 55 39 58
-0.19839424 -0.1298932 -0.80593926 57 39 62
-0.20100592 -0.13028923 -0.80892956 58 45 53
-0.19963682 -0.13148522 -0.80811507 76 56 70
-0.19828103 -0.13153382 -0.80687612 76 52 75
-0.1972086 -0.13113876 -0.80571663 67 44 71
-0.18191119 -0.12132974 -0.76895505 106 99 129
-0.18193981 -0.12123303 -0.76855606 111 105 132
-0.18185103 -0.12146185 -0.76948512 99 91 124
-0.17982459 -0.12165663 -0.76866764 76 68 101
-0.17856745 -0.12157933 -0.76736581 66 60 92
-0.17836171 -0.122234 -0.76959336 63 45 73
-0.17825027 -0.1221777 -0.76929706 62 45 74
-0.18075497 -0.12165552 -0.76941782 83 74 109
-0.1793977 -0.12171437 -0.76853275 72 63 96
-0.18152107 -0.12159057 -0.76980114 90 81 117
-0.18045902 -0.12098078 -0.76633382 109 107 127
-0.18128489 -0.12114395 -0.76768178 109 104 129
-0.1805041 -0.12139958 -0.76818436 88 83 114
-0.18061797 -0.12140357 -0.76829004 89 84 115
-0.18147804 -0.12143243 -0.76908219 97 90 121
-0.17593409 -0.12294234 -0.76975048 104 86 103
-0.17614773 -0.12286489 -0.76969194 97 79 97
-0.17636843 -0.12203421 -0.7668348 77 77 93
-0.17763853 -0.12155095 -0.76648015 61 57 88
-0.17745574 -0.12201229 -0.76796412 62 52 78
-0.17767815 -0.1217771 -0.76735133 60 52 81
-0.17758664 -0.12240653 -0.76955158 60 40 65
-0.17654659 -0.12201685 -0.76696944 75 74 91
-0.1934323 -0.12275215 -0.78325468 66 59 90
-0.19381365 -0.12283183 -0.7838766 71 61 93
-0.19443804 -0.12301271 -0.78496861 75 60 94
-0.19089046 -0.12196071 -0.78338611 70 62 85
-0.19141816 -0.12208141 -0.78412664 68 57 83
-0.19197105 -0.12220423 -0.78470695 67 52 82
-0.18964435 -0.12170469 -0.78318948 69 62 85
-0.19151929 -0.12210452 -0.78426677 68 55 83
-0.19295505 -0.12252324 -0.78403103 66 55 86
-0.19112356 -0.12210006 -0.78237957 71 67 89
-0.19273099 -0.12265885 -0.78196192 66 65 93
-0.19315483 -0.12254083 -0.78449595 66 53 84
-0.19090246 -0.12204417 -0.78222799 72 68 89
-0.19187269 -0.12220264 -0.78375757 69 59 85
-0.18570207 -0.12231567 -0.78299505 72 58 78
-0.18733506 -0.12211087 -0.78427392 67 51 80
-0.18610518 -0.12253378 -0.78407592 76 59 83
-0.18578687 -0.12202957 -0.78227764 67 55 74
-0.1870431 -0.12193858 -0.7834506 64 51 76
-0.18622628 -0.12211049 -0.78300893 68 54 76
-0.18639582 -0.12255371 -0.78446394 76 58 85
-0.18906672 -0.12168138 -0.78261334 70 64 85
-0.18735209 -0.1218015 -0.78281659 65 54 76
-0.18853204 -0.12175073 -0.78438294 61 47 79
-0.18926615 -0.12171742 -0.7852658 58 43 80
-0.18939699 -0.12166375 -0.78286856 70 64 86
-0.18915345 -0.12167942 -0.7828232 69 63 85
-0.1848952 -0.12290673 -0.78347433 88 66 92
-0.18423189 -0.12303685 -0.78280318 95 71 97
-0.18535753 -0.12243154 -0.78284901 76 59 81
-0.19507086 -0.12328682 -0.7852543 80 66 99
-0.19471936 -0.12310141 -0.78544027 76 60 95
-0.194837 -0.12331226 -0.78372359 80 72 103
-0.19423422 -0.12307522 -0.78314275 75 69 100
-0.19478723 -0.12337773 -0.78262693 81 79 108
-0.18580352 -0.12379839 -0.78545368 94 71 100
-0.18487321 -0.12330075 -0.78391677 93 70 97
-0.1848954 -0.12316357 -0.78390926 92 68 95
-0.18460053 -0.12402698 -0.78371251 104 79 106
-0.1837842 -0.12397373 -0.78245348 109 84 110
-0.18380557 -0.12396269 -0.78247321 109 83 110
-0.20464563 -0.12575425 -0.79809403 76 75 91
-0.20443767 -0.1256987 -0.7984072 74 72 88
-0.20420733 -0.12589237 -0.79957944 75 69 82
-0.20279296 -0.12487047 -0.79962564 49 45 62
-0.2038824 -0.12608379 -0.80096877 76 64 74
-0.20384856 -0.12558074 -0.79942167 68 62 77
-0.20500612 -0.1265167 -0.79970604 90 82 93
-0.20156349 -0.12435514 -0.80051678 33 25 43
-0.20168869 -0.12455893 -0.79898947 40 31 50
-0.20396367 -0.12535787 -0.79824328 66 64 82
-0.20246071 -0.12497011 -0.79743361 54 46 66
-0.20170647 -0.12449372 -0.79964811 38 30 48
-0.2022308 -0.12470539 -0.79922009 45 38 56
-0.19828679 -0.12518191 -0.80081689 43 36 49
-0.19887386 -0.12463113 -0.80038315 39 31 45
-0.20055236 -0.12438099 -0.80109686 30 22 38
-0.19990799 -0.12413147 -0.80031317 33 25 40
-0.19876061 -0.12429742 -0.79981786 39 31 44
-0.20070727 -0.12410124 -0.80078411 29 21 37
-0.19820639 -0.12425761 -0.79940164 41 33 46
-0.19915101 -0.1237837 -0.79813677 39 29 45
-0.19927897 -0.12379038 -0.79848891 38 28 43
-0.19912492 -0.12367947 -0.7990216 36 27 41
-0.20075494 -0.12408956 -0.80048591 29 21 38
-0.19970374 -0.12402329 -0.79769838 41 30 47
-0.19851288 -0.12362462 -0.79754984 42 32 46
-0.19379553 -0.12686327 -0.79782248 62 52 72
-0.19536361 -0.12681751 -0.79965478 57 47 63
-0.19403958 -0.12673196 -0.79803234 61 51 71
-0.19595511 -0.12452638 -0.79743165 50 41 56
-0.19576304 -0.12520863 -0.7981801 53 44 59
-0.19656509 -0.1254936 -0.79967731 51 43 57
-0.1944463 -0.12601388 -0.79760009 58 49 67
-0.19626994 -0.12575549 -0.7996673 52 45 59
-0.19587088 -0.12485456 -0.79780263 51 43 57
-0.19490327 -0.12638828 -0.7987659 58 49 67
-0.19612151 -0.12584728 -0.79960346 53 45 60
-0.19608645 -0.12719578 -0.80069947 56 45 59
-0.19510753 -0.12748791 -0.79965007 60 48 65
-0.19561425 -0.12867248 -0.80074918 64 48 63
-0.1958582 -0.12816489 -0.80082971 61 46 61
-0.19384736 -0.12734032 -0.79808134 64 53 72
-0.19505914 -0.12980674 -0.80055726 71 51 67
-0.19412309 -0.12819846 -0.79876828 67 53 71
-0.1946716 -0.13045943 -0.80033016 74 53 68
-0.19337967 -0.12844981 -0.79791385 67 56 73
-0.19374162 -0.13016972 -0.79901671 71 56 70
-0.19434942 -0.12918209 -0.79944181 70 53 70
-0.1950473 -0.13078377 -0.80093706 75 52 67
-0.1930735 -0.1292299 -0.7977488 69 60 74
-0.19332159 -0.13001895 -0.79840899 70 58 71
-0.19397277 -0.13133086 -0.79955447 79 62 74
-0.19398874 -0.1311034 -0.7995829 76 59 71
-0.19469461 -0.13177022 -0.80047625 87 64 78
-0.19433622 -0.13095345 -0.80003887 75 56 69
-0.19338505 -0.13231547 -0.7984944 86 71 78
-0.19368963 -0.13204718 -0.79906392 87 70 80
-0.19290178 -0.13372226 -0.79756415 96 75 80
-0.19285724 -0.13273951 -0.79767919 88 72 77
-0.21315522 -0.1231723 -0.81617767 68 51 57
-0.21146801 -0.12327258 -0.81577444 67 50 57
-0.21071534 -0.12333705 -0.81507707 65 49 59
-0.20911796 -0.12322108 -0.81338257 54 40 57
-0.21189576 -0.12323708 -0.81509119 58 42 53
-0.21287303 -0.12411287 -0.81368667 48 34 52
-0.21213926 -0.12341051 -0.81486309 56 41 53
-0.21263255 -0.12368358 -0.81461388 54 39 52
-0.21164991 -0.12311427 -0.81517929 59 43 53
-0.21135382 -0.12304968 -0.81505871 59 43 53
-0.20743039 -0.12690701 -0.81337249 49 41 45
-0.20809704 -0.126087 -0.81379491 67 57 61
-0.20800421 -0.12529019 -0.81314909 44 34 45
-0.20812149 -0.12543061 -0.81340683 54 43 52
-0.20804355 -0.12685493 -0.81421345 81 72 71
-0.20722342 -0.12696359 -0.81311768 39 32 37
-0.2071517 -0.12699102 -0.81304324 37 30 35
-0.2078708 -0.126965 -0.81404245 74 66 66
-0.18600546 -0.12192629 -0.77765268 63 45 74
-0.18590012 -0.12185986 -0.77669454 72 54 85
-0.18595418 -0.12182567 -0.77619481 78 62 93
-0.18612233 -0.12176433 -0.77529418 92 77 108
-0.1844562 -0.12192672 -0.77674472 53 36 68
-0.18339868 -0.12192307 -0.77578002 53 39 71
-0.18193994 -0.12205072 -0.77599204 54 36 74
-0.1831191 -0.12190446 -0.77531987 53 40 73
-0.18300289 -0.12201801 -0.77653855 54 35 71
-0.18421046 -0.12190148 -0.77619696 55 40 72
-0.18499346 -0.12172943 -0.77435654 85 70 105
-0.18512419 -0.12174378 -0.77467483 83 68 102
-0.18414965 -0.12181679 -0.77491623 69 55 88
-0.18474688 -0.12179931 -0.77516407 73 58 91
-0.17952266 -0.12279785 -0.77488589 100 80 103
-0.17909165 -0.12296034 -0.77496952 108 87 108
-0.18111727 -0.1221121 -0.7740891 64 53 84
-0.18070737 -0.12254187 -0.77575427 83 63 93
-0.18040472 -0.12238942 -0.77427745 79 65 92
-0.18134083 -0.12229213 -0.77648968 65 44 80
-0.18110861 -0.12251748 -0.77752513 74 47 84
-0.18125716 -0.12223136 -0.77521241 67 51 84
-0.19360776 -0.12223077 -0.79098392 59 51 65
-0.19417007 -0.12253448 -0.79100382 54 46 64
-0.19400056 -0.12244976 -0.79032993 55 48 65
-0.19482428 -0.12288319 -0.7915563 48 39 61
-0.19431981 -0.12260627 -0.79193473 53 44 62
-0.19420488 -0.12253731 -0.79262596 54 44 61
-0.19228618 -0.12301075 -0.79300201 80 61 80
-0.19153719 -0.12273873 -0.79035664 75 60 81
-0.19184944 -0.12257647 -0.78988934 72 58 79
-0.1928297 -0.12258185 -0.79135454 71 58 74
-0.19218513 -0.12278544 -0.79157084 75 60 79
-0.19323744 -0.12222276 -0.79056883 63 54 69
-0.19302098 -0.12241392 -0.79314882 69 55 69
-0.20518589 -0.12590124 -0.79256445 107 115 120
-0.2056766 -0.12592743 -0.79329306 106 117 120
-0.2013173 -0.12612294 -0.79105997 57 51 75
-0.20267051 -0.12628581 -0.79118669 64 68 81
-0.20118016 -0.1262835 -0.78984439 46 42 65
-0.20332682 -0.12622166 -0.79222059 76 82 92
-0.20164035 -0.1261749 -0.79100144 58 55 76
-0.20442933 -0.12628596 -0.79278851 87 98 101
-0.20338939 -0.12617674 -0.79134458 76 81 92
-0.20318736 -0.1258873 -0.79043394 83 81 98
-0.20397942 -0.1262406 -0.79210818 82 91 97
-0.20387286 -0.12530009 -0.78971654 110 102 123
-0.19897415 -0.12469783 -0.79295087 54 45 76
-0.19979993 -0.12514977 -0.79284453 65 55 85
-0.19890676 -0.12486639 -0.79191333 66 56 85
-0.19753201 -0.12402368 -0.79255021 42 33 66
-0.19926086 -0.12506227 -0.79185718 71 61 89
-0.19772944 -0.12447011 -0.79080158 65 56 85
-0.19966143 -0.12527937 -0.79180574 75 65 93
-0.199433 -0.1253957 -0.79028177 64 57 82
-0.20008728 -0.12558804 -0.79107672 65 57 83
-0.20007147 -0.1254355 -0.79206222 74 64 91
-0.20060058 -0.12591694 -0.7904914 56 50 74
-0.19943357 -0.12543367 -0.79002565 62 55 80
-0.19603544 -0.1233331 -0.79272598 39 29 58
-0.19544427 -0.1231506 -0.79133886 43 35 60
-0.19586861 -0.1232779 -0.79297471 40 30 57
-0.19672525 -0.12378302 -0.7912395 47 39 69
-0.19665639 -0.12374232 -0.79121387 46 38 68
-0.19715047 -0.12437042 -0.7896865 71 62 90
-0.19009134 -0.12434943 -0.79073745 94 73 98
-0.19030666 -0.12434406 -0.79103225 93 72 97
-0.18985038 -0.12308612 -0.78966552 84 64 91
-0.19027552 -0.12359184 -0.79056877 87 67 92
-0.19117281 -0.12350662 -0.79183453 86 66 88
-0.19088167 -0.12479834 -0.79212618 96 75 97
-0.19128221 -0.12376391 -0.79213762 87 67 89
-0.18943372 -0.12524782 -0.7904191 103 87 109
-0.18939221 -0.12385017 -0.7896474 91 72 99
-0.1892042 -0.12418532 -0.78955686 94 76 101
-0.20528723 -0.12580824 -0.80409515 55 39 60
-0.20627582 -0.12584214 -0.80323905 75 61 80
-0.2051419 -0.12580919 -0.80420679 52 36 57
-0.20621121 -0.12553522 -0.80425781 62 48 70
-0.20595708 -0.12548313 -0.80478162 56 41 64
-0.20505933 -0.12576497 -0.8043201 49 34 55
-0.20245372 -0.12492552 -0.80163151 43 33 48
-0.20447282 -0.12567215 -0.80347556 52 37 56
-0.20461617 -0.12532634 -0.80458254 37 22 46
-0.20499346 -0.1255478 -0.8047266 41 26 49
-0.2049543 -0.12550084 -0.80477029 40 24 48
-0.20383151 -0.12599571 -0.80151755 71 58 69
-0.20486583 -0.12652035 -0.80211425 80 66 77
-0.20171043 -0.12577315 -0.80439204 36 27 44
-0.20329258 -0.12526754 -0.80403686 35 22 43
-0.20156471 -0.12548433 -0.80379683 34 26 42
-0.20427965 -0.12561923 -0.80506456 38 23 46
-0.20144401 -0.1246144 -0.80212271 29 21 38
-0.20327286 -0.1252898 -0.80407125 35 23 43
-0.20185068 -0.12485746 -0.8027299 31 22 40
-0.19865628 -0.12679705 -0.80329949 46 38 50
-0.19772267 -0.1264119 -0.80212802 48 41 53
-0.20084779 -0.12631419 -0.80482233 40 32 46
-0.19992584 -0.12643605 -0.80404705 43 36 49
-0.19983438 -0.12602627 -0.80356944 42 34 48
-0.1980032 -0.12574303 -0.80153972 46 40 53
-0.19863246 -0.12543996 -0.80148751 42 36 49
-0.19776218 -0.12585856 -0.80155873 48 42 54
-0.19931675 -0.12544236 -0.80205226 40 33 47
-0.19926062 -0.12579741 -0.80267107 42 35 49
-0.1989174 -0.12576011 -0.8023203 43 36 50
-0.19729751 -0.1294177 -0.80489701 52 31 56
-0.1980328 -0.12733975 -0.80336022 48 37 51
-0.19851859 -0.12739317 -0.80380815 47 36 51
-0.19746125 -0.12710659 -0.80265856 48 39 52
-0.19739582 -0.1280099 -0.8035323 50 36 53
-0.19709413 -0.1289598 -0.80389917 54 35 58
-0.1970824 -0.12732509 -0.80236572 51 39 54
-0.19693662 -0.12796606 -0.80269009 53 39 57
-0.1956553 -0.1300166 -0.80154532 69 48 64
-0.19579747 -0.13021792 -0.80205572 68 46 65
-0.19664766 -0.12888421 -0.80298454 57 38 61
-0.19663969 -0.1281659 -0.80236423 55 39 59
-0.19680426 -0.13085668 -0.80501175 60 33 66
-0.19590196 -0.13076267 -0.80276293 68 44 66
-0.19662377 -0.13155021 -0.80451912 72 44 74
-0.19653995 -0.13180646 -0.80429703 77 49 77
-0.19664243 -0.13182257 -0.80451256 77 50 78
-0.19615686 -0.13105176 -0.8034445 69 43 68
-0.19570689 -0.13096866 -0.80236751 72 47 68
-0.19614001 -0.13152125 -0.80337447 76 49 74
-0.19595735 -0.13107513 -0.8029632 71 45 69
-0.19568859 -0.13098474 -0.80232245 73 47 68
-0.1804689 -0.12052645 -0.764916 134 136 149
-0.17991146 -0.12091684 -0.76575905 107 106 126
-0.1804564 -0.12058799 -0.76508802 130 132 146
-0.17775363 -0.12054144 -0.7635504 107 116 134
-0.1780449 -0.12067521 -0.76408958 103 109 129
-0.17824209 -0.12077459 -0.76448011 99 104 125
-0.17671965 -0.12160548 -0.76580083 70 73 96
-0.17387813 -0.12087734 -0.76230562 71 70 95
-0.17388523 -0.12110872 -0.76281822 76 77 98
-0.17736067 -0.12094223 -0.76449341 83 86 111
-0.17540376 -0.12082145 -0.76304597 78 79 104
-0.17686471 -0.12106649 -0.76457578 73 74 101
-0.176576 -0.12061457 -0.76310307 96 102 123
-0.17611721 -0.12102124 -0.76402545 71 71 99
-0.17647977 -0.12078244 -0.7635361 86 90 113
-0.17373963 -0.12119592 -0.76291013 79 81 100
-0.19321758 -0.12285832 -0.78144199 68 68 98
-0.18638608 -0.12184997 -0.78095853 66 55 73
-0.18654105 -0.12185021 -0.77945763 61 48 72
-0.18741217 -0.12177961 -0.78106058 68 61 78
-0.18710127 -0.12181029 -0.77972442 64 52 75
-0.18585889 -0.12188986 -0.78038257 62 49 70
-0.1870643 -0.12182222 -0.77917534 63 50 75
-0.18836512 -0.12186173 -0.77874309 93 84 105
-0.18773389 -0.12185409 -0.7788071 80 69 92
-0.18791346 -0.12179855 -0.77951854 74 65 86
-0.18871032 -0.12189107 -0.77838999 104 96 115
-0.18310542 -0.12304341 -0.78120863 99 73 101
-0.18204609 -0.1228802 -0.7796303 88 58 94
-0.18476993 -0.12212433 -0.78120106 70 55 76
-0.18384895 -0.12274394 -0.7814377 90 68 93
-0.18237752 -0.12224019 -0.77863616 61 37 74
-0.18357392 -0.12294618 -0.78154498 97 73 99
-0.18541454 -0.12191967 -0.78056133 62 49 69
-0.18259862 -0.12214711 -0.77829981 58 34 71
-0.18443534 -0.12201306 -0.77777994 54 33 67
-0.18488893 -0.12195908 -0.78056502 63 48 70
-0.18526709 -0.12192901 -0.78080094 63 50 70
-0.18102403 -0.12278607 -0.77817082 87 57 92
-0.18285523 -0.12313441 -0.78096896 100 72 102
-0.18327814 -0.12316815 -0.78147346 102 76 103
-0.19404446 -0.12286538 -0.79400492 58 44 63
-0.19383179 -0.12274336 -0.79399443 60 46 63
-0.19313814 -0.12255975 -0.7937656 68 54 68
-0.2057495 -0.12584418 -0.79602081 93 97 109
-0.2027829 -0.12573977 -0.79512161 76 70 94
-0.2015755 -0.12546533 -0.79476851 68 57 82
-0.20311652 -0.12537622 -0.79666901 66 60 81
-0.20292363 -0.12538451 -0.79644066 67 60 81
-0.20217849 -0.12534867 -0.79578203 65 56 79
-0.20250468 -0.12579374 -0.79459566 78 71 95
-0.20395532 -0.12594998 -0.79491198 83 85 100
-0.20496762 -0.12599219 -0.79568338 86 92 103
-0.20282614 -0.12591335 -0.79396528 81 79 98
-0.20390762 -0.12582722 -0.79587108 80 78 98
-0.19890292 -0.12382452 -0.79700625 42 31 48
-0.19817109 -0.12362424 -0.79658437 41 31 48
-0.19883715 -0.12385942 -0.79655904 41 30 49
-0.19862418 -0.1237781 -0.79661459 41 30 49
-0.19795251 -0.12367526 -0.79560089 37 27 51
-0.19731751 -0.12329116 -0.79686195 42 33 47
-0.20017543 -0.12490977 -0.79446441 54 43 71
-0.19810775 -0.12411103 -0.79353839 38 28 62
-0.20009775 -0.12477098 -0.7947886 51 39 67
-0.19955228 -0.12447266 -0.79483348 44 33 61
-0.2000276 -0.12486766 -0.79434878 54 42 71
-0.20032179 -0.12460674 -0.79571652 46 33 59
-0.19349551 -0.12544443 -0.79629004 63 51 71
-0.19352515 -0.12505075 -0.79601061 63 51 70
-0.19444747 -0.12357869 -0.79429305 53 41 62
-0.19411235 -0.12439942 -0.79510218 57 44 66
-0.1967402 -0.1238791 -0.79365134 34 24 57
-0.19346869 -0.12664704 -0.79711616 63 52 74
-0.19505782 -0.12435833 -0.79457724 48 37 62
-0.19593231 -0.12467603 -0.79460979 41 32 62
-0.1962885 -0.12405952 -0.79394686 38 28 59
-0.19695197 -0.1235934 -0.79659617 43 34 50
-0.19684887 -0.12390999 -0.79487282 37 28 55
-0.19703159 -0.123637 -0.79569823 39 30 51
-0.19635564 -0.1241881 -0.79619426 44 35 55
-0.19611877 -0.12454174 -0.79512626 42 32 59
-0.19714583 -0.1235924 -0.79523879 37 28 52
-0.19592735 -0.12453473 -0.79652834 48 38 57
-0.19308738 -0.12364159 -0.79481119 70 54 72
-0.19333066 -0.12328364 -0.79495782 67 51 68
-0.1920464 -0.12498943 -0.79399943 89 70 89
-0.19222565 -0.12422198 -0.79381758 85 66 85
-0.19289988 -0.12655811 -0.79634959 72 60 80
-0.19296017 -0.12613398 -0.79618621 70 58 78
-0.19272922 -0.1257827 -0.79559529 75 61 81
-0.19215818 -0.12466079 -0.79397833 86 68 87
-0.19274722 -0.1280753 -0.79668593 71 60 77
-0.19219978 -0.12882361 -0.79596108 79 65 80
-0.19124773 -0.13039729 -0.79483551 91 74 86
-0.19189717 -0.13035518 -0.79611516 82 70 81
-0.19317462 -0.12743026 -0.79722172 65 56 75
-0.1921564 -0.13056672 -0.79673928 78 69 78
-0.19197485 -0.12796289 -0.79530632 86 70 88
-0.19150156 -0.12924896 -0.79481113 89 71 86
-0.19232233 -0.13317323 -0.7967608 95 79 82
-0.19198079 -0.13228121 -0.796386 89 79 82
-0.19232389 -0.13094009 -0.79721224 76 69 77
-0.19202292 -0.13202153 -0.79650652 87 77 81
-0.1917599 -0.13179033 -0.79607743 88 79 83
-0.19119778 -0.13112827 -0.79496092 93 77 86
-0.19114767 -0.13145636 -0.79485601 95 80 87
-0.1912881 -0.13197491 -0.79513001 95 83 87
-0.21063524 -0.12457126 -0.81153965 33 23 38
-0.20904952 -0.12311243 -0.81253934 47 33 52
-0.20906503 -0.12387615 -0.81159937 37 26 41
-0.21045241 -0.12454662 -0.81147677 33 22 38
-0.21109599 -0.12489151 -0.81137782 30 21 36
-0.2056217 -0.12519222 -0.80899787 34 22 42
-0.2053608 -0.12684201 -0.81032974 50 37 51
-0.20710175 -0.12491777 -0.81166142 49 35 52
-0.20857823 -0.12372111 -0.81215954 42 30 46
-0.20876996 -0.12419701 -0.81140667 34 23 37
-0.20817289 -0.12390895 -0.81220496 46 32 50
-0.20814325 -0.12396796 -0.8121497 45 32 49
-0.20760043 -0.12565167 -0.81284285 37 27 38
-0.20674519 -0.12556104 -0.81175512 47 35 49
-0.20782652 -0.12407129 -0.81227911 49 35 53
-0.20764415 -0.12527625 -0.81269675 40 29 41
-0.20497119 -0.12574369 -0.8094182 43 30 49
-0.20522168 -0.12731455 -0.81095421 59 44 59
-0.20573837 -0.12826237 -0.81240171 72 54 70
-0.20624121 -0.12697573 -0.81190068 41 31 40
-0.20540416 -0.12800884 -0.81177622 71 53 69
-0.20215218 -0.12925993 -0.8092972 55 42 52
-0.20429015 -0.12715071 -0.80982929 53 39 52
-0.20279905 -0.12896886 -0.80973959 56 42 53
-0.20439754 -0.127516 -0.81021601 54 40 54
-0.20471206 -0.12840001 -0.81132144 76 57 74
-0.20464632 -0.12864611 -0.81146294 79 60 77
-0.20431602 -0.12816687 -0.81069088 64 48 63
-0.20304629 -0.12941591 -0.810395 66 50 62
-0.205027 -0.12731959 -0.81072867 60 44 60
-0.2050509 -0.1279124 -0.81126702 72 54 71
-0.20256224 -0.1307527 -0.81106097 84 64 78
-0.20347728 -0.13021342 -0.81155193 90 68 84
-0.20147191 -0.13220032 -0.81051874 82 58 74
-0.20120631 -0.13188744 -0.81005591 76 53 68
-0.20065501 -0.13155685 -0.80908573 77 59 68
0 0 0 1 0 0 0 1 0 0 0 1 0 0 0 0 0 531 1 0 0
