ply
format ascii 1.0
comment PCL generated
element vertex 993
property float x
property float y
property float z
property uchar red
property uchar green
property uchar blue
element camera 0
property float view_px
property float view_py
property float view_pz
property float x_axisx
property float x_axisy
property float x_axisz
property float y_axisx
property float y_axisy
property float y_axisz
property float z_axisx
property float z_axisy
property float z_axisz
property float focal
property float scalex
property float scaley
property float centerx
property float centery
property int viewportx
property int viewporty
property float k1
property float k2
end_header
-0.2008602 -0.54226422 -0.75727421 207 199 212
-0.20081669 -0.54351985 -0.75714141 206 198 212
-0.19923709 -0.54144502 -0.75646991 204 195 206
-0.19913487 -0.54202247 -0.75636446 204 194 207
-0.1978242 -0.54131418 -0.75571918 201 191 202
-0.19714974 -0.54302263 -0.75507456 209 202 211
-0.19717781 -0.54343885 -0.75502789 211 204 214
-0.1960637 -0.54245698 -0.75457919 203 194 201
-0.19668014 -0.54168928 -0.75502729 202 192 201
-0.19632651 -0.54113263 -0.75493354 197 186 194
-0.20216008 -0.54634118 -0.75769949 202 190 212
-0.20324512 -0.54859829 -0.75818056 197 179 208
-0.20281762 -0.5475412 -0.75800431 199 184 210
-0.20208907 -0.54722095 -0.75758713 202 188 212
-0.20164444 -0.5485065 -0.75721681 204 189 213
-0.20183434 -0.54638046 -0.7574985 203 191 212
-0.19811104 -0.54603469 -0.75527078 215 208 221
-0.1976679 -0.54691857 -0.75490057 217 209 221
-0.19906011 -0.54736322 -0.75572956 213 202 219
-0.1975342 -0.54646242 -0.75486386 217 210 222
-0.19809698 -0.5459401 -0.75527173 215 209 221
-0.19733803 -0.54578 -0.75481135 217 212 222
-0.1981688 -0.54525834 -0.75537324 215 209 221
-0.20091271 -0.54543507 -0.75701445 206 198 215
-0.2009161 -0.54570186 -0.75699562 206 197 215
-0.20002796 -0.54709589 -0.75635064 210 199 217
-0.20017733 -0.54610997 -0.75651801 209 200 217
-0.20043927 -0.54669267 -0.75663036 208 198 216
-0.19660325 -0.54496771 -0.7544691 217 213 220
-0.19648996 -0.54570419 -0.7543292 217 212 219
-0.20144373 -0.54928488 -0.75707221 206 191 214
-0.20281419 -0.55024546 -0.75790834 201 185 210
-0.203283 -0.55093563 -0.75819623 199 183 209
-0.20126 -0.55109382 -0.75690806 205 190 213
-0.20120074 -0.54982847 -0.75689971 206 191 214
-0.20185734 -0.55227822 -0.75727421 203 189 211
-0.19930364 -0.55108583 -0.75567275 211 198 216
-0.19799139 -0.55060369 -0.75484818 215 205 219
-0.19819769 -0.55067098 -0.75497818 215 204 219
-0.19791147 -0.55176622 -0.75475252 215 206 219
-0.19762418 -0.5506025 -0.75461239 217 207 220
-0.19937909 -0.55157149 -0.75570267 210 198 216
-0.19774094 -0.5516178 -0.75464863 216 206 220
-0.19989032 -0.55115664 -0.75604284 209 196 215
-0.19994055 -0.55039161 -0.75609297 209 196 216
-0.20070627 -0.55090874 -0.7565617 206 192 214
-0.19912195 -0.54933172 -0.75560427 212 200 218
-0.1998691 -0.54968786 -0.75606519 210 196 216
-0.20104219 -0.54972857 -0.75680155 206 192 214
-0.20244497 -0.55335701 -0.75764084 202 188 210
-0.20262313 -0.55321324 -0.75776112 202 188 210
-0.20271686 -0.55374688 -0.75781387 201 187 209
-0.20280118 -0.55333519 -0.75787675 201 187 209
-0.20183271 -0.55397886 -0.75722492 201 187 210
-0.20145641 -0.55536234 -0.75694096 196 180 207
-0.20156321 -0.55518591 -0.7570166 197 181 207
-0.20240103 -0.55522895 -0.75757778 199 184 208
-0.19727233 -0.55639607 -0.75433487 209 203 219
-0.19778928 -0.55589467 -0.75464678 208 200 217
-0.19838679 -0.55540848 -0.75500816 206 196 215
-0.20024787 -0.55574906 -0.7561487 197 182 208
-0.19733135 -0.55422151 -0.75435311 214 206 220
-0.19832903 -0.55532753 -0.75497216 207 197 215
-0.20006995 -0.55407381 -0.75607163 203 190 212
-0.20108186 -0.55524641 -0.75669485 195 180 207
-0.19925928 -0.5527544 -0.7555809 210 199 216
-0.20064694 -0.5530268 -0.75646603 204 191 212
-0.19962925 -0.55437422 -0.75578171 204 191 212
-0.20087206 -0.55298173 -0.7566117 204 190 212
-0.20299622 -0.55911881 -0.75814492 174 156 188
-0.20174772 -0.55779761 -0.75720066 182 164 197
-0.2032131 -0.55667061 -0.75809276 197 182 205
-0.20277175 -0.55861419 -0.75795358 178 160 192
-0.20161752 -0.55948788 -0.75722545 165 144 183
-0.20117606 -0.5569846 -0.75674713 187 170 202
-0.20153306 -0.5593971 -0.75716019 166 144 184
-0.19798465 -0.55876952 -0.75483465 182 164 197
-0.20042102 -0.55996263 -0.75647676 162 140 181
-0.19918151 -0.5589869 -0.75563776 177 159 192
-0.19903679 -0.55899894 -0.75554103 177 159 193
-0.19885594 -0.56046999 -0.75543427 160 133 179
-0.1997475 -0.56053746 -0.75603157 157 130 177
-0.19794819 -0.55887932 -0.75481135 181 162 196
-0.20068055 -0.55983615 -0.7566365 162 140 181
-0.20022094 -0.55803835 -0.75623405 182 164 197
-0.19984351 -0.55893099 -0.75606358 175 157 191
-0.20071964 -0.55673712 -0.75645095 192 176 205
-0.20104851 -0.5581634 -0.75674838 177 157 193
-0.20094016 -0.55886763 -0.75672978 170 150 188
-0.20207556 -0.56228983 -0.75764227 137 115 154
-0.20226568 -0.56265199 -0.75778049 134 113 150
-0.20226687 -0.56108445 -0.75775939 152 130 170
-0.20155403 -0.56177968 -0.7572704 142 120 160
-0.20178261 -0.56403637 -0.75746483 125 107 137
-0.20154953 -0.56436163 -0.75730753 124 107 135
-0.19749248 -0.56210637 -0.75461859 153 126 171
-0.19890194 -0.56397009 -0.75561535 137 116 152
-0.19791065 -0.56265444 -0.75491393 148 123 165
-0.19820152 -0.56362492 -0.75516033 141 118 158
-0.20059769 -0.56411886 -0.75666934 130 112 141
-0.19757371 -0.56319714 -0.75474423 146 121 164
-0.19935501 -0.56217569 -0.75579441 146 123 161
-0.20072013 -0.56383759 -0.75673395 131 113 142
-0.19908705 -0.56138867 -0.75560278 153 127 170
-0.20076925 -0.56110132 -0.75672412 151 126 169
-0.20078897 -0.56141055 -0.75674212 148 125 166
-0.20113088 -0.56298995 -0.75699568 136 117 150
-0.19715722 -0.56385958 -0.75453299 144 120 162
-0.20061229 -0.56524801 -0.75676662 117 96 127
-0.20083843 -0.56458569 -0.75685155 125 108 136
-0.20026511 -0.56512666 -0.75654304 120 99 131
-0.21909168 -0.53298914 -0.7702058 176 160 177
-0.22062679 -0.5413875 -0.77040207 175 156 186
-0.16296805 -0.53304178 -0.73717707 141 124 149
-0.16383711 -0.53300673 -0.73774356 144 129 150
-0.16352235 -0.53223962 -0.73766834 146 131 152
-0.16279864 -0.5336892 -0.73696947 138 118 146
-0.16543117 -0.5345248 -0.73854512 145 127 144
-0.16457726 -0.53431112 -0.73802561 143 124 144
-0.16487652 -0.53369445 -0.73830926 145 131 148
-0.1642326 -0.53501737 -0.73769838 140 116 141
-0.16467756 -0.53530329 -0.73794389 141 116 140
-0.16284902 -0.53504777 -0.73686153 146 124 152
-0.1654622 -0.53664643 -0.73825347 142 113 135
-0.16278912 -0.53639418 -0.73670179 156 133 160
-0.1650179 -0.53673124 -0.73798388 145 117 140
-0.16475813 -0.53625917 -0.73787445 143 116 140
-0.16375986 -0.53500193 -0.73740244 140 116 143
-0.16111417 -0.53657579 -0.73561943 159 137 168
-0.16186956 -0.53603142 -0.73617452 157 136 165
-0.16687529 -0.54019397 -0.73858494 141 97 136
-0.16609539 -0.53835022 -0.73840487 141 106 134
-0.16335718 -0.53981769 -0.73665798 158 133 160
-0.16305198 -0.54085898 -0.73639798 160 142 163
-0.16387284 -0.53995854 -0.73692256 154 125 155
-0.16275562 -0.53941637 -0.73637104 162 142 165
-0.16284533 -0.54057318 -0.73631305 161 145 165
-0.16325164 -0.53918165 -0.73665965 158 132 161
-0.16359209 -0.53767484 -0.73702806 156 129 157
-0.16481727 -0.53791541 -0.73771554 149 118 145
-0.16456555 -0.53759831 -0.73761255 150 121 147
-0.16582425 -0.53787017 -0.73831534 142 110 135
-0.16514769 -0.53814834 -0.73787695 147 114 142
-0.16592093 -0.53712374 -0.7384789 142 112 133
-0.1670146 -0.54314947 -0.73842531 135 94 136
-0.16719724 -0.54278678 -0.73854977 136 94 136
-0.16693099 -0.54340899 -0.7383588 134 93 136
-0.16682987 -0.54440647 -0.73821408 130 90 136
-0.16642965 -0.54241318 -0.73812503 137 92 136
-0.16422865 -0.54167897 -0.73696297 150 121 152
-0.1637257 -0.54121155 -0.73673034 155 131 157
-0.16581562 -0.54138446 -0.73784113 141 96 137
-0.16366746 -0.54205489 -0.73663026 152 130 157
-0.16497035 -0.5413087 -0.73739231 146 110 145
-0.16474156 -0.54187858 -0.73722279 146 112 147
-0.19101623 -0.54084486 -0.75218523 176 163 165
-0.1956986 -0.54313064 -0.75427878 205 197 203
-0.19550174 -0.54382038 -0.75407237 208 202 207
-0.19562872 -0.54391634 -0.75412083 209 203 208
-0.19414169 -0.54224771 -0.75362641 196 186 189
-0.19407251 -0.54247254 -0.7535364 198 188 190
-0.1941248 -0.54395622 -0.75324035 209 202 202
-0.19363037 -0.54485691 -0.75275296 215 209 208
-0.19339085 -0.54156929 -0.75333679 191 179 180
-0.19004913 -0.54308504 -0.75118399 190 180 179
-0.18974252 -0.54294175 -0.75104934 188 177 177
-0.19021448 -0.54188865 -0.75150901 182 170 171
-0.19201964 -0.54483402 -0.75188518 210 203 201
-0.19218883 -0.54410303 -0.75212008 205 198 196
-0.19044223 -0.54486805 -0.75103968 205 197 194
-0.19305877 -0.54237914 -0.75297362 196 186 186
-0.19151212 -0.54244846 -0.7521019 191 180 180
-0.19274276 -0.54398817 -0.75244433 206 199 197
-0.19116402 -0.54203492 -0.75200021 186 175 175
-0.19310489 -0.54302531 -0.75285691 201 192 191
-0.19144747 -0.54291916 -0.75196242 194 184 184
-0.1892212 -0.54407609 -0.7505638 194 184 183
-0.18815486 -0.54216164 -0.75044119 173 159 161
-0.19524677 -0.54541099 -0.7536332 216 211 215
-0.19610038 -0.54564458 -0.75410813 217 211 218
-0.19495821 -0.54511487 -0.75349504 216 211 214
-0.19656527 -0.54780543 -0.75415707 218 209 220
-0.19468962 -0.54612964 -0.75323337 216 209 213
-0.19500743 -0.54686773 -0.75334752 217 209 214
-0.19411771 -0.54674911 -0.75286174 215 206 214
-0.19353917 -0.54672337 -0.75254184 214 205 214
-0.19361 -0.54749489 -0.75252199 213 202 216
-0.19352615 -0.54556495 -0.75262362 215 208 210
-0.19344123 -0.54665399 -0.75249267 213 204 213
-0.19026437 -0.5468263 -0.75078434 206 198 203
-0.19037212 -0.54739541 -0.75079626 208 200 206
-0.19289745 -0.54841846 -0.75206584 210 197 217
-0.19085036 -0.54733223 -0.75105739 207 198 207
-0.19061007 -0.54846799 -0.75083745 210 203 212
-0.19222678 -0.54495984 -0.751975 212 205 203
-0.19308795 -0.54542553 -0.75239718 214 207 208
-0.19042996 -0.54537821 -0.75098747 205 196 196
-0.19243768 -0.54566652 -0.75203294 211 203 206
-0.19242701 -0.54777974 -0.75186491 209 197 213
-0.19334263 -0.5468182 -0.75242567 213 204 214
-0.19579749 -0.55086654 -0.75355691 215 205 221
-0.19508281 -0.54956025 -0.75321031 214 203 221
-0.1955137 -0.55090564 -0.75339752 214 204 221
-0.1961561 -0.54985356 -0.75379592 216 206 221
-0.19593936 -0.54902929 -0.75370753 216 205 221
-0.19365869 -0.55040884 -0.75234121 207 193 216
-0.19390158 -0.55236357 -0.75234151 202 187 209
-0.19437476 -0.551691 -0.75267017 206 193 213
-0.19347343 -0.55026311 -0.75224251 206 192 215
-0.19395386 -0.5514009 -0.7524429 205 191 213
-0.19356436 -0.55191517 -0.75217521 201 186 209
-0.19279388 -0.55207646 -0.75174081 198 182 206
-0.19249979 -0.55142897 -0.75163132 199 183 207
-0.19125707 -0.55185682 -0.7509374 193 175 201
-0.19133233 -0.55253816 -0.75092757 191 173 199
-0.19192238 -0.55264604 -0.75123435 193 175 201
-0.19021714 -0.54986989 -0.75052357 204 195 208
-0.19092178 -0.55150402 -0.75078362 194 178 202
-0.19054708 -0.55246711 -0.75051403 188 170 196
-0.19036241 -0.55226374 -0.75042975 189 172 197
-0.19103269 -0.54898441 -0.75102359 210 201 214
-0.19540267 -0.5545634 -0.75321549 203 193 213
-0.19662678 -0.55364114 -0.75393093 212 203 218
-0.1971554 -0.55288637 -0.75423706 217 208 220
-0.19698411 -0.55321908 -0.75413859 215 207 219
-0.19544452 -0.55453587 -0.75323999 204 193 213
-0.19624382 -0.55565351 -0.75372094 205 197 215
-0.19649096 -0.55624992 -0.75385934 206 199 216
-0.19506487 -0.5548892 -0.75300312 202 192 211
-0.19401972 -0.55606264 -0.75231338 201 192 206
-0.19583586 -0.55590653 -0.75345796 204 196 213
-0.19361396 -0.55514187 -0.75208503 200 189 205
-0.19409919 -0.5537408 -0.75242984 200 186 208
-0.1928682 -0.55535871 -0.75166488 198 188 204
-0.1931863 -0.55612057 -0.75180757 200 191 203
-0.19216384 -0.55592978 -0.75128406 197 187 204
-0.19195186 -0.55513293 -0.75119728 196 184 205
-0.19094166 -0.55350739 -0.75069183 190 173 199
-0.19040562 -0.5527907 -0.75041813 187 168 195
-0.19193645 -0.55343682 -0.7512235 194 178 202
-0.19112211 -0.55471486 -0.75076765 193 179 203
-0.19128844 -0.5553506 -0.75084555 195 183 205
-0.19705635 -0.55793232 -0.7542153 193 179 206
-0.196246 -0.55933422 -0.75371993 175 153 189
-0.19657728 -0.55725348 -0.75390816 199 190 210
-0.19504255 -0.55749393 -0.75294697 194 182 201
-0.1940061 -0.55671012 -0.75228888 201 193 205
-0.19584219 -0.55873823 -0.75346076 181 162 193
-0.19456162 -0.55968416 -0.75265521 182 165 188
-0.19449146 -0.5578413 -0.75260413 189 175 196
-0.19445415 -0.56045425 -0.75258982 180 163 185
-0.19345677 -0.5581761 -0.75194949 194 184 196
-0.19538674 -0.55874377 -0.75317484 181 161 191
-0.19463497 -0.55969393 -0.75270176 182 165 188
-0.19256054 -0.55868745 -0.75143331 190 179 191
-0.19228362 -0.56027919 -0.75128084 183 170 183
-0.19192231 -0.55933881 -0.7510711 185 173 185
-0.19325393 -0.55926245 -0.75183141 191 179 191
-0.1930546 -0.5569343 -0.75171494 198 190 201
-0.19139494 -0.55796349 -0.75082266 190 179 194
-0.19072036 -0.55837554 -0.75046015 187 175 192
-0.19228806 -0.55760682 -0.75129634 194 184 196
-0.19210981 -0.55714154 -0.75121939 196 186 200
-0.19417213 -0.56237084 -0.75254345 171 156 177
-0.19452879 -0.5621143 -0.75274873 170 154 177
-0.19157909 -0.56338084 -0.75106961 170 157 170
-0.19307424 -0.56210589 -0.75184613 178 165 180
-0.19263734 -0.56266212 -0.75163293 174 162 176
-0.19103482 -0.5636763 -0.75077426 168 155 168
-0.19082554 -0.56124568 -0.75049454 175 161 174
-0.19089966 -0.56270003 -0.75063175 171 157 170
-0.19159463 -0.56117463 -0.75092924 178 164 177
-0.19087069 -0.56153512 -0.75053924 174 160 173
-0.21562418 -0.5236885 -0.7695573 175 139 176
-0.21310908 -0.52448046 -0.7679376 190 156 193
-0.21513729 -0.52533883 -0.76895291 179 135 182
-0.2130473 -0.5237447 -0.76804781 189 159 191
-0.21314049 -0.52372968 -0.76810527 188 158 190
-0.21367063 -0.52350843 -0.76845926 184 153 186
-0.21318027 -0.52294809 -0.76828396 186 159 187
-0.21084258 -0.52345425 -0.76681834 195 169 198
-0.21096657 -0.52452052 -0.76667905 199 172 201
-0.21142672 -0.52490711 -0.76687086 198 169 200
-0.21133123 -0.52434558 -0.76692653 196 167 199
-0.21204063 -0.52386242 -0.76743656 192 163 195
-0.21390565 -0.52852857 -0.76763719 188 167 193
-0.21298279 -0.52691191 -0.76740456 191 163 197
-0.21498939 -0.52923745 -0.76812685 185 166 189
-0.21393676 -0.52814281 -0.76772517 188 165 193
-0.21448472 -0.5271998 -0.76820964 187 158 191
-0.2133759 -0.52639091 -0.76772386 191 159 196
-0.21563524 -0.52685565 -0.76894683 180 145 183
-0.21646433 -0.52712792 -0.7693783 175 140 178
-0.21576267 -0.52607059 -0.76917511 177 136 180
-0.21484236 -0.52614111 -0.76862311 183 145 186
-0.21381859 -0.52541131 -0.76816744 187 148 191
-0.21458308 -0.5267604 -0.76835024 186 154 190
-0.21575584 -0.5271582 -0.76895809 180 147 183
-0.2125556 -0.52641124 -0.76722878 194 164 199
-0.21179447 -0.52889919 -0.76628894 198 181 203
-0.21085018 -0.52560008 -0.76639616 204 177 204
-0.21098752 -0.52630252 -0.76633412 203 178 204
-0.21104129 -0.52672905 -0.76627916 202 179 204
-0.21218318 -0.52596807 -0.76709932 196 165 200
-0.21783844 -0.53059751 -0.7696647 177 157 178
-0.21794073 -0.53125149 -0.76965493 178 160 179
-0.21686527 -0.53150219 -0.76890117 183 166 186
-0.21789564 -0.53307956 -0.76938838 181 167 184
-0.21820498 -0.53278166 -0.76963711 180 164 181
-0.21741693 -0.5317986 -0.76923484 181 165 184
-0.21308835 -0.53269643 -0.76633883 204 190 205
-0.21565463 -0.53301835 -0.76792949 191 178 195
-0.21546793 -0.5321992 -0.7679792 189 175 194
-0.21292326 -0.52984321 -0.76682532 193 178 199
-0.21465629 -0.53122836 -0.76765674 189 175 195
-0.21486223 -0.53297013 -0.76742768 195 182 198
-0.21652831 -0.53007317 -0.76889145 181 162 184
-0.21595566 -0.53065234 -0.76848757 184 167 188
-0.21508797 -0.52962905 -0.76812816 185 167 189
-0.21615532 -0.53144574 -0.76849616 185 169 189
-0.2164726 -0.5320614 -0.76859552 185 170 189
-0.21647473 -0.53111649 -0.7687223 183 166 187
-0.21278751 -0.53218108 -0.76625288 203 189 205
-0.21277013 -0.53081894 -0.76652461 198 183 202
-0.21229661 -0.53088397 -0.76620817 201 187 204
-0.21820125 -0.53534919 -0.76940328 178 162 183
-0.21841611 -0.53324568 -0.76972044 180 165 181
-0.21703479 -0.535447 -0.76854098 190 174 195
-0.21741071 -0.53529131 -0.76883519 186 170 191
-0.21719545 -0.53459781 -0.7687583 186 171 191
-0.21694183 -0.53496331 -0.76852942 190 174 194
-0.21496709 -0.53588659 -0.76709479 202 184 205
-0.21425471 -0.53523457 -0.76670712 204 187 206
-0.21526915 -0.53595334 -0.76729691 202 184 204
-0.21562204 -0.53664392 -0.76742274 201 182 204
-0.21460634 -0.53615493 -0.76679069 202 183 205
-0.21542037 -0.5332334 -0.76773626 193 180 197
-0.21595375 -0.53322238 -0.76808208 190 177 194
-0.21464422 -0.53414726 -0.76712799 201 186 203
-0.21425223 -0.53353012 -0.76694703 201 187 203
-0.21576741 -0.53589743 -0.76764876 200 184 203
-0.21449605 -0.53373021 -0.76708108 200 186 202
-0.21443658 -0.53349543 -0.76707017 200 186 202
-0.2189879 -0.53824019 -0.76962537 179 160 186
-0.21878847 -0.53891647 -0.76938629 183 165 192
-0.21775118 -0.53821158 -0.76872146 192 174 199
-0.21792091 -0.53787541 -0.76889205 189 171 195
-0.2183274 -0.54015684 -0.76894146 186 172 198
-0.21847667 -0.53961128 -0.76908445 187 171 197
-0.2191415 -0.54019368 -0.7694785 183 166 194
-0.21823637 -0.53898454 -0.76897562 189 172 197
-0.21715836 -0.5404222 -0.76814461 190 180 203
-0.21600759 -0.54071045 -0.76735604 193 184 206
-0.21652716 -0.53874928 -0.76786011 196 182 204
-0.21624981 -0.53838181 -0.76770508 197 182 204
-0.21518819 -0.54043382 -0.76683283 195 185 206
-0.21667972 -0.53940821 -0.76790857 194 182 204
-0.21434599 -0.54031539 -0.76627374 196 185 206
-0.21413146 -0.54046613 -0.76611406 196 186 206
-0.21431834 -0.53876454 -0.76633179 199 183 205
-0.2145083 -0.53788602 -0.76651043 200 181 205
-0.21426003 -0.53711665 -0.76637298 202 180 205
-0.21832547 -0.54245615 -0.76886433 179 164 190
-0.21819218 -0.54102242 -0.7687825 185 174 199
-0.21893796 -0.54278547 -0.76926911 175 158 186
-0.21691358 -0.54276448 -0.76781833 184 171 197
-0.21750735 -0.5421868 -0.76830351 183 171 196
-0.21742149 -0.54253387 -0.7682144 182 169 195
-0.21728069 -0.54338211 -0.76804817 180 164 192
-0.2159386 -0.54280055 -0.76713508 185 174 198
-0.21594913 -0.54469156 -0.76700628 178 161 190
-0.21585749 -0.54267424 -0.76708806 186 175 199
-0.21603733 -0.54306674 -0.76718414 184 172 197
-0.2147036 -0.54454088 -0.76615733 181 166 192
-0.2153683 -0.5430705 -0.76672751 185 173 198
-0.21504003 -0.54356766 -0.76646578 184 171 196
-0.21513814 -0.5438109 -0.76651001 183 169 195
-0.21659875 -0.54131871 -0.76769876 190 182 204
-0.217053 -0.54594374 -0.76777852 175 156 185
-0.21763609 -0.54809284 -0.76823765 172 154 178
-0.21696934 -0.54517865 -0.76770681 175 155 186
-0.21703869 -0.54826784 -0.76779771 177 159 182
-0.21616094 -0.54876125 -0.76717281 180 165 186
-0.21612094 -0.5465427 -0.76711601 179 162 188
-0.21582422 -0.54836267 -0.76692832 181 166 187
-0.21532878 -0.54701108 -0.76656371 182 166 189
-0.21509402 -0.54771221 -0.76640236 183 168 190
-0.21465227 -0.5460242 -0.76609451 181 166 190
-0.21556287 -0.5451355 -0.76672292 178 161 189
-0.2171431 -0.55010647 -0.76786423 176 158 181
-0.21687469 -0.55166835 -0.76760501 177 162 182
-0.21701713 -0.5502845 -0.76775873 177 160 181
-0.21626957 -0.55007416 -0.76722264 180 164 184
-0.21616781 -0.55247128 -0.76708186 180 165 183
-0.21674731 -0.55091995 -0.76753038 178 163 183
-0.21473406 -0.54995918 -0.76613551 185 171 189
-0.21580683 -0.54973841 -0.76690298 182 166 186
-0.21536079 -0.55005544 -0.76657921 183 168 187
-0.21489426 -0.55210721 -0.76620483 185 170 187
-0.21746379 -0.55355734 -0.76807463 172 156 177
-0.21688309 -0.55490804 -0.7677561 169 153 177
-0.21700427 -0.55576074 -0.76791608 165 148 174
-0.21731047 -0.55473447 -0.76805568 168 152 175
-0.21682651 -0.55609173 -0.76781297 165 148 174
-0.21680743 -0.55641162 -0.7678256 163 147 174
-0.21638143 -0.55637538 -0.76750827 166 150 176
-0.21568736 -0.55469048 -0.76685601 176 162 183
-0.21645787 -0.55439383 -0.76739985 173 158 180
-0.2163524 -0.55655056 -0.76750147 165 149 176
-0.21517169 -0.55401087 -0.76645339 180 166 185
-0.21528487 -0.55283821 -0.76646572 183 168 186
-0.21470937 -0.55420113 -0.76614249 181 167 186
-0.21583895 -0.55406505 -0.7669208 178 164 183
-0.21686368 -0.55692834 -0.76790315 161 143 172
-0.21506001 -0.55932456 -0.76663953 157 137 173
-0.21662952 -0.55769467 -0.76775366 159 139 171
-0.21600327 -0.55729383 -0.76727158 163 146 175
-0.21647024 -0.55708867 -0.76760978 162 144 174
-0.21552655 -0.55751449 -0.76692665 165 148 177
-0.21481022 -0.5587694 -0.76643699 162 143 176
-0.17512426 -0.53621548 -0.74467635 145 121 150
-0.17484845 -0.53587341 -0.74461406 150 128 154
-0.17390122 -0.53554654 -0.74410766 161 147 165
-0.17489199 -0.53631121 -0.74449158 147 124 152
-0.17303044 -0.53607535 -0.74336511 159 147 162
-0.17352618 -0.53566301 -0.74382579 161 148 165
-0.17250067 -0.53433585 -0.74356586 171 158 166
-0.17193918 -0.5354923 -0.74279809 164 154 162
-0.17183921 -0.53550524 -0.74272317 164 154 162
-0.17237891 -0.53671062 -0.74271899 155 146 159
-0.17298189 -0.53527141 -0.74360669 164 152 164
-0.17243364 -0.53486907 -0.74334759 168 156 164
-0.17384198 -0.53758055 -0.74341774 149 135 160
-0.17732577 -0.54067767 -0.7449165 140 105 132
-0.17418599 -0.54053032 -0.74293637 139 104 141
-0.17432632 -0.5408684 -0.74294597 138 100 138
-0.1747696 -0.5407244 -0.74326473 139 102 138
-0.1754901 -0.53959209 -0.74399668 143 115 143
-0.17441873 -0.53926623 -0.74338663 143 117 148
-0.17706496 -0.53986716 -0.74494767 138 104 133
-0.17701192 -0.54010659 -0.7448532 140 107 134
-0.17500627 -0.53748202 -0.74419791 142 121 151
-0.17341599 -0.53897732 -0.74281156 145 121 150
-0.17333235 -0.5383814 -0.74289972 147 127 153
-0.17985018 -0.54305464 -0.74591291 157 130 145
-0.17897668 -0.54332668 -0.74536765 157 130 147
-0.17845273 -0.54348803 -0.74503589 158 130 148
-0.17840974 -0.54417574 -0.74487919 163 137 154
-0.17863874 -0.54379922 -0.74508291 160 134 151
-0.1789965 -0.54333186 -0.74537802 157 130 147
-0.17418295 -0.5427053 -0.7427128 147 113 145
-0.17727095 -0.54483563 -0.744129 166 140 158
-0.17439757 -0.54198885 -0.74283576 144 108 143
-0.17493743 -0.54479152 -0.74301428 160 132 153
-0.17602651 -0.54446 -0.74354452 161 133 154
-0.17421104 -0.54193008 -0.7427482 143 107 142
-0.17574683 -0.54119134 -0.74378896 139 102 135
-0.17610466 -0.5412671 -0.74400401 140 103 135
-0.17687611 -0.54125243 -0.74450201 140 103 133
-0.17766097 -0.54372656 -0.74453068 159 130 150
-0.17643723 -0.54269612 -0.7439431 151 118 145
-0.17635877 -0.54287618 -0.74385816 152 120 147
-0.17729324 -0.54316467 -0.74440253 154 124 147
-0.18179742 -0.54739594 -0.74641556 194 183 188
-0.1798799 -0.54542238 -0.74552596 175 155 166
-0.17943332 -0.54513723 -0.74530029 172 150 162
-0.17932124 -0.54535663 -0.7452125 173 153 165
-0.18082486 -0.54599661 -0.74600786 181 165 172
-0.18131381 -0.54745853 -0.74613696 194 183 188
-0.17917326 -0.54609162 -0.74505174 180 160 173
-0.18005906 -0.54646915 -0.74552029 184 168 177
-0.17867519 -0.54663599 -0.74468511 181 164 176
-0.17800224 -0.54724264 -0.74419546 182 166 179
-0.17811409 -0.54836529 -0.74411082 189 177 188
-0.17908919 -0.54732049 -0.74484283 187 172 183
-0.17916106 -0.54682153 -0.74495411 185 168 179
-0.17961526 -0.54764283 -0.7451176 191 178 187
-0.17610736 -0.54782861 -0.74309897 184 171 175
-0.17698789 -0.54616481 -0.74378735 175 155 166
-0.17710131 -0.54768717 -0.74364036 184 169 178
-0.17691153 -0.5463655 -0.74372 176 157 167
-0.17680673 -0.54566419 -0.7437827 171 148 162
-0.17642446 -0.54611796 -0.74352533 173 152 164
-0.17533728 -0.54554886 -0.74309886 166 142 158
-0.17676647 -0.54524219 -0.74383271 167 143 159
-0.17534305 -0.54645437 -0.74295294 173 152 164
-0.17600447 -0.54531831 -0.74345577 166 141 158
-0.1822463 -0.5498597 -0.746391 208 200 207
-0.18255711 -0.55209726 -0.74630797 212 202 217
-0.18174726 -0.55182546 -0.74592465 217 208 220
-0.17998312 -0.55255866 -0.74485481 224 216 226
-0.17817652 -0.55017984 -0.74398434 204 194 204
-0.17974131 -0.55163056 -0.74477547 214 206 217
-0.17876612 -0.55098665 -0.74426657 211 202 211
-0.17912118 -0.55161697 -0.74442774 216 208 217
-0.17912029 -0.55184048 -0.74441361 219 211 220
-0.1805182 -0.54897559 -0.74548799 202 194 201
-0.18007167 -0.55052269 -0.74505645 206 197 208
-0.18137145 -0.55019277 -0.74587762 210 203 211
-0.18126169 -0.55149239 -0.7456758 214 206 218
-0.17883097 -0.54970533 -0.74439055 198 188 199
-0.17982642 -0.55003887 -0.7449584 203 194 205
-0.17719987 -0.55081475 -0.74342632 211 202 209
-0.17597245 -0.55232853 -0.74271238 224 216 221
-0.17676885 -0.55268425 -0.74309409 230 223 227
-0.17627883 -0.55014545 -0.74298573 203 194 198
-0.1762964 -0.55083632 -0.74295944 209 201 206
-0.17639773 -0.54971594 -0.74307024 199 189 194
-0.17589864 -0.55163336 -0.74270952 217 209 213
-0.17834471 -0.55481207 -0.74378622 217 211 224
-0.17811228 -0.553922 -0.743716 223 217 226
-0.18052854 -0.55315608 -0.74514085 221 213 226
-0.17913814 -0.55389351 -0.74434221 220 212 224
-0.17766421 -0.55515623 -0.74334395 217 213 225
-0.17736545 -0.55377674 -0.74331671 226 221 228
-0.17666322 -0.55427819 -0.74292445 222 217 226
-0.17653175 -0.55471575 -0.74282581 220 215 225
-0.1769058 -0.55302727 -0.74313897 229 223 227
-0.2024775 -0.52497995 -0.76200473 187 170 178
-0.20134002 -0.52433395 -0.76165634 178 156 163
-0.20267653 -0.52520871 -0.76203132 189 173 182
-0.20070653 -0.52353942 -0.76161146 171 149 156
-0.20298707 -0.52614307 -0.76192671 196 182 190
-0.20275562 -0.52596051 -0.76186484 193 179 187
-0.20164244 -0.52839047 -0.76065236 204 197 200
-0.20165303 -0.52641678 -0.76121187 190 174 181
-0.20134181 -0.5281921 -0.76055992 201 194 196
-0.20270637 -0.52714616 -0.76152587 199 187 194
-0.20306043 -0.52737635 -0.7616356 202 192 198
-0.20308186 -0.52838087 -0.7613641 210 203 208
-0.19914873 -0.52770567 -0.7596702 181 169 177
-0.20069624 -0.52920574 -0.75995469 203 199 201
-0.19937363 -0.52760363 -0.75981867 183 171 179
-0.2007262 -0.52743107 -0.7604875 192 180 185
-0.20043258 -0.52736008 -0.76037401 189 177 183
-0.20522209 -0.53214318 -0.76156342 224 219 229
-0.20557381 -0.53183776 -0.76182669 224 218 229
-0.20513828 -0.53064865 -0.76183534 224 221 228
-0.20407043 -0.53262091 -0.76086432 221 216 225
-0.20145239 -0.53068781 -0.759956 212 209 211
-0.20122156 -0.53096247 -0.75976032 213 210 211
-0.2022247 -0.5323202 -0.75994819 218 214 219
-0.20187733 -0.53073239 -0.76017326 213 210 212
-0.20137036 -0.53301477 -0.75930774 218 216 218
-0.20193535 -0.5294171 -0.76051641 212 209 210
-0.20472184 -0.531784 -0.76138359 223 218 227
-0.20412004 -0.53026503 -0.76141143 221 217 223
-0.2028407 -0.53065145 -0.76069874 215 211 216
-0.20503706 -0.53080529 -0.76174778 224 220 228
-0.2030552 -0.53083539 -0.76076514 216 212 217
-0.20073138 -0.53096908 -0.75952178 208 201 205
-0.200514 -0.5323444 -0.7590611 209 200 207
-0.20071991 -0.53298777 -0.75899225 213 206 212
-0.19855785 -0.53048068 -0.75854868 184 171 183
-0.19917862 -0.53211683 -0.75846583 193 176 191
-0.20031638 -0.53007996 -0.75954032 201 193 199
-0.20013109 -0.53080964 -0.7592684 201 190 198
-0.19977501 -0.53126752 -0.75897586 198 185 195
-0.19982243 -0.53030956 -0.7592333 196 187 194
-0.20681624 -0.5353179 -0.76187921 218 208 225
-0.20751379 -0.53640783 -0.76208878 215 204 223
-0.20539582 -0.53534126 -0.76101828 223 217 229
-0.20645651 -0.53558987 -0.76161802 219 210 226
-0.20607972 -0.53489405 -0.76152784 220 212 227
-0.20684567 -0.53653657 -0.76166505 217 208 225
-0.20205094 -0.53674388 -0.75898015 219 217 225
-0.20208304 -0.53569818 -0.75918025 219 217 223
-0.20426273 -0.53631032 -0.76018876 223 220 228
-0.20349988 -0.53651983 -0.75976139 222 219 227
-0.20160137 -0.53478712 -0.75909364 219 217 221
-0.2038696 -0.53614068 -0.76001728 223 219 227
-0.20273325 -0.53370398 -0.75989169 221 217 223
-0.20314874 -0.53338748 -0.76017946 222 217 225
-0.20437948 -0.53327268 -0.76086563 223 217 228
-0.20488366 -0.53414202 -0.76096135 224 218 230
-0.2017771 -0.5332036 -0.75947779 219 217 220
-0.20361085 -0.53352755 -0.76040006 222 217 226
-0.20100486 -0.53466648 -0.75880861 217 215 219
-0.20038541 -0.53534675 -0.75838929 211 203 212
-0.19948131 -0.53353894 -0.75828505 199 181 197
-0.20063478 -0.53545988 -0.75848776 214 208 215
-0.20704079 -0.53784651 -0.76158011 216 206 223
-0.20668611 -0.53793013 -0.76135272 217 208 224
-0.20661922 -0.53803992 -0.76129848 217 209 224
-0.20798624 -0.53874111 -0.76205188 211 198 218
-0.20550396 -0.53905362 -0.76046759 218 211 224
-0.20701702 -0.5400033 -0.76129395 212 202 218
-0.20674089 -0.53934681 -0.76120967 215 206 221
-0.20824419 -0.54100621 -0.76193208 207 194 213
-0.20577344 -0.53985965 -0.76052707 215 207 221
-0.20400648 -0.54031676 -0.7594381 213 207 219
-0.20416857 -0.54054481 -0.75948304 212 206 218
-0.20385782 -0.54083556 -0.75922334 211 204 217
-0.20315321 -0.53978211 -0.75904268 213 208 219
-0.20425887 -0.54018432 -0.75962305 214 208 220
-0.20353115 -0.53823805 -0.75951844 218 215 224
-0.20296106 -0.53763551 -0.75930953 219 216 225
-0.20377415 -0.53855205 -0.75959963 218 214 224
-0.20466019 -0.53859615 -0.76004726 219 214 225
-0.20344242 -0.53922451 -0.75933719 215 211 221
-0.20728794 -0.54299492 -0.76119512 201 191 209
-0.20776574 -0.54309207 -0.76149094 200 189 208
-0.2066478 -0.54107374 -0.76091713 210 199 216
-0.20760389 -0.54315645 -0.76138431 200 189 208
-0.20736772 -0.54286259 -0.76125431 202 191 210
-0.20610808 -0.54246944 -0.76046485 205 196 213
-0.20601597 -0.5448513 -0.76013643 196 181 207
-0.20580389 -0.54362392 -0.76012951 201 189 211
-0.20700225 -0.54390562 -0.76091135 198 186 208
-0.20630874 -0.54403788 -0.76042598 199 186 209
-0.20627053 -0.54312539 -0.76050192 202 192 211
-0.20583278 -0.54474109 -0.76002443 196 182 208
-0.20408465 -0.5442996 -0.75899869 202 189 212
-0.20434646 -0.54306066 -0.75928527 206 196 215
-0.20362963 -0.54462355 -0.75870466 202 189 212
-0.20322359 -0.54164982 -0.75873792 209 200 214
-0.2034816 -0.54184371 -0.75887966 209 200 215
-0.20387012 -0.54241121 -0.75906962 208 199 216
-0.20357998 -0.54287249 -0.75885278 207 198 215
-0.20290166 -0.54147059 -0.75855589 209 200 214
-0.2057438 -0.54493588 -0.7599436 196 181 207
-0.20668368 -0.54529244 -0.76057547 195 180 205
-0.20802915 -0.54598707 -0.76147681 193 180 202
-0.20786567 -0.54723603 -0.76134479 194 181 202
-0.2071372 -0.54612398 -0.7608692 194 181 204
-0.20689715 -0.54607725 -0.76070702 195 181 204
-0.20574497 -0.54569554 -0.75992918 196 181 207
-0.20567144 -0.54622662 -0.75985646 194 179 206
-0.20643723 -0.54671091 -0.76037443 194 180 204
-0.20618549 -0.54774356 -0.76015693 191 175 202
-0.20527723 -0.54554254 -0.75960714 195 180 207
-0.2065822 -0.54813188 -0.76041979 191 175 201
-0.20502736 -0.54702723 -0.75937593 191 174 204
-0.20449524 -0.54864746 -0.75896996 190 171 203
-0.20441715 -0.54739928 -0.75896937 194 176 206
-0.20343854 -0.54839015 -0.75830704 197 179 208
-0.20346619 -0.54719263 -0.75841111 198 182 209
-0.2035892 -0.54565281 -0.75859451 200 186 210
-0.20561077 -0.5513531 -0.75973356 193 177 204
-0.20604618 -0.55200011 -0.76004171 194 180 204
-0.20638324 -0.55041581 -0.76025677 190 174 201
-0.20516534 -0.55267304 -0.75944066 196 182 206
-0.20809673 -0.55269682 -0.7614665 196 184 202
-0.20546602 -0.55179238 -0.75963849 194 179 204
-0.20806773 -0.5511058 -0.76143605 193 180 200
-0.20799556 -0.55107224 -0.76138532 193 179 200
-0.20679727 -0.54950279 -0.76054353 190 173 200
-0.20821455 -0.5505842 -0.76153857 193 180 200
-0.20832764 -0.5502432 -0.76161766 193 180 200
-0.20743309 -0.5494352 -0.76098949 191 176 200
-0.20492621 -0.55034006 -0.75925463 191 173 203
-0.20481543 -0.55060333 -0.75918508 192 175 204
-0.20458159 -0.55157822 -0.75904292 195 179 206
-0.20347604 -0.54953343 -0.75831217 196 179 207
-0.2043225 -0.54996198 -0.75885803 192 174 204
-0.20873269 -0.55315793 -0.76190495 196 185 201
-0.2052459 -0.55648226 -0.75945401 200 187 204
-0.20856678 -0.55525982 -0.76180524 197 187 201
-0.20698066 -0.55545235 -0.76067883 198 187 203
-0.20798056 -0.55459732 -0.76138258 197 186 202
-0.20667969 -0.55521846 -0.76046276 199 186 203
-0.20684855 -0.55280167 -0.76060367 196 183 204
-0.20731041 -0.55417728 -0.76090699 197 185 202
-0.20832068 -0.55339015 -0.76161408 196 185 201
-0.20690185 -0.55388433 -0.76062799 197 185 203
-0.20736042 -0.55393684 -0.76094425 197 185 202
-0.2083364 -0.55311632 -0.76162809 196 185 201
-0.20833135 -0.55324519 -0.76162314 196 185 201
-0.20431122 -0.5553503 -0.75883895 198 184 206
-0.20435205 -0.55493462 -0.75887102 197 183 206
-0.20486295 -0.55429113 -0.75921947 198 184 206
-0.20335573 -0.55409199 -0.75823003 200 186 208
-0.20404752 -0.55337268 -0.7586953 199 185 208
-0.2041252 -0.55378079 -0.75873923 198 184 207
-0.20849411 -0.55943298 -0.76195008 181 168 191
-0.2054356 -0.55676299 -0.75959837 199 187 204
-0.20573026 -0.55673093 -0.75980586 199 187 203
-0.20580046 -0.55722743 -0.75988859 196 183 202
-0.20594187 -0.55731183 -0.75999475 196 183 201
-0.20871866 -0.55791354 -0.76200932 190 179 196
-0.20651881 -0.55739355 -0.76041043 195 182 200
-0.2051602 -0.55765545 -0.75946736 192 179 198
-0.20754726 -0.56037664 -0.76134545 174 160 185
-0.20568076 -0.55991167 -0.75999743 174 162 185
-0.20594209 -0.55881196 -0.7601018 184 171 192
-0.20557335 -0.55947739 -0.75989032 178 165 187
-0.20635267 -0.56046832 -0.76051086 171 158 183
-0.20481876 -0.55943191 -0.75936878 176 163 187
-0.20366457 -0.56017017 -0.75866812 166 149 181
-0.20461763 -0.5598948 -0.75927097 172 158 183
-0.20418325 -0.55958641 -0.75896478 173 157 185
-0.20392989 -0.55688351 -0.75858897 196 182 203
-0.20384519 -0.5575648 -0.75858718 190 174 199
-0.20365129 -0.55917108 -0.75858676 175 157 188
-0.20795622 -0.56306249 -0.76179409 126 100 149
-0.20686617 -0.56220382 -0.7609759 140 119 159
-0.20843734 -0.56202024 -0.76207143 146 125 165
-0.20722345 -0.56251836 -0.76124597 135 112 155
-0.20794912 -0.56125355 -0.76168245 160 143 175
-0.20760196 -0.56164902 -0.76146132 152 133 169
-0.20626748 -0.5621056 -0.76054466 141 121 159
-0.20573582 -0.56247067 -0.76015699 135 115 153
-0.20628208 -0.56214482 -0.76055652 140 120 159
-0.20517147 -0.5623737 -0.75973362 137 119 153
-0.20536885 -0.56157184 -0.75986117 150 134 165
-0.20462652 -0.56244594 -0.75936162 138 121 153
-0.20461704 -0.56396431 -0.75939256 113 91 131
-0.20442322 -0.56385243 -0.75925922 116 95 133
-0.20461072 -0.56207651 -0.7593419 145 129 158
-0.20324415 -0.56363672 -0.75846106 126 108 139
-0.20291235 -0.56075597 -0.75820661 158 138 176
-0.20410383 -0.56206155 -0.75900221 147 132 160
-0.20340706 -0.56231087 -0.75855017 142 124 156
-0.20817657 -0.56491554 -0.76208985 97 64 122
-0.18779527 -0.54321563 -0.75003046 178 166 167
-0.18843493 -0.54326987 -0.75035 183 171 172
-0.18845029 -0.54377878 -0.75024706 187 176 176
-0.1858566 -0.54484314 -0.74878347 175 158 170
-0.18708891 -0.5444209 -0.74945831 181 167 173
-0.18843873 -0.54465485 -0.75006795 193 182 183
-0.18698995 -0.54380178 -0.74952543 176 162 168
-0.18612662 -0.54488474 -0.74890643 178 161 172
-0.18814597 -0.54383248 -0.7500791 185 174 174
-0.1843981 -0.54447514 -0.74808878 170 152 163
-0.18173407 -0.54458302 -0.74668586 170 152 158
-0.18334025 -0.54391968 -0.74762237 167 149 156
-0.18473588 -0.54453337 -0.74825573 171 153 164
-0.18499255 -0.54405469 -0.74847263 168 150 160
-0.18502937 -0.54337388 -0.74861956 163 145 155
-0.18095277 -0.54303849 -0.74649566 159 137 146
-0.18952161 -0.54818225 -0.75027013 209 205 208
-0.18862289 -0.54548955 -0.75005794 198 188 189
-0.18777867 -0.54535788 -0.74966091 191 179 184
-0.18883234 -0.54776609 -0.74996644 204 197 202
-0.18674478 -0.5460577 -0.74910194 185 171 181
-0.18679924 -0.54542303 -0.74918151 184 170 178
-0.18877238 -0.54708719 -0.74999452 202 195 199
-0.18608944 -0.54794335 -0.74854028 195 184 194
-0.18699402 -0.54877526 -0.74890971 203 195 203
-0.1857086 -0.54532939 -0.74865419 177 160 172
-0.18565956 -0.54513818 -0.74865156 175 158 171
-0.18617624 -0.54695994 -0.74870229 188 176 186
-0.18683046 -0.54796308 -0.74892169 197 187 196
-0.18252642 -0.54773051 -0.74675477 196 185 191
-0.18173678 -0.54556417 -0.74657148 178 162 168
-0.1835577 -0.54824245 -0.7472192 198 188 195
-0.18326132 -0.54703575 -0.74718857 188 175 182
-0.18319975 -0.54780322 -0.74708337 195 184 191
-0.1824028 -0.54494399 -0.74697995 173 155 162
-0.18537372 -0.54611021 -0.7483874 181 165 177
-0.18527378 -0.54603797 -0.74834394 181 165 177
-0.18548389 -0.54731208 -0.74830163 189 176 187
-0.18506357 -0.54528326 -0.74832439 176 158 170
-0.18412337 -0.54560268 -0.74779701 177 161 171
-0.18994087 -0.55040354 -0.7503342 201 190 205
-0.18972349 -0.55010879 -0.75023335 202 194 206
-0.18788277 -0.55197793 -0.74912131 187 169 194
-0.18634541 -0.55138218 -0.74836063 193 176 198
-0.18679182 -0.55270976 -0.74848449 190 169 198
-0.1856572 -0.55011457 -0.74810404 197 183 199
-0.18672058 -0.5519644 -0.74850953 191 172 198
-0.18583399 -0.54994792 -0.74821126 196 183 199
-0.18841963 -0.55011433 -0.74954593 198 187 201
-0.1863102 -0.54899204 -0.74853706 200 190 200
-0.18821803 -0.54941916 -0.74949336 202 194 204
-0.18738748 -0.54985696 -0.74903059 197 185 199
-0.18686657 -0.54935151 -0.74879843 199 189 200
-0.18873663 -0.55039001 -0.74968964 197 186 201
-0.18477038 -0.55035019 -0.7476114 202 191 205
-0.18413451 -0.55222625 -0.74711436 204 189 210
-0.18518233 -0.55197895 -0.74769461 197 179 203
-0.18444386 -0.55159771 -0.74733233 203 189 208
-0.18365471 -0.55141479 -0.74693435 208 197 211
-0.18384923 -0.55130631 -0.74704289 207 196 211
-0.18370187 -0.55029565 -0.74707741 206 196 207
-0.18357691 -0.55035001 -0.74700928 206 196 207
-0.18368545 -0.5501653 -0.74708313 205 196 206
-0.19024217 -0.55531627 -0.75028282 191 178 201
-0.18966578 -0.55282545 -0.75000376 183 164 192
-0.19015604 -0.55563974 -0.75023001 191 179 202
-0.18750684 -0.55591685 -0.74884444 186 168 201
-0.18934071 -0.5566048 -0.74978167 190 178 204
-0.18618205 -0.55368507 -0.74815542 191 171 202
-0.18731801 -0.55631268 -0.74875122 183 164 200
-0.18835838 -0.55590379 -0.74927735 190 175 203
-0.18755867 -0.55629885 -0.74887341 184 166 201
-0.18851744 -0.55295867 -0.74938989 185 166 194
-0.18850407 -0.55508167 -0.74935728 190 174 202
-0.18918656 -0.55513299 -0.74971658 188 173 200
-0.18705168 -0.55339539 -0.74861157 190 171 200
-0.18750307 -0.5533368 -0.74885035 189 169 198
-0.18848489 -0.55295068 -0.74937278 185 166 194
-0.18522984 -0.55454516 -0.7476598 186 164 200
-0.18445028 -0.55524284 -0.7472254 187 168 204
-0.1839173 -0.55569148 -0.74692827 187 170 206
-0.18521346 -0.55540627 -0.74765658 182 160 199
-0.18398629 -0.55510241 -0.74696565 190 173 206
-0.18459597 -0.55333441 -0.74731129 197 178 206
-0.18533435 -0.55294973 -0.74770999 194 172 202
-0.19013388 -0.55756652 -0.75017452 189 177 198
-0.18982327 -0.55795109 -0.74999362 186 173 195
-0.18947871 -0.55759519 -0.7498188 186 174 197
-0.18824515 -0.55749971 -0.74919409 182 165 195
-0.1891592 -0.55709463 -0.74967331 187 174 200
-0.18982117 -0.56110555 -0.7499342 173 159 173
-0.1899876 -0.56276923 -0.75012821 168 154 168
-0.18950352 -0.56126332 -0.74976963 171 157 171
-0.18905386 -0.56144583 -0.74955732 168 152 168
-0.20557874 -0.52114558 -0.76460093 201 193 198
-0.20535928 -0.52110195 -0.76450878 201 194 198
-0.20266208 -0.52120632 -0.76321876 178 158 164
-0.20168087 -0.5210104 -0.76281756 167 141 150
-0.20384669 -0.521088 -0.76381505 188 176 181
-0.2040236 -0.52126825 -0.76384163 191 180 184
-0.20197694 -0.52147806 -0.76280969 173 149 155
-0.20415385 -0.51859564 -0.76466328 182 160 175
-0.20459223 -0.51974356 -0.76453787 191 176 185
-0.20426852 -0.51911825 -0.7645697 185 166 178
-0.20493428 -0.52097613 -0.76434803 199 192 195
-0.20925149 -0.5232873 -0.76591885 204 186 204
-0.20917256 -0.52390462 -0.76575083 209 193 207
-0.20859784 -0.52269572 -0.76569629 204 190 203
-0.20806515 -0.52267176 -0.76544917 205 192 204
-0.20672393 -0.52228016 -0.76489216 205 196 202
-0.20795947 -0.52391469 -0.76515388 212 202 209
-0.20538153 -0.52177894 -0.76435637 204 199 201
-0.20812158 -0.52208447 -0.76559174 201 188 201
-0.20685373 -0.52457672 -0.76436591 212 203 209
-0.20531134 -0.52194673 -0.76426661 204 199 201
-0.20543222 -0.52432275 -0.76362455 208 199 207
-0.20684929 -0.52537018 -0.7641257 213 202 211
-0.20544866 -0.52273631 -0.76410913 205 199 203
-0.20668253 -0.52426201 -0.76436174 211 202 208
-0.20177691 -0.52345467 -0.76212484 177 156 162
-0.20314872 -0.52473819 -0.76239228 191 175 184
-0.20335746 -0.52403921 -0.76269573 191 173 182
-0.20355253 -0.5244624 -0.76266217 194 177 187
-0.20152056 -0.52173984 -0.76251584 169 142 149
-0.20487072 -0.52221626 -0.76395392 202 195 198
-0.20406541 -0.52223116 -0.76356947 194 182 187
-0.20483537 -0.52483565 -0.76315284 205 194 204
-0.20430014 -0.52201712 -0.76374429 196 186 190
-0.20306234 -0.52156508 -0.76329565 184 166 171
-0.21012293 -0.52602303 -0.76588577 209 188 207
-0.20908995 -0.52559018 -0.76536751 219 207 214
-0.21090709 -0.52880877 -0.76576555 203 190 207
-0.20975211 -0.52839035 -0.76512843 209 197 212
-0.20935541 -0.5273779 -0.76511461 213 202 213
-0.20736839 -0.52891815 -0.76355755 215 207 219
-0.20625351 -0.52773237 -0.76319802 214 206 216
-0.20512846 -0.52727026 -0.76264524 216 209 218
-0.20602259 -0.52778524 -0.76304632 215 207 217
-0.2060283 -0.52671552 -0.76332629 211 200 212
-0.20801255 -0.52858734 -0.76402801 211 201 215
-0.20696944 -0.52858371 -0.76340562 215 207 218
-0.20711112 -0.52597135 -0.76413304 213 202 212
-0.2089324 -0.5261851 -0.76512992 218 207 215
-0.20848325 -0.52866405 -0.76428646 211 200 215
-0.20840837 -0.52646285 -0.76476294 215 204 214
-0.20874198 -0.52649337 -0.76494765 216 205 214
-0.20864174 -0.52648818 -0.76489121 216 205 214
-0.20650472 -0.52589583 -0.76380223 211 200 211
-0.20449705 -0.52751404 -0.76227975 213 206 213
-0.20401579 -0.52722239 -0.76213056 208 199 206
-0.20503993 -0.52896714 -0.76215696 223 220 226
-0.20414706 -0.52639365 -0.76240647 205 195 203
-0.21182981 -0.53045446 -0.76599884 202 188 206
-0.21126153 -0.5307675 -0.76557201 206 192 209
-0.21046281 -0.53073108 -0.76507062 209 197 212
-0.21219856 -0.53159457 -0.76599795 204 190 206
-0.20948233 -0.53186822 -0.76413703 214 204 219
-0.21212587 -0.53315359 -0.76560777 209 196 210
-0.20959292 -0.53269696 -0.76401043 216 206 221
-0.20926413 -0.53152865 -0.7640723 214 205 219
-0.21085727 -0.53292209 -0.76480848 212 201 215
-0.20930341 -0.53294879 -0.76375413 217 208 222
-0.20925148 -0.5324344 -0.76384389 216 207 222
-0.20736247 -0.53288895 -0.76262552 220 212 226
-0.20759997 -0.53238636 -0.76288331 219 211 225
-0.20881002 -0.53259128 -0.76352596 217 209 223
-0.208077 -0.5322051 -0.76320022 218 209 224
-0.20545687 -0.52944016 -0.76228493 223 220 227
-0.20718582 -0.53146267 -0.76285857 218 211 224
-0.20655282 -0.53283691 -0.76216811 221 215 228
-0.20666865 -0.52996224 -0.7628904 219 213 224
-0.20658758 -0.52952051 -0.76294225 219 214 223
-0.20776772 -0.53015888 -0.76350242 215 207 221
-0.20606491 -0.53058726 -0.76238763 222 217 226
-0.21293746 -0.5364576 -0.7655732 204 183 208
-0.21331248 -0.53628349 -0.7658571 204 183 207
-0.21166192 -0.53338909 -0.76524651 210 198 213
-0.21248583 -0.5361321 -0.76532555 206 185 210
-0.21193872 -0.53383982 -0.76535141 209 195 212
-0.20982434 -0.53397352 -0.76390904 215 204 221
-0.2103698 -0.53367406 -0.76432657 214 203 219
-0.21189739 -0.53547859 -0.7650426 208 190 212
-0.21063204 -0.53430843 -0.76439381 213 200 218
-0.21088849 -0.53644192 -0.76420891 208 191 215
-0.21018921 -0.53579873 -0.76385015 211 196 217
-0.20907304 -0.5348776 -0.76326013 215 204 222
-0.20920633 -0.53399616 -0.76349401 216 207 223
-0.20990019 -0.53601217 -0.76362282 211 196 218
-0.20923819 -0.53641313 -0.76311672 211 197 219
-0.20877232 -0.53632665 -0.76283687 213 200 220
-0.20834503 -0.53565913 -0.76269442 215 204 222
-0.20804209 -0.53350729 -0.76288611 219 211 226
-0.20752843 -0.53496861 -0.76234263 217 208 225
-0.2079488 -0.53549421 -0.76249337 216 206 223
-0.21323903 -0.53748637 -0.76564771 202 181 207
-0.2137671 -0.53953356 -0.76590747 198 184 207
-0.21302561 -0.54059678 -0.76534265 198 186 207
-0.21309097 -0.5397169 -0.76543325 199 185 208
-0.21008788 -0.53875065 -0.76344854 206 192 215
-0.20955943 -0.54007649 -0.76291388 206 191 213
-0.2096608 -0.53969127 -0.76303136 206 192 214
-0.20959017 -0.54009724 -0.76293391 205 191 213
-0.20933202 -0.53814822 -0.76296782 208 194 216
-0.20962524 -0.54055202 -0.76290768 205 190 212
-0.21222121 -0.54086602 -0.76475835 199 187 209
-0.21275342 -0.53950942 -0.76521438 200 185 208
-0.21181977 -0.53763884 -0.76469052 205 185 211
-0.21076903 -0.53731501 -0.76400888 207 189 214
-0.21206315 -0.53860199 -0.76480252 203 186 210
-0.21288028 -0.53900516 -0.76532483 201 183 208
-0.21258403 -0.53751236 -0.76520509 203 182 209
-0.2086402 -0.54053384 -0.76223361 207 193 213
-0.20825404 -0.53956544 -0.76211655 209 196 216
-0.20835504 -0.53812629 -0.76234323 211 197 218
-0.21361433 -0.54164696 -0.76567078 194 183 204
-0.21366876 -0.54166943 -0.7657063 194 183 204
-0.21319178 -0.54409945 -0.76512212 187 173 196
-0.21344863 -0.5443505 -0.76528233 185 170 195
-0.21300785 -0.54374737 -0.7650255 189 175 197
-0.20946105 -0.54442328 -0.76250172 193 179 202
-0.20996726 -0.54359543 -0.76289994 195 181 203
-0.2095383 -0.54254889 -0.76267207 199 185 207
-0.20943469 -0.54332405 -0.76255256 197 182 205
-0.20965874 -0.54178667 -0.7628023 202 187 209
-0.21104814 -0.54367101 -0.76363462 193 178 201
-0.21051747 -0.5414955 -0.76345283 201 187 209
-0.21258275 -0.541363 -0.7649675 197 185 207
-0.21224609 -0.54220515 -0.76463425 195 182 204
-0.21038753 -0.54222065 -0.76328206 199 184 206
-0.20985848 -0.54126436 -0.76299828 203 189 210
-0.21154693 -0.54326129 -0.76401514 193 179 201
-0.21156608 -0.5412004 -0.76424581 200 187 209
-0.20862223 -0.54103166 -0.7621668 206 192 212
-0.21430579 -0.54524529 -0.7658456 181 165 191
-0.2145279 -0.54579228 -0.76600778 181 166 191
-0.21408054 -0.54510379 -0.76568168 181 166 191
-0.21369363 -0.5486846 -0.7653718 188 178 193
-0.21298935 -0.54714572 -0.76485521 189 177 194
-0.21317941 -0.54678851 -0.76500767 187 175 194
-0.20945823 -0.54597354 -0.76245046 192 179 200
-0.21137367 -0.54811078 -0.76372468 192 182 197
-0.21180388 -0.54867041 -0.76400948 192 182 196
-0.21046391 -0.54646319 -0.76313043 192 180 199
-0.21165581 -0.54825711 -0.7639153 192 182 197
-0.21028848 -0.54713279 -0.7629987 192 180 199
-0.21110773 -0.54596007 -0.76357949 190 178 198
-0.21254405 -0.54661655 -0.76455098 189 177 195
-0.21161309 -0.54525381 -0.76393712 188 174 196
-0.21126772 -0.54541522 -0.7636981 189 175 197
-0.21258771 -0.54528761 -0.76460332 187 172 194
-0.21003157 -0.54518127 -0.7628563 190 177 199
-0.2094032 -0.54495996 -0.76243019 191 178 201
-0.21390046 -0.54930818 -0.76551789 188 177 192
-0.2139731 -0.54952872 -0.76556891 188 176 192
-0.2131522 -0.55159962 -0.76496047 191 179 194
-0.21349087 -0.55150276 -0.76519614 189 178 193
-0.21325664 -0.55173355 -0.76503479 190 179 194
-0.21013772 -0.55239266 -0.76287705 194 183 199
-0.21019913 -0.5515607 -0.7629115 194 184 199
-0.21179824 -0.55013752 -0.76400626 193 184 197
-0.21176122 -0.55058587 -0.76398498 193 183 197
-0.2101445 -0.55189186 -0.76287687 194 184 199
-0.2123701 -0.55239218 -0.7644245 192 181 196
-0.20924044 -0.55174536 -0.76225525 195 183 200
-0.2092142 -0.54972309 -0.76223481 193 181 198
-0.21067515 -0.54938853 -0.76323462 193 182 197
-0.21018353 -0.55007035 -0.76289886 193 182 198
-0.21129565 -0.55013227 -0.76366037 193 184 197
-0.20935605 -0.54932421 -0.76233149 193 180 198
-0.20913942 -0.5506798 -0.7621848 194 182 199
-0.21341644 -0.55402076 -0.76522934 186 174 192
-0.21429926 -0.55612725 -0.765966 178 164 186
-0.21438518 -0.55430984 -0.76592267 182 168 187
-0.21337256 -0.5553543 -0.76523209 183 169 191
-0.2135838 -0.55553764 -0.76540279 182 168 190
-0.21005298 -0.5529111 -0.7628231 194 183 199
-0.20966551 -0.55477726 -0.7625705 195 186 200
-0.21091276 -0.55308986 -0.76342064 194 182 198
-0.21034369 -0.55331862 -0.76302814 194 183 199
