ply
format ascii 1.0
comment PCL generated
element vertex 1018
property float x
property float y
property float z
property uchar red
property uchar green
property uchar blue
element camera 0
property float view_px
property float view_py
property float view_pz
property float x_axisx
property float x_axisy
property float x_axisz
property float y_axisx
property float y_axisy
property float y_axisz
property float z_axisx
property float z_axisy
property float z_axisz
property float focal
property float scalex
property float scaley
property float centerx
property float centery
property int viewportx
property int viewporty
property float k1
property float k2
end_header
-0.21890548 0.21395743 -0.82027894 170 159 158
-0.21859105 0.21466102 -0.82008648 169 155 155
-0.21778804 0.21441348 -0.81881297 175 165 163
-0.21728629 0.21505059 -0.81831121 175 165 164
-0.21859957 0.21377411 -0.81975907 173 164 161
-0.21883824 0.21347247 -0.8199982 173 164 161
-0.21749616 0.21184459 -0.81764013 170 163 159
-0.21904522 0.21281424 -0.82007873 172 165 161
-0.2203078 0.20632346 -0.82047671 153 136 142
-0.21921149 0.20541489 -0.81848115 143 129 134
-0.21938814 0.20741172 -0.81949914 150 137 141
-0.21840033 0.20532613 -0.81722426 138 126 130
-0.2185957 0.20548363 -0.8175782 139 127 132
-0.2181067 0.20569848 -0.8168928 137 126 130
-0.21818593 0.20761301 -0.81767064 144 132 137
-0.2184291 0.20761973 -0.81806093 145 133 138
-0.21825975 0.20761773 -0.81779009 144 132 137
-0.21787463 0.2083158 -0.81741309 145 132 138
-0.21833566 0.20844956 -0.81819421 148 135 140
-0.22082646 0.20297523 -0.82002485 146 124 130
-0.22076808 0.20220859 -0.81964958 144 121 127
-0.22073212 0.20140964 -0.81929755 142 117 123
-0.22045445 0.20294444 -0.81950551 145 123 131
-0.22028843 0.20182395 -0.81888062 141 118 126
-0.21955907 0.20117201 -0.81771606 136 112 123
-0.22063856 0.20151436 -0.81920916 142 118 124
-0.21868202 0.2042211 -0.8173402 137 122 129
-0.21955128 0.20436826 -0.8186906 143 126 134
-0.2190322 0.20285618 -0.81752396 137 117 128
-0.21855862 0.20492123 -0.81733084 138 125 130
-0.21962494 0.20490147 -0.81893671 144 128 135
-0.21830811 0.2050171 -0.81697667 136 125 129
-0.2212002 0.20076303 -0.81978619 141 118 122
-0.22120774 0.20098795 -0.81988394 140 116 120
-0.22137615 0.19881505 -0.81913346 153 136 137
-0.22094654 0.19799162 -0.81783479 165 150 148
-0.22145292 0.19815229 -0.8189069 157 143 142
-0.2219715 0.19774804 -0.81968272 154 142 141
-0.22215736 0.19782411 -0.82008594 151 139 139
-0.22078298 0.19818266 -0.81762606 166 150 148
-0.22041598 0.19868772 -0.81739348 161 144 144
-0.2191644 0.20093681 -0.8170833 136 113 125
-0.22023857 0.19960459 -0.81768829 153 133 136
-0.22016121 0.19833995 -0.81687403 163 147 147
-0.22047244 0.19752298 -0.81680518 172 158 153
-0.221092 0.19509727 -0.81681496 171 159 158
-0.22219884 0.19704649 -0.81975931 155 145 144
-0.22210027 0.19669664 -0.81942344 157 146 145
-0.22240576 0.19655176 -0.81995535 153 143 143
-0.22260523 0.19719268 -0.82060724 150 140 140
-0.22157617 0.19414419 -0.8173511 165 154 156
-0.22138295 0.19710767 -0.81820387 166 154 151
-0.22252822 0.19582504 -0.81984818 156 145 145
-0.2227712 0.19617087 -0.82044357 154 144 142
-0.2223552 0.19549309 -0.81938523 157 147 147
-0.22266781 0.19433855 -0.81942403 162 151 149
-0.22168772 0.19396836 -0.81748831 165 153 155
-0.22274885 0.19559354 -0.82014072 156 146 145
-0.22290061 0.19577585 -0.82049733 155 145 143
-0.22419409 0.18952744 -0.81950229 185 173 177
-0.22397913 0.1901387 -0.81951952 180 168 169
-0.22397234 0.19127671 -0.82011765 176 164 162
-0.22408231 0.19176555 -0.82054311 175 164 160
-0.22372337 0.19306155 -0.82069391 167 156 150
-0.22338915 0.19219521 -0.8197307 166 155 152
-0.22362264 0.19252457 -0.82025671 167 156 152
-0.22268878 0.19090219 -0.81793892 164 153 157
-0.22203496 0.19136985 -0.81696498 165 154 159
-0.22216117 0.19294965 -0.81788552 166 155 156
-0.22324814 0.19275084 -0.81975847 165 154 150
-0.22204544 0.19158205 -0.81707698 165 154 159
-0.22235546 0.19085997 -0.81731933 165 153 158
-0.22487806 0.18922184 -0.82047057 186 174 176
-0.22490929 0.18608446 -0.81915897 137 118 121
-0.22465502 0.1884546 -0.81973243 173 159 162
-0.22469473 0.18819456 -0.81968999 170 155 158
-0.22498778 0.18824884 -0.8202216 179 165 169
-0.22453624 0.1872012 -0.81902301 148 130 134
-0.22429247 0.18622296 -0.81829238 125 105 109
-0.2243149 0.18717968 -0.81873053 143 126 129
-0.22253285 0.18912581 -0.81686556 158 146 154
-0.22334218 0.18754154 -0.81750286 135 119 125
-0.22319418 0.18850222 -0.81762767 153 140 146
-0.22351702 0.18639281 -0.81735039 113 95 100
-0.22359358 0.18792224 -0.81801474 146 131 136
-0.22465046 0.18379357 -0.8175754 116 96 103
-0.22547124 0.1853856 -0.81981939 143 124 129
-0.22480625 0.18304349 -0.81744194 121 103 111
-0.22548217 0.18393835 -0.81908208 141 124 131
-0.22480707 0.18432167 -0.81811124 123 103 109
-0.22590588 0.18203753 -0.81919718 139 123 129
-0.22589864 0.1820107 -0.81917065 138 123 129
-0.22531798 0.18305595 -0.81836456 135 117 126
-0.22636981 0.18290387 -0.8205443 150 135 138
-0.2264944 0.18234269 -0.8205781 149 135 137
-0.2243021 0.18338726 -0.81690973 107 88 96
-0.22452195 0.18481269 -0.81792074 115 94 99
-0.22451936 0.18364793 -0.81732112 112 92 100
-0.22645928 0.17919932 -0.81884789 144 120 131
-0.22662239 0.1798688 -0.81954378 142 122 130
-0.22677557 0.18036753 -0.82012141 140 123 128
-0.22628103 0.17900307 -0.81840003 148 122 135
-0.22716209 0.17988853 -0.82056439 128 110 116
-0.22689374 0.17976697 -0.81999171 134 115 122
-0.22641939 0.18140197 -0.82000262 146 131 134
-0.22872339 0.17537022 -0.82060069 96 76 81
-0.2279695 0.1745954 -0.81903458 98 83 84
-0.22822124 0.17521627 -0.8197192 94 76 80
-0.2281681 0.17496546 -0.81950784 95 78 81
-0.22751132 0.17583321 -0.8191089 103 87 89
-0.22773185 0.1755677 -0.81925744 100 84 86
-0.22768071 0.17599538 -0.81942701 101 84 87
-0.22631314 0.17763247 -0.81768006 141 111 128
-0.22710748 0.17716026 -0.81898379 117 94 104
-0.22694741 0.17694461 -0.81860161 120 98 107
-0.22661707 0.177645 -0.81825316 132 104 120
-0.22654767 0.17725305 -0.81797278 132 106 120
-0.22657953 0.17626759 -0.81765354 127 107 114
-0.22940518 0.17277564 -0.82063305 121 103 105
-0.22977947 0.17092176 -0.82061255 139 121 122
-0.22987397 0.1703552 -0.82056803 143 126 127
-0.22887835 0.17261291 -0.8195231 106 89 92
-0.22933561 0.1700916 -0.81925309 122 103 106
-0.22928983 0.16997413 -0.81909305 121 101 105
-0.22958735 0.17006792 -0.81979471 132 114 116
-0.2297733 0.17056166 -0.82045335 140 123 123
-0.22788323 0.173134 -0.81814849 99 84 85
-0.22750664 0.17184648 -0.81700754 102 86 88
-0.22395651 0.22853836 -0.83976221 150 117 120
-0.2248359 0.22661479 -0.83765864 147 119 123
-0.22470668 0.22680056 -0.83973855 152 127 125
-0.22504328 0.22603422 -0.83701169 148 123 124
-0.2247154 0.2269147 -0.83839124 148 120 122
-0.22548401 0.22526461 -0.83914322 152 131 127
-0.22506802 0.22594282 -0.83883566 153 130 126
-0.22516243 0.22584754 -0.83918637 153 130 126
-0.22503747 0.22619464 -0.83978045 152 129 126
-0.22444932 0.2274645 -0.83989072 151 123 123
-0.22640032 0.22125176 -0.83816922 170 157 146
-0.22652425 0.2218388 -0.83962202 165 151 138
-0.22661531 0.22080591 -0.83877373 171 159 145
-0.22613916 0.22229785 -0.83809507 165 151 143
-0.22623391 0.2229955 -0.83953124 160 144 135
-0.22613719 0.2236187 -0.83981234 157 139 132
-0.22590293 0.22244895 -0.83639336 166 151 143
-0.22558258 0.22459134 -0.83681983 153 134 128
-0.2257989 0.22386864 -0.83760124 157 139 133
-0.2258783 0.22311865 -0.83717197 161 145 139
-0.22571567 0.22377907 -0.83675742 158 140 134
-0.22608684 0.22172937 -0.83690238 169 156 148
-0.22703613 0.21859519 -0.83919954 174 160 150
-0.22691481 0.22051196 -0.84012526 170 158 140
-0.22700298 0.21794158 -0.83793873 175 160 156
-0.22692047 0.22001 -0.83955175 171 158 143
-0.2269921 0.21770109 -0.83749163 175 161 158
-0.22666794 0.22057369 -0.83878452 172 160 145
-0.22691761 0.21981558 -0.8393113 171 158 145
-0.22674 0.21940754 -0.83787125 173 160 152
-0.22698718 0.21691789 -0.8364374 176 161 164
-0.22625789 0.2206575 -0.83661318 175 163 154
-0.22669676 0.22038992 -0.83873695 172 160 146
-0.22749518 0.21501404 -0.83965009 176 157 148
-0.22765748 0.21291788 -0.83857042 173 153 142
-0.22732739 0.21524116 -0.83888751 177 159 152
-0.22766823 0.21453774 -0.84020221 175 155 144
-0.22734803 0.21451047 -0.8383007 175 158 150
-0.22730125 0.21404251 -0.83757359 175 158 151
-0.2272674 0.21402487 -0.83723736 174 158 152
-0.22721566 0.21516463 -0.83764338 176 159 155
-0.22723059 0.21562055 -0.83825743 177 160 155
-0.22718781 0.21664184 -0.83866674 178 161 158
-0.22722296 0.21564497 -0.83818352 177 160 155
-0.22784168 0.21057068 -0.83858413 153 126 123
-0.2277211 0.20905742 -0.83728135 139 108 113
-0.22799273 0.20956652 -0.83871692 149 122 120
-0.2277156 0.21005405 -0.83777291 146 117 118
-0.22806823 0.2115005 -0.84004265 165 142 131
-0.22788967 0.20924981 -0.83810842 145 116 117
-0.22768156 0.21269204 -0.83861679 171 150 140
-0.22775072 0.21257935 -0.83898294 169 148 137
-0.22768717 0.21176411 -0.83832973 161 137 131
-0.22745033 0.21144739 -0.83683366 158 135 133
-0.22755602 0.20974131 -0.83686441 141 111 115
-0.22806634 0.2065853 -0.83966035 142 122 114
-0.227915 0.20682772 -0.83871245 142 125 117
-0.2281308 0.20657547 -0.8400135 142 122 114
-0.22790594 0.20634507 -0.83892554 140 122 114
-0.22783442 0.20556295 -0.83896422 136 119 111
-0.22747406 0.20773123 -0.83647066 133 108 110
-0.22819036 0.20829828 -0.83942944 150 128 122
-0.22749339 0.20682991 -0.83676535 134 115 112
-0.22762255 0.20879191 -0.8368631 136 106 111
-0.22779122 0.20838137 -0.83768725 141 114 115
-0.22803515 0.20843495 -0.83872753 147 122 119
-0.22789998 0.20168844 -0.83696514 147 124 128
-0.22574268 0.20170662 -0.83996946 93 66 76
-0.22686666 0.20149425 -0.83819848 122 97 104
-0.22657488 0.20287882 -0.84000599 109 84 87
-0.22581282 0.20121369 -0.83937269 98 70 81
-0.22765535 0.20326757 -0.83890462 134 112 111
-0.22673622 0.2016962 -0.83858377 118 93 100
-0.22768691 0.20432214 -0.83771646 136 121 114
-0.22794375 0.2045912 -0.83935666 136 118 110
-0.22753258 0.2040913 -0.83666545 136 123 117
-0.22756684 0.20470704 -0.8374328 134 120 113
-0.2279467 0.20190769 -0.8368336 148 126 129
-0.22894405 0.19788781 -0.836604 166 143 140
-0.22901814 0.19737317 -0.83710855 160 138 134
-0.22882125 0.19829163 -0.83672655 161 138 136
-0.22865914 0.19764398 -0.83946925 113 90 88
-0.22695926 0.20084488 -0.8381936 120 94 102
-0.22771661 0.19880886 -0.83994585 98 74 76
-0.22788228 0.19919777 -0.8391816 110 86 88
-0.22774804 0.19939384 -0.83909768 110 86 89
-0.22760586 0.20008089 -0.83834946 120 96 101
-0.22607927 0.20058002 -0.83977586 93 65 75
-0.22702521 0.20097969 -0.83791685 124 99 106
-0.2271892 0.1994807 -0.83975172 98 73 78
-0.22839648 0.19904408 -0.83830696 127 103 104
-0.228457 0.19861107 -0.838857 119 95 96
-0.22902718 0.19558819 -0.83999109 110 89 87
-0.22931446 0.19395161 -0.83952904 124 105 103
-0.22923793 0.19431098 -0.84000337 118 99 97
-0.22928421 0.19416854 -0.83937311 124 104 102
-0.22933282 0.19370313 -0.84015894 121 102 101
-0.22913739 0.19502005 -0.83954042 117 96 94
-0.22913125 0.19571173 -0.83793223 135 113 109
-0.22906385 0.19696362 -0.83739287 153 130 126
-0.22948879 0.19372685 -0.83635759 155 135 129
-0.22906692 0.19662136 -0.83768916 145 122 118
-0.22900683 0.1971789 -0.83774042 147 124 120
-0.22972003 0.19225749 -0.8395099 128 108 109
-0.23026218 0.19060493 -0.83766586 147 124 127
-0.22960925 0.19254379 -0.84013015 120 100 101
-0.23043904 0.18984127 -0.83812732 136 111 117
-0.23056717 0.18957774 -0.83709008 150 125 130
-0.22968164 0.19276273 -0.83678681 151 130 127
-0.22972403 0.19258809 -0.83699381 150 129 126
-0.23005879 0.19146356 -0.836613 155 132 132
-0.2295081 0.19304383 -0.83937132 130 111 110
-0.22969058 0.19260645 -0.83777523 144 123 121
-0.23017734 0.19094796 -0.8374061 150 127 129
-0.23137553 0.1868754 -0.83842665 120 101 105
-0.23153523 0.18634444 -0.83783567 124 108 110
-0.23099189 0.18793459 -0.83921361 113 91 97
-0.23101978 0.18766482 -0.83859289 114 96 99
-0.23197474 0.18555713 -0.83817959 130 110 116
-0.23061131 0.1891441 -0.83834469 128 104 110
-0.23065624 0.18931769 -0.83672768 154 129 134
-0.23090762 0.18800949 -0.83839113 118 99 102
-0.23062076 0.18942039 -0.83687788 153 127 132
-0.23079082 0.18853666 -0.83799696 128 107 111
-0.23082493 0.18870337 -0.83660525 151 129 132
-0.23229358 0.18190788 -0.83952385 145 133 127
-0.23220907 0.18359187 -0.8393898 130 108 114
-0.2323453 0.18248169 -0.83977562 145 130 128
-0.23218955 0.18474756 -0.83960116 126 97 110
-0.23171099 0.18268 -0.83749974 102 85 87
-0.23210289 0.18502852 -0.83910984 125 99 110
-0.23157315 0.18322505 -0.83657742 105 94 91
-0.23192629 0.18521802 -0.83797807 127 108 112
-0.23190808 0.18477722 -0.83802879 122 102 108
-0.23163646 0.18394715 -0.83669591 113 101 99
-0.23201068 0.18537828 -0.83842766 129 107 114
-0.23140503 0.18138489 -0.8380385 103 92 87
-0.23098381 0.18118495 -0.83874166 98 86 81
-0.2299283 0.18091705 -0.83890212 69 58 53
-0.23038061 0.18107037 -0.83856869 79 68 63
-0.23078915 0.18098247 -0.83982319 102 90 85
-0.23220845 0.18133099 -0.83968788 141 129 123
-0.23164622 0.18157822 -0.83715326 102 91 86
-0.22942103 0.17899458 -0.83752745 53 40 40
-0.22890152 0.17850386 -0.83799708 45 31 32
-0.2293158 0.18045895 -0.83893138 54 43 38
-0.22873434 0.17951867 -0.83912975 44 31 29
-0.22876425 0.1784143 -0.83815473 42 28 29
-0.23128736 0.18157186 -0.83652204 86 75 71
-0.23162919 0.18085968 -0.83637333 85 70 69
-0.23140673 0.18089812 -0.83645064 83 69 68
-0.23119684 0.18082179 -0.83654052 81 67 66
-0.23012589 0.1798199 -0.83709115 65 52 51
-0.21586628 0.21429382 -0.81615222 172 163 160
-0.21548972 0.21478157 -0.81582558 168 157 157
-0.21570902 0.21419773 -0.8159126 171 162 159
-0.21589763 0.21529651 -0.81653863 171 160 160
-0.21696925 0.20912959 -0.81629777 148 137 142
-0.21734814 0.20803726 -0.81651574 144 132 138
-0.21799655 0.20542392 -0.81663495 137 126 130
-0.2168777 0.20563236 -0.81496555 147 137 141
-0.21740629 0.20539564 -0.81570542 142 132 136
-0.21529074 0.20512746 -0.81299245 132 121 127
-0.21602036 0.20591579 -0.8140794 140 129 134
-0.21592009 0.20643687 -0.81415236 139 128 134
-0.21673328 0.20748478 -0.81542373 147 137 142
-0.21579768 0.20802806 -0.81445074 140 129 134
-0.21585752 0.20785451 -0.81448299 140 129 134
-0.21493772 0.20804332 -0.81332183 133 123 127
-0.2163768 0.20868815 -0.81539094 145 133 139
-0.21588975 0.20886785 -0.81479752 141 131 136
-0.21836002 0.20239915 -0.81638026 136 117 128
-0.21811809 0.20433499 -0.81650829 137 124 129
-0.21814929 0.20463784 -0.81663591 136 124 129
-0.21757382 0.20428865 -0.81564832 141 129 134
-0.21760646 0.20167719 -0.81497061 141 121 132
-0.21687432 0.2045083 -0.81460506 147 136 140
-0.21791935 0.20246688 -0.81569964 139 121 131
-0.21705741 0.20316921 -0.81451565 145 130 138
-0.21740909 0.20316392 -0.81507933 143 127 135
-0.21661985 0.20201105 -0.81355268 144 126 136
-0.21533515 0.20485182 -0.81295651 133 121 127
-0.21539535 0.20486775 -0.81302798 133 122 128
-0.21582162 0.20337826 -0.81305498 136 122 130
-0.21744746 0.19767718 -0.81314754 146 126 138
-0.21780095 0.19857799 -0.81408238 142 122 135
-0.21759099 0.19946975 -0.81410795 143 122 135
-0.21783656 0.19927409 -0.81442302 141 121 133
-0.21723922 0.20032845 -0.8138923 144 123 136
-0.2174542 0.20001565 -0.8141104 143 122 135
-0.21791743 0.1986416 -0.81428862 142 121 134
-0.21861573 0.19843332 -0.81502974 149 131 139
-0.21975987 0.19852911 -0.81648362 159 142 144
-0.21925259 0.19841768 -0.8158012 155 137 142
-0.21930049 0.19819552 -0.81573808 157 140 144
-0.21922937 0.19736883 -0.81519789 162 146 148
-0.21931076 0.19971995 -0.81658626 147 127 135
-0.2208591 0.19518204 -0.81645823 175 163 161
-0.22136518 0.19353743 -0.81670707 169 157 159
-0.22005436 0.19572805 -0.81552839 166 157 153
-0.21748865 0.19724901 -0.81300229 147 129 140
-0.21976595 0.19656743 -0.81550789 165 153 150
-0.21974538 0.19618958 -0.81532538 164 153 150
-0.21809317 0.19694901 -0.81361783 152 135 143
-0.21970581 0.19698212 -0.81560689 166 152 151
-0.21810882 0.19632618 -0.81337774 150 136 142
-0.22100745 0.19317377 -0.81597382 175 165 166
-0.22180533 0.19125073 -0.81652224 168 157 162
-0.22102757 0.1905621 -0.81505156 173 167 168
-0.2211303 0.19206196 -0.8157441 174 165 167
-0.22080046 0.19204234 -0.81522584 176 169 169
-0.22185361 0.1901326 -0.81617928 168 158 164
-0.22105709 0.19133781 -0.81537318 174 166 168
-0.22022732 0.19148387 -0.81427479 173 166 166
-0.22046551 0.19018988 -0.81411582 173 168 168
-0.22071357 0.18777688 -0.81316489 166 154 162
-0.22205064 0.18900253 -0.81598371 162 151 159
-0.22219421 0.18943627 -0.81645596 165 155 162
-0.22145869 0.18711044 -0.81397671 152 134 147
-0.22149231 0.18638971 -0.81361383 147 124 141
-0.22150065 0.18625683 -0.81355029 146 123 139
-0.2221112 0.18589677 -0.81455469 127 105 118
-0.22243655 0.18898071 -0.81663126 157 145 153
-0.22224765 0.18588579 -0.81481457 124 102 114
-0.22211432 0.18566772 -0.81445354 124 101 115
-0.22197413 0.18630096 -0.8144778 136 114 128
-0.22053224 0.18815485 -0.81315809 167 157 163
-0.22297886 0.18341468 -0.81503814 111 92 103
-0.22257255 0.18249559 -0.8139261 119 102 116
-0.22393519 0.18326849 -0.81632811 107 88 98
-0.22365667 0.18455997 -0.8166703 99 80 86
-0.22224675 0.18391696 -0.81396109 123 102 116
-0.22265628 0.18451203 -0.81500953 112 91 102
-0.22236131 0.18361127 -0.81405371 120 101 114
-0.2229244 0.18526499 -0.8158505 104 83 92
-0.22242412 0.18436395 -0.81449568 118 97 109
-0.22246489 0.18537539 -0.81500489 115 93 104
-0.2260264 0.17560233 -0.8162356 136 117 122
-0.2261218 0.17467287 -0.81600392 128 115 114
-0.22586945 0.17531037 -0.81571019 136 118 122
-0.22629008 0.17536969 -0.81675833 131 114 117
-0.22612809 0.16997758 -0.81350309 108 88 91
-0.22680627 0.1709145 -0.81526774 105 87 90
-0.22657235 0.17161977 -0.8153106 109 94 94
-0.22632189 0.169971 -0.81383365 106 86 90
-0.22635397 0.16908854 -0.81340587 105 83 90
-0.22636169 0.16934098 -0.81355613 105 84 90
-0.22398891 0.22467132 -0.83230042 168 148 138
-0.22326195 0.22494127 -0.83105463 166 146 141
-0.22367267 0.2249402 -0.83178961 166 147 139
-0.22337443 0.22510125 -0.83128887 165 146 140
-0.22436571 0.22081994 -0.83128613 176 159 140
-0.22448705 0.22190608 -0.83197689 174 154 137
-0.22418791 0.22322126 -0.8320412 171 152 138
-0.22313944 0.22116582 -0.82939601 178 165 152
-0.22338387 0.22258757 -0.83041352 174 159 147
-0.22412972 0.22300725 -0.8318519 172 153 139
-0.22339581 0.22301233 -0.83060169 173 157 146
-0.22292328 0.22194131 -0.82933712 176 162 152
-0.22284697 0.22302602 -0.82962459 172 156 149
-0.22279651 0.22295699 -0.82950729 172 156 149
-0.22501622 0.21976978 -0.83228683 177 158 145
-0.22464395 0.21795261 -0.83107257 182 161 153
-0.22492997 0.21802458 -0.83169204 180 161 155
-0.22445504 0.21696472 -0.83046764 183 162 157
-0.22376296 0.21682972 -0.82908148 180 159 153
-0.22448646 0.21875536 -0.83094585 179 160 148
-0.2242876 0.2200634 -0.83090061 176 159 141
-0.22325687 0.22033998 -0.8292706 178 166 151
-0.22350726 0.22022377 -0.829651 178 164 149
-0.22387424 0.21918048 -0.82993191 177 160 146
-0.22334962 0.21859626 -0.82887244 179 162 152
-0.22560984 0.21475123 -0.83185446 178 159 161
-0.22529981 0.21601327 -0.83180851 181 161 163
-0.22589761 0.21406771 -0.83213192 176 158 162
-0.22568357 0.2141875 -0.83176082 177 159 161
-0.22498575 0.21404706 -0.83051449 182 164 163
-0.22493805 0.21574357 -0.8309657 182 162 160
-0.22516425 0.21492867 -0.83109915 181 161 161
-0.22572026 0.21360931 -0.83164221 177 160 162
-0.22409298 0.21334442 -0.8288132 184 169 166
-0.22392042 0.21521524 -0.82897067 182 164 159
-0.22403464 0.21396895 -0.82887006 184 168 164
-0.22404996 0.21329376 -0.82872444 184 170 166
-0.2240999 0.21467918 -0.82918257 184 166 162
-0.22624865 0.21059978 -0.83237821 167 150 155
-0.22549945 0.21285641 -0.83103681 178 162 163
-0.22550163 0.21251599 -0.83104813 177 161 162
-0.22603151 0.2122445 -0.83196712 173 157 160
-0.22527413 0.21053773 -0.83062232 167 150 154
-0.22509062 0.21144204 -0.83033329 174 158 159
-0.22518837 0.20909907 -0.83034009 153 131 143
-0.22563297 0.20936722 -0.83123446 159 141 148
-0.22516091 0.21041282 -0.83039004 165 147 152
-0.22447997 0.21063964 -0.82909936 161 140 149
-0.22420888 0.21115758 -0.82869792 166 147 153
-0.22466634 0.20677108 -0.82863784 152 133 135
-0.22531734 0.20884494 -0.8305409 153 132 143
-0.224851 0.20886362 -0.82963073 149 126 140
-0.22482881 0.20853187 -0.82948357 150 127 139
-0.22563642 0.20783216 -0.8308515 159 142 144
-0.2248465 0.20817164 -0.82940596 151 128 139
-0.22510974 0.20553376 -0.82915062 158 142 137
-0.22549313 0.20586182 -0.83021623 156 137 136
-0.22623655 0.20538959 -0.83224034 147 120 130
-0.22605798 0.20551127 -0.83175445 149 124 131
-0.22600222 0.20761438 -0.83168113 158 140 143
-0.22495544 0.20521294 -0.82871461 158 142 136
-0.22456916 0.20705736 -0.82855386 150 130 135
-0.22629066 0.20368852 -0.83154666 154 132 137
-0.22641504 0.20170258 -0.83097774 167 152 149
-0.22638153 0.20338096 -0.8317892 156 134 138
-0.22625469 0.20163199 -0.83019674 169 154 151
-0.2261868 0.20205095 -0.83012444 166 150 149
-0.22656956 0.20185867 -0.83178097 165 148 147
-0.22579536 0.20225047 -0.8289029 169 154 150
-0.22597723 0.2050427 -0.8314898 148 123 130
-0.22605138 0.2028833 -0.83007926 162 143 144
-0.22536092 0.20492536 -0.82970917 155 135 134
-0.22610191 0.20293649 -0.83025777 161 142 143
-0.2257434 0.20405288 -0.83010757 157 137 138
-0.22686398 0.19858897 -0.83023095 169 156 150
-0.22690345 0.19748864 -0.82932669 169 157 150
-0.22692278 0.19876082 -0.83056784 167 154 148
-0.22734627 0.19744524 -0.83061993 158 140 137
-0.22713827 0.19820142 -0.83069658 163 147 143
-0.22685954 0.19772157 -0.82941109 170 158 151
-0.22642654 0.20004623 -0.8297208 172 161 154
-0.22639343 0.19891536 -0.82855862 174 164 156
-0.22651088 0.19922347 -0.82937586 173 162 155
-0.22671552 0.19919002 -0.83029085 171 160 153
-0.22648859 0.1985901 -0.82870775 174 164 156
-0.22603241 0.20087685 -0.82864225 174 162 156
-0.22876738 0.1948505 -0.83169323 180 159 162
-0.22863771 0.19509172 -0.83157772 176 154 157
-0.22900759 0.19388464 -0.8314653 194 175 179
-0.22804594 0.19410157 -0.82970381 179 161 162
-0.22847998 0.19595762 -0.83195788 164 140 143
-0.22827809 0.19677198 -0.83238012 152 126 129
-0.22827005 0.19593306 -0.8316254 161 138 140
-0.22794066 0.19703306 -0.83206648 146 120 123
-0.2277161 0.19647886 -0.83096939 156 134 135
-0.22748514 0.19516997 -0.82928008 173 156 154
-0.22777708 0.19610065 -0.83086586 158 136 137
-0.2272514 0.19698511 -0.82995427 163 147 143
-0.22705437 0.19648498 -0.82898122 172 160 154
-0.22859573 0.19231288 -0.82935983 193 175 179
-0.22918247 0.19230488 -0.83077377 199 180 188
-0.22884859 0.19306561 -0.83043587 198 180 183
-0.22900471 0.19054449 -0.82920367 192 170 182
-0.22896254 0.19116314 -0.82949644 193 172 182
-0.22927864 0.1910547 -0.83022416 195 174 186
-0.2293656 0.19150132 -0.83073515 197 177 188
-0.22939907 0.19114894 -0.83062601 195 175 186
-0.22986001 0.19154418 -0.83218431 196 178 184
-0.22979705 0.19078062 -0.83155757 192 174 181
-0.22957626 0.18992218 -0.83042085 189 168 179
-0.22833031 0.19239536 -0.82897091 190 172 175
-0.23043646 0.18803406 -0.83223635 175 157 162
-0.23051053 0.18699832 -0.83219808 169 149 155
-0.23023784 0.18797891 -0.83136493 183 165 171
-0.23040777 0.18765152 -0.83198166 175 156 162
-0.23021317 0.1878847 -0.83122653 184 166 171
-0.22994013 0.1867972 -0.82970876 190 171 179
-0.22921212 0.18851304 -0.82857209 190 167 181
-0.22987743 0.18741272 -0.82987267 189 170 178
-0.22980723 0.18643111 -0.82912099 192 172 180
-0.22933748 0.18801783 -0.82865608 190 168 181
-0.22942859 0.18867837 -0.82928813 189 167 179
-0.23075554 0.18220377 -0.83051407 145 125 127
-0.23074712 0.18477911 -0.83219332 153 131 137
-0.2308767 0.18215305 -0.83098274 143 121 125
-0.23069625 0.18491492 -0.83207279 154 133 139
-0.22985102 0.1852209 -0.82865483 189 169 177
-0.23045439 0.18350787 -0.83012462 156 139 139
-0.22992136 0.18532987 -0.82902795 186 166 174
-0.23007903 0.18467903 -0.82927924 177 158 163
-0.23040378 0.18277621 -0.82942903 154 138 137
-0.21108878 0.19585353 -0.80481082 105 85 98
-0.21073139 0.19555017 -0.80435634 111 91 102
-0.21133241 0.19574675 -0.80497783 106 85 98
-0.21149416 0.19505884 -0.80480778 114 93 104
-0.21049042 0.1946997 -0.80390149 111 93 101
-0.21118189 0.19360389 -0.8040691 117 99 106
-0.21141434 0.19399214 -0.80435646 119 100 108
-0.21118891 0.19389646 -0.80416352 117 99 106
-0.21180682 0.19372649 -0.80456042 122 103 111
-0.21316569 0.19097881 -0.80500084 114 105 109
-0.21201566 0.19295591 -0.8045035 122 105 111
-0.21172182 0.19227633 -0.80412769 116 103 107
-0.21281478 0.19233333 -0.8049255 125 110 116
-0.21342401 0.18923597 -0.80488229 102 99 100
-0.21352933 0.18876636 -0.80482614 101 97 101
-0.22098093 0.21799572 -0.82450527 191 176 176
-0.22132786 0.21524985 -0.82438445 182 169 165
-0.22101989 0.21594416 -0.82409203 183 168 165
-0.22084275 0.2159819 -0.82383519 183 168 165
-0.22093605 0.21470208 -0.82366019 181 168 165
-0.2213418 0.21373254 -0.82408142 178 166 163
-0.22016023 0.21382785 -0.82212448 178 167 164
-0.22039586 0.21542057 -0.82293612 181 167 164
-0.21995205 0.21341531 -0.82166332 176 166 163
-0.22052172 0.21678813 -0.82356411 182 166 163
-0.21905737 0.21546447 -0.8210873 165 146 147
-0.21927993 0.21581714 -0.82151926 168 149 149
-0.21934536 0.21492553 -0.82128161 169 153 153
-0.22027966 0.21615545 -0.82300311 180 164 162
-0.22141519 0.21262807 -0.82391495 174 164 160
-0.22172223 0.21128501 -0.82405883 161 150 147
-0.2216526 0.2121536 -0.82417893 169 158 155
-0.22173573 0.21032108 -0.82382733 154 142 140
-0.22180937 0.21009167 -0.82388884 151 139 138
-0.22180144 0.20952223 -0.82373941 148 136 135
-0.22058353 0.21279618 -0.82259172 179 169 167
-0.2198904 0.21231937 -0.82134199 172 163 160
-0.22111075 0.20729691 -0.82197285 151 135 139
-0.22111222 0.2075828 -0.82206726 152 136 140
-0.22131062 0.20681638 -0.82213485 148 131 135
-0.22139964 0.20843199 -0.82279587 150 135 137
-0.22158518 0.20590833 -0.82254875 149 133 135
-0.22245505 0.2064514 -0.82446963 148 135 132
-0.22238056 0.20774178 -0.82440495 142 129 127
-0.22253314 0.20537116 -0.82455766 152 140 136
-0.22169241 0.20570002 -0.82276499 150 134 136
-0.22162107 0.20679127 -0.82269228 146 129 132
-0.22060153 0.20647566 -0.8209362 155 137 144
-0.22314487 0.20193343 -0.82374036 160 143 145
-0.22308153 0.20177568 -0.82353354 159 142 143
-0.22288652 0.20259301 -0.82368004 157 140 140
-0.22288316 0.20333849 -0.82412225 157 143 141
-0.22271422 0.20166489 -0.82281744 154 134 136
-0.22309987 0.20311141 -0.82436895 160 146 145
-0.22326531 0.20279406 -0.8244707 163 148 148
-0.22210468 0.2048161 -0.82347542 152 137 136
-0.22209118 0.20401961 -0.82303804 149 133 132
-0.2218961 0.20227024 -0.82171994 142 121 121
-0.22196397 0.20326909 -0.82237852 146 127 127
-0.22157513 0.20224762 -0.82101458 142 119 121
-0.22132854 0.20489876 -0.82184011 151 134 138
-0.22393619 0.19748789 -0.82280523 165 151 152
-0.2243557 0.19770445 -0.82355881 171 154 156
-0.22338688 0.19789062 -0.82216793 160 147 148
-0.22419401 0.19903506 -0.82398713 172 156 158
-0.2243391 0.19949092 -0.82444072 175 158 160
-0.22317919 0.19797732 -0.82189286 158 145 146
-0.22367951 0.19953445 -0.82344937 166 152 154
-0.22184785 0.20116268 -0.8209852 140 117 118
-0.22243753 0.20038748 -0.82169342 149 129 131
-0.22214535 0.19931139 -0.82071257 143 126 127
-0.22273408 0.19782032 -0.82111031 151 140 141
-0.22277246 0.20076059 -0.82244664 154 135 137
-0.22266561 0.20006855 -0.82195914 152 134 136
-0.2250879 0.19630133 -0.82407445 171 155 156
-0.22505401 0.19650181 -0.82410645 172 155 157
-0.22507155 0.19488311 -0.82344174 172 157 155
-0.22583544 0.19396479 -0.8242653 168 156 153
-0.22576907 0.19404477 -0.82419384 168 156 153
-0.22486158 0.19657695 -0.82383156 172 156 157
-0.22395855 0.19430555 -0.82156646 168 155 151
-0.22412889 0.19341287 -0.82141852 170 157 152
-0.22451162 0.19365345 -0.82204628 174 159 155
-0.22404082 0.19510527 -0.82201731 168 154 152
-0.22350165 0.19477056 -0.82106113 162 150 147
-0.22386152 0.19595218 -0.82206976 165 151 150
-0.22338867 0.19481048 -0.8209033 160 149 146
-0.22319441 0.19564946 -0.82092977 157 146 144
-0.22488485 0.19000699 -0.82087427 185 173 174
-0.22510819 0.19061688 -0.82152474 182 170 170
-0.22526325 0.19184288 -0.8223635 177 164 162
-0.22559097 0.19208388 -0.82300156 174 163 160
-0.22525434 0.19091432 -0.82190102 180 168 168
-0.22553883 0.19018079 -0.82217062 172 161 161
-0.22628519 0.19093584 -0.82396275 154 142 140
-0.22581069 0.18951486 -0.82251525 162 150 150
-0.22552265 0.19001304 -0.8220821 172 161 161
-0.22616068 0.19042195 -0.82353669 155 143 142
-0.22545168 0.19096772 -0.82224792 178 167 166
-0.22390349 0.19267304 -0.82075286 170 159 153
-0.22419292 0.19263521 -0.82113147 173 161 156
-0.22631787 0.18609554 -0.82184845 151 135 139
-0.22679095 0.18869527 -0.82415843 135 122 122
-0.22654183 0.18799424 -0.82325596 141 126 127
-0.2269794 0.18768455 -0.82411695 139 127 128
-0.22676407 0.18649976 -0.8230648 146 133 136
-0.22724997 0.18569845 -0.82380599 147 135 139
-0.22644347 0.18896614 -0.82355011 143 129 129
-0.22565003 0.18770465 -0.82124794 165 151 153
-0.22538498 0.18858621 -0.82116038 173 161 162
-0.22628066 0.18817036 -0.82279682 147 133 134
-0.2263757 0.18874246 -0.82329279 145 131 131
-0.22578941 0.18788685 -0.82163173 161 147 149
-0.2285575 0.18235929 -0.82447582 124 99 103
-0.22832175 0.18207771 -0.8238818 126 103 106
-0.22763018 0.18508032 -0.82434505 144 133 137
-0.22764064 0.18281871 -0.82308322 137 121 123
-0.22783214 0.1825588 -0.82328081 134 115 117
-0.22719711 0.18229026 -0.82198548 143 128 129
-0.22747263 0.18423887 -0.82358491 144 132 135
-0.22626539 0.18459564 -0.82104582 154 138 141
-0.22759752 0.1854585 -0.82449478 146 136 139
-0.22649172 0.1829506 -0.82083303 151 136 139
-0.2264086 0.18336001 -0.82082438 152 137 139
-0.22613451 0.18483242 -0.82085031 155 138 142
-0.22706763 0.18460561 -0.82289565 148 136 140
-0.22898953 0.1809999 -0.82455355 134 108 113
-0.22855157 0.18126313 -0.82381743 124 98 103
-0.22898076 0.17968108 -0.8237527 141 118 124
-0.22858407 0.17955925 -0.82282937 119 95 101
-0.22878213 0.18072136 -0.82397395 135 110 115
-0.22937259 0.17789991 -0.82348454 156 134 143
-0.22839241 0.1802946 -0.82296765 116 91 97
-0.22846526 0.18035012 -0.82310385 117 93 98
-0.22704321 0.18115729 -0.82106704 139 124 126
-0.22754748 0.17938079 -0.82097661 117 98 104
-0.22719128 0.18160594 -0.82158321 141 125 127
-0.22751345 0.18136917 -0.82202792 135 116 119
-0.22682115 0.18159962 -0.82091665 146 132 134
-0.22838324 0.18096666 -0.82336092 119 94 99
-0.22891161 0.17512971 -0.82083398 105 85 90
-0.2290917 0.17612228 -0.82180798 125 105 111
-0.22920986 0.17667289 -0.82239294 137 116 123
-0.22939327 0.17692073 -0.82293457 149 128 136
-0.22908968 0.17571148 -0.82155555 121 101 107
-0.23004541 0.17506313 -0.82395035 128 111 117
-0.22961034 0.1747687 -0.82236582 127 109 114
-0.22947855 0.17507862 -0.82203412 136 117 122
-0.2297408 0.17476974 -0.82280856 125 108 113
-0.22993764 0.17680676 -0.8242327 167 148 155
-0.23025967 0.17392886 -0.82425541 100 86 91
-0.23039728 0.1722049 -0.8235746 116 99 102
-0.23032856 0.17108327 -0.82255781 130 112 115
-0.22998452 0.17218202 -0.82212627 122 106 108
-0.23002966 0.17381085 -0.82342601 101 86 90
-0.22962226 0.17218035 -0.8208968 127 109 111
-0.23004918 0.17077602 -0.8213557 139 122 123
-0.22942227 0.17380825 -0.82136482 109 92 95
-0.23025055 0.16926433 -0.82091343 144 126 127
-0.23023014 0.16961658 -0.82114387 145 127 128
-0.22462726 0.22627646 -0.83536506 148 119 123
-0.22474483 0.22637215 -0.83575976 146 117 122
-0.22478509 0.22489934 -0.83461237 157 135 129
-0.22446257 0.22631867 -0.83495635 149 121 125
-0.22439256 0.22642833 -0.83485579 150 121 125
-0.22408113 0.2258283 -0.83329082 160 136 132
-0.22465977 0.22260289 -0.83269453 171 150 135
-0.22487652 0.22215007 -0.83306694 170 150 135
-0.22491845 0.22301033 -0.833718 165 146 133
-0.22482519 0.22352645 -0.83379316 164 144 132
-0.22509374 0.22371192 -0.83462483 161 141 131
-0.22529039 0.22118929 -0.83369875 173 155 141
-0.22570281 0.22174111 -0.83532178 170 154 144
-0.22573182 0.22101997 -0.83501619 174 159 148
-0.22556885 0.22215231 -0.83512074 167 151 140
-0.22526923 0.22085823 -0.83344817 175 157 142
-0.22518732 0.22075982 -0.83313203 175 157 141
-0.22458996 0.22407661 -0.83348203 164 143 132
-0.22648235 0.21816607 -0.83575696 177 162 161
-0.2257493 0.21782947 -0.83377534 179 162 163
-0.22591062 0.21908744 -0.83480716 177 163 160
-0.2261769 0.21930645 -0.83557564 177 163 159
-0.22580206 0.21795198 -0.83396745 179 162 162
-0.2266672 0.2171848 -0.83572018 177 162 164
-0.22523873 0.21906534 -0.83267933 178 159 151
-0.22595166 0.21949919 -0.83511329 177 163 159
-0.22609544 0.22059588 -0.8359651 176 163 155
-0.2253232 0.21856816 -0.83277154 178 160 155
-0.22532585 0.21917482 -0.83299696 177 159 152
-0.22639549 0.21289623 -0.83279008 173 157 160
-0.22675614 0.21328567 -0.83434951 173 157 157
-0.22656792 0.21348764 -0.833655 174 157 160
-0.22650905 0.2139 -0.83354056 174 158 162
-0.2267592 0.21482377 -0.83481455 175 159 162
-0.22703339 0.21354423 -0.83553636 173 157 154
-0.22652113 0.21610928 -0.83477575 177 161 164
-0.22602437 0.21603714 -0.83350694 178 161 164
-0.22640654 0.21368806 -0.83312547 174 158 162
-0.22576895 0.21607095 -0.83289456 179 161 165
-0.226455 0.21457504 -0.83374614 175 159 163
-0.22647603 0.21485773 -0.83395761 175 159 163
-0.22714671 0.20954703 -0.83530438 146 120 125
-0.22668006 0.21002649 -0.83394092 161 143 144
-0.2266112 0.20914279 -0.833565 155 135 139
-0.22705336 0.21031839 -0.83515531 155 133 135
-0.22685631 0.21114142 -0.83469319 167 150 148
-0.22660655 0.21127775 -0.83371842 168 152 153
-0.22638883 0.21199115 -0.83280891 171 154 158
-0.22631478 0.20956647 -0.8326391 163 147 151
-0.22635424 0.21090166 -0.83272737 167 151 154
-0.22661605 0.21174183 -0.83373225 170 153 154
-0.2263826 0.21172008 -0.83279806 170 153 157
-0.22677609 0.20564131 -0.83415216 139 116 120
-0.22712411 0.20714745 -0.83520269 136 109 115
-0.226781 0.20561674 -0.83417678 139 116 120
-0.22703427 0.2068814 -0.83490521 137 110 116
-0.2270295 0.20703159 -0.83485425 137 109 116
-0.22718555 0.20814066 -0.83528584 137 106 115
-0.22647083 0.20885748 -0.83309394 156 137 142
-0.22649834 0.20765249 -0.83312774 151 127 135
-0.22658698 0.20648026 -0.83335298 144 116 126
-0.2265074 0.20601246 -0.83308542 144 116 126
-0.22768585 0.201416 -0.83549505 154 133 136
-0.22715436 0.2022347 -0.83421957 154 140 136
-0.22731061 0.20404623 -0.83577788 138 127 120
-0.22723003 0.20278987 -0.8347885 149 135 131
-0.22712798 0.20190087 -0.83394039 157 142 139
-0.22782932 0.20183618 -0.836209 148 128 130
-0.22684218 0.20259182 -0.83331054 156 141 138
-0.22644645 0.20433594 -0.83260715 148 124 131
-0.22715309 0.20483522 -0.83564085 134 123 117
-0.22686064 0.20501232 -0.8345741 137 120 120
-0.22677368 0.20184892 -0.83267486 163 147 145
-0.22718579 0.20434088 -0.83552665 138 127 120
-0.22894196 0.19732276 -0.83559608 169 146 142
-0.22861744 0.19913751 -0.83621711 163 138 139
-0.22893915 0.19793293 -0.8362211 170 147 145
-0.22841543 0.19830921 -0.83467448 155 129 131
-0.22849543 0.1987398 -0.83534765 158 133 134
-0.22817928 0.19851674 -0.83421612 150 124 127
-0.22816744 0.19919151 -0.83486527 151 126 129
-0.22818404 0.20043123 -0.83617043 155 131 134
-0.22784925 0.19844982 -0.83312809 147 122 125
-0.2271862 0.20027368 -0.83279961 160 142 141
-0.22771318 0.20025052 -0.83450878 153 131 134
-0.22778918 0.19984958 -0.8343516 151 128 131
-0.22743407 0.20015749 -0.83349657 157 137 137
-0.22783872 0.1980055 -0.8326425 146 121 123
-0.22869554 0.19643579 -0.83333075 164 140 141
-0.2288816 0.19585635 -0.83326328 172 150 152
-0.22936663 0.19439015 -0.83308244 194 176 180
-0.2290152 0.19623792 -0.83435172 175 153 153
-0.228976 0.19659337 -0.8347072 173 150 149
-0.22896224 0.19669858 -0.83480394 172 149 148
-0.22926921 0.19603685 -0.83596253 173 152 148
-0.22931874 0.19549783 -0.8362484 167 146 140
-0.229325 0.19546542 -0.83599347 170 149 145
-0.22940885 0.19457914 -0.83626425 161 141 135
-0.22945866 0.19413574 -0.83574587 166 146 142
-0.22990865 0.19168893 -0.83497298 165 145 143
-0.23046222 0.18995334 -0.83579284 163 139 143
-0.23042956 0.18970826 -0.83434576 172 151 155
-0.23026113 0.18995352 -0.83295786 179 162 165
-0.23007323 0.1909139 -0.8341741 171 152 152
-0.23043443 0.19015813 -0.83622521 161 136 139
-0.22980858 0.1921656 -0.83309329 190 172 176
-0.22960258 0.19317631 -0.83320409 194 176 181
-0.22978978 0.19226515 -0.83298206 192 174 179
-0.2298815 0.19177833 -0.83355176 182 164 166
-0.2295886 0.19314778 -0.83484596 172 153 152
-0.23113668 0.18752348 -0.83627045 146 129 129
-0.23080786 0.18680608 -0.83423358 154 134 138
-0.23070458 0.18915369 -0.83626008 160 135 139
-0.23094568 0.18690592 -0.83487922 151 132 134
-0.23077475 0.18797716 -0.83531684 156 134 138
-0.23049533 0.18933271 -0.83410996 173 152 157
-0.23054902 0.18754259 -0.83284396 168 148 153
-0.23063195 0.18879192 -0.83542502 162 137 143
-0.23059297 0.18679743 -0.83262163 164 144 149
-0.23044632 0.18866698 -0.83266658 177 158 163
-0.2305308 0.18825781 -0.83339536 170 149 154
-0.23156069 0.18392092 -0.83593518 117 106 103
-0.23144004 0.18278682 -0.834369 124 104 107
-0.2315366 0.18386027 -0.83532166 124 110 109
-0.2315208 0.18384352 -0.83487743 129 113 113
-0.23144001 0.18191133 -0.83595788 96 83 80
-0.23151998 0.18381697 -0.83490103 128 112 113
-0.23121558 0.18393262 -0.83351332 140 119 124
-0.23112027 0.18551691 -0.83413875 144 129 130
-0.23140888 0.18325004 -0.83384264 134 113 117
-0.23121166 0.18524058 -0.83432376 142 126 127
-0.23166452 0.18040492 -0.8353886 97 83 80
-0.21410275 0.20959136 -0.81258762 136 127 129
-0.21384953 0.20906723 -0.81209362 136 125 130
-0.21254428 0.20938604 -0.81051219 141 124 135
-0.21253984 0.20922257 -0.8104679 140 123 135
-0.21184288 0.21015994 -0.81013048 135 114 127
-0.21091901 0.20995435 -0.80929166 119 94 113
-0.21075462 0.21047109 -0.80925059 117 94 111
-0.21392816 0.20841786 -0.81202018 136 124 131
-0.21407035 0.20853287 -0.81225806 134 123 129
-0.21396673 0.20784819 -0.81190878 137 124 132
-0.21338974 0.20896907 -0.8114081 139 126 135
-0.21370186 0.20761676 -0.81146067 139 126 135
-0.21299964 0.20526421 -0.80987036 140 127 135
-0.21388264 0.20544286 -0.81114066 137 125 132
-0.21358328 0.20769531 -0.81131703 140 126 135
-0.21434993 0.20646459 -0.8120563 136 123 131
-0.2139871 0.20668933 -0.81161249 137 125 133
-0.21287958 0.20520888 -0.80969501 141 127 136
-0.21222356 0.20782731 -0.80982727 135 117 130
-0.21181293 0.20789842 -0.80951101 129 108 124
-0.21210885 0.20753263 -0.8096512 134 115 129
-0.21202867 0.20738897 -0.80954552 133 114 128
-0.21314083 0.20275185 -0.80916762 152 139 146
-0.21420209 0.2049052 -0.81142491 136 124 131
-0.21406235 0.20389801 -0.81086624 142 129 136
-0.21365808 0.20456086 -0.8105464 140 128 135
-0.21342705 0.20449525 -0.81020248 141 129 136
-0.21430452 0.20351234 -0.81106198 143 130 136
-0.21457617 0.20241308 -0.81103075 146 131 138
-0.21511647 0.20215549 -0.81167567 143 127 136
-0.21523264 0.2019344 -0.81175309 143 127 136
-0.21381785 0.2016259 -0.80970091 153 139 146
-0.21549606 0.20309588 -0.81254333 137 122 131
-0.21573268 0.20124431 -0.81218302 143 124 135
-0.21568342 0.19731155 -0.81060427 133 115 122
-0.21516751 0.19767086 -0.81008244 127 109 115
-0.2167452 0.19865379 -0.81250322 145 125 137
-0.21504471 0.1981722 -0.81012338 125 108 114
-0.21531563 0.19813493 -0.81045705 129 110 117
-0.2156128 0.19859493 -0.81102222 132 113 122
-0.21641774 0.19935864 -0.8123613 141 122 132
-0.21574396 0.20037873 -0.81188738 136 117 127
-0.21485357 0.19836551 -0.80994606 125 107 113
-0.21498206 0.20045586 -0.8108713 142 124 133
-0.21420226 0.19974397 -0.80954784 141 125 131
-0.21563025 0.20115231 -0.81200892 143 125 135
-0.21510032 0.19976197 -0.81078458 135 117 125
-0.21749395 0.19647481 -0.81264657 147 130 139
-0.21649934 0.19587675 -0.81106651 144 125 135
-0.21634893 0.19509798 -0.81054872 143 125 133
-0.2163648 0.19667992 -0.81123716 142 122 132
-0.21538301 0.19534542 -0.80945766 132 113 121
-0.21613112 0.19554114 -0.81049645 140 121 131
-0.2158055 0.19499451 -0.80986607 137 118 127
-0.21554789 0.19552529 -0.80973941 133 115 123
-0.21641257 0.19222425 -0.80928874 142 127 134
-0.21622485 0.19248326 -0.80921435 140 125 133
-0.22081082 0.18602847 -0.81232965 153 133 149
-0.22050276 0.18620443 -0.81202918 154 135 150
-0.22059138 0.18620826 -0.81213254 155 136 151
-0.21990681 0.18597075 -0.81121933 145 127 140
-0.22564435 0.16936938 -0.81226987 108 89 92
-0.22481935 0.16900444 -0.81038344 109 88 94
-0.22519915 0.16831993 -0.81076294 103 86 89
-0.22594523 0.16728836 -0.81160057 99 80 86
-0.22557649 0.16820581 -0.81144685 102 85 87
-0.2244762 0.16780975 -0.80905324 101 85 88
-0.22626935 0.16543514 -0.81123531 99 78 87
-0.22242682 0.22135155 -0.82819957 181 169 159
-0.22200827 0.22214067 -0.82773179 183 169 164
-0.22137083 0.22109048 -0.82622951 192 175 176
-0.22206485 0.22096422 -0.82741761 185 172 166
-0.2215526 0.2214759 -0.82668722 189 173 172
-0.22133827 0.21781248 -0.82502365 189 176 172
-0.22227314 0.21964704 -0.82732612 182 171 161
-0.22225916 0.22052872 -0.82761008 184 172 163
-0.22226314 0.22021374 -0.82750684 183 172 163
-0.22285628 0.21939677 -0.8282873 180 167 156
-0.22280966 0.2183733 -0.82785344 180 166 157
-0.22271794 0.21826816 -0.82765257 181 166 158
-0.22291808 0.21895905 -0.82824874 180 166 156
-0.22273573 0.2205819 -0.82847589 180 169 157
-0.22297955 0.21750526 -0.82786202 180 163 156
-0.22335263 0.21362832 -0.82754785 181 167 162
-0.22318509 0.21542896 -0.82767493 178 161 155
-0.22308272 0.21317974 -0.82696402 180 167 163
-0.22320089 0.2152227 -0.8276543 179 162 156
-0.22347677 0.21335565 -0.8277036 182 168 163
-0.2230207 0.21339393 -0.82690454 180 166 162
-0.22250149 0.21602505 -0.82658726 180 165 159
-0.22162645 0.21624808 -0.82506388 185 172 167
-0.22336842 0.21665673 -0.82828754 179 159 152
-0.22248797 0.21644935 -0.82665801 182 166 160
-0.22260226 0.21660213 -0.82689774 182 165 159
-0.22160135 0.21606794 -0.82497835 184 172 167
-0.22350733 0.20984812 -0.82706648 150 132 138
-0.22384091 0.21015045 -0.82783312 154 135 142
-0.22373788 0.20994294 -0.82758212 152 133 140
-0.22348185 0.20948197 -0.82696515 146 128 134
-0.22366664 0.20982105 -0.82741123 150 131 138
-0.22372526 0.20911677 -0.82745153 143 122 133
-0.22282797 0.21192236 -0.82616347 169 157 153
-0.22249281 0.21279238 -0.82582211 177 165 161
-0.22254884 0.21163902 -0.82558662 165 153 149
-0.22344156 0.21176675 -0.82720548 170 157 154
-0.22287172 0.21146603 -0.82610852 165 152 149
-0.22309372 0.21118224 -0.82641947 163 150 147
-0.22429994 0.20523918 -0.82757115 156 139 133
-0.22392039 0.20509396 -0.82689029 155 140 134
-0.22327851 0.20622675 -0.82613808 151 135 137
-0.22424355 0.20767829 -0.82818151 147 126 135
-0.22393471 0.20777993 -0.82768983 146 126 136
-0.22344607 0.20822501 -0.8267675 143 124 133
-0.22266103 0.20708705 -0.82496619 146 132 131
-0.22254908 0.20639271 -0.82466912 148 136 133
-0.22267018 0.20866652 -0.82510549 139 125 125
-0.22244899 0.20853776 -0.82461238 139 126 124
-0.22299981 0.20615183 -0.82563579 150 135 137
-0.22489521 0.20500943 -0.82850152 159 143 136
-0.22513264 0.20136675 -0.82693154 176 161 159
-0.22554682 0.20155899 -0.82790929 174 160 156
-0.22491123 0.20416011 -0.82812899 161 145 138
-0.22549661 0.20148602 -0.82776129 174 161 156
-0.22482283 0.20167559 -0.82646894 175 160 158
-0.22409208 0.20149149 -0.82510656 172 156 157
-0.22409622 0.20118053 -0.82492828 173 157 160
-0.22443901 0.2046198 -0.82749599 158 141 136
-0.22312477 0.20428506 -0.82509375 158 144 141
-0.22284956 0.20475721 -0.82490081 155 142 139
-0.22289652 0.20474839 -0.82497478 155 142 139
-0.22410657 0.20285998 -0.82593024 165 149 148
-0.2248469 0.19849704 -0.82473212 176 157 161
-0.22561793 0.19973263 -0.8269912 174 159 158
-0.22549827 0.20036474 -0.8271091 175 161 159
-0.22577091 0.20084819 -0.82795852 175 162 157
-0.22522794 0.19821884 -0.82529813 174 156 159
-0.22577915 0.19936748 -0.82720268 174 160 158
-0.22595946 0.19796278 -0.82697129 174 160 158
-0.22619696 0.19814828 -0.82766479 174 162 157
-0.22588389 0.19924869 -0.82741016 174 161 157
-0.22587848 0.1994262 -0.82748348 174 161 157
-0.22446823 0.20075004 -0.82528716 177 161 162
-0.2267686 0.19399001 -0.82650065 173 161 157
-0.22656101 0.19472629 -0.82644248 171 160 155
-0.22756605 0.19352543 -0.82830399 181 166 165
-0.22646742 0.19407621 -0.82575995 170 159 154
-0.22707351 0.19451277 -0.82765824 177 164 160
-0.22572653 0.19560131 -0.82490259 171 155 156
-0.22621657 0.1962626 -0.82659715 172 160 156
-0.22612879 0.19593871 -0.82615334 172 159 156
-0.22539338 0.19670399 -0.82480991 173 154 158
-0.22563313 0.19630556 -0.8251462 172 156 157
-0.22624688 0.19453385 -0.82549417 169 158 153
-0.22877787 0.19021393 -0.82851553 189 167 179
-0.22833678 0.18978991 -0.82743704 171 150 159
-0.22836924 0.19033156 -0.82781684 178 158 166
-0.22804804 0.19149148 -0.82797128 179 162 166
-0.22763115 0.19262564 -0.82796115 176 160 160
-0.22734317 0.19027789 -0.82600242 151 136 138
-0.22734492 0.19169404 -0.82688808 161 147 146
-0.2269762 0.19259705 -0.82630974 167 153 151
-0.22680077 0.19141056 -0.82534719 152 139 137
-0.22708353 0.19232626 -0.82648063 165 151 150
-0.22689094 0.19022432 -0.82508862 140 127 126
-0.22695285 0.19237714 -0.82615566 164 151 149
-0.22671467 0.19223046 -0.82546276 160 147 145
-0.22915174 0.18860327 -0.82847023 189 166 180
-0.22884785 0.18790421 -0.82762355 176 156 165
-0.22878449 0.18646514 -0.82699686 171 154 161
-0.22914208 0.18733674 -0.82797408 182 161 171
-0.22828473 0.18628159 -0.82602191 159 145 151
-0.22812241 0.186993 -0.82598704 158 143 150
-0.22822128 0.18700661 -0.82616609 160 144 151
-0.22771946 0.18847167 -0.82580835 151 135 141
-0.22781909 0.18670505 -0.82535213 151 138 144
-0.22797725 0.18767671 -0.82597482 156 141 147
-0.22786547 0.18690349 -0.82550389 153 139 145
-0.22758661 0.18699871 -0.82505101 146 134 138
-0.22854275 0.18444055 -0.82560748 148 130 135
-0.22891487 0.18518914 -0.82671916 167 150 157
-0.22882874 0.18376024 -0.82576829 148 128 133
-0.22925286 0.18476467 -0.82711732 171 151 158
-0.2300307 0.18363287 -0.82843965 172 155 157
-0.22937405 0.18246652 -0.82630771 144 122 125
-0.22984765 0.18349633 -0.82791877 167 148 151
-0.22946498 0.18359323 -0.82697862 161 139 145
-0.23010935 0.18252888 -0.82821089 158 142 141
-0.22844863 0.18539131 -0.82596511 158 144 150
-0.23046827 0.17937046 -0.8277452 146 130 133
-0.2300185 0.17789343 -0.8250041 182 161 170
-0.23006582 0.17843024 -0.82549781 178 158 165
-0.23012227 0.17809597 -0.82556218 174 154 162
-0.23030576 0.17839716 -0.82651818 160 141 148
-0.23042397 0.17906173 -0.82738733 150 133 137
-0.2300708 0.17926246 -0.82603687 172 154 157
-0.22954452 0.18149276 -0.82631421 138 117 117
-0.22954635 0.17952442 -0.82488734 160 137 143
-0.22997409 0.18077324 -0.82688856 153 135 135
-0.23008056 0.18111864 -0.82741183 151 135 133
-0.22964971 0.17935899 -0.82503116 164 142 148
-0.23108499 0.17431316 -0.82617557 108 90 96
-0.23087227 0.1747859 -0.82619965 108 91 97
-0.2300216 0.17723481 -0.82469505 174 154 163
-0.23036049 0.17747948 -0.82627738 153 134 143
-0.23028725 0.17711294 -0.82578671 153 134 143
-0.23025128 0.17676704 -0.82546705 150 132 140
-0.23015617 0.17682035 -0.82508081 158 139 147
-0.23039189 0.17527921 -0.82537007 117 101 108
-0.23141384 0.17341466 -0.82621396 112 91 96
-0.23114954 0.17294309 -0.82562119 112 91 96
-0.22094207 0.22920823 -0.84316736 133 138 119
-0.2235301 0.22898054 -0.84053469 149 121 121
-0.22212423 0.22858489 -0.84215319 141 132 119
-0.22108024 0.22857277 -0.84328669 135 140 119
-0.22311281 0.22888382 -0.84101009 147 124 120
-0.22269098 0.22860581 -0.84153438 145 128 120
-0.22522682 0.22509639 -0.84057951 148 129 126
-0.2245333 0.22673236 -0.84042811 150 125 124
-0.22295667 0.22723365 -0.84184057 141 130 121
-0.22285695 0.22681151 -0.8421368 139 131 121
