ply
format ascii 1.0
comment PCL generated
element vertex 1030
property float x
property float y
property float z
property uchar red
property uchar green
property uchar blue
element camera 1
property float view_px
property float view_py
property float view_pz
property float x_axisx
property float x_axisy
property float x_axisz
property float y_axisx
property float y_axisy
property float y_axisz
property float z_axisx
property float z_axisy
property float z_axisz
property float focal
property float scalex
property float scaley
property float centerx
property float centery
property int viewportx
property int viewporty
property float k1
property float k2
end_header
0.1137505 0.6858772 -0.89851165 98 83 119
0.11238962 0.68174213 -0.89592773 105 93 123
0.11320426 0.68173397 -0.89823461 105 94 126
0.11291095 0.68275309 -0.89706188 104 91 124
0.11289478 0.68285108 -0.89698315 104 91 123
0.11355761 0.68358243 -0.89861161 103 90 124
0.11255424 0.68496341 -0.89600945 93 76 109
0.1124793 0.68444115 -0.89585733 95 78 111
0.11219429 0.68211621 -0.89528465 104 91 122
0.11281382 0.68364215 -0.89659172 102 87 120
0.11265264 0.68448567 -0.8962298 96 80 113
0.11257171 0.68404388 -0.89606333 98 82 115
0.11307215 0.67828029 -0.89767188 108 96 129
0.11295257 0.67825907 -0.89726233 108 96 128
0.11334752 0.67924595 -0.89862132 108 97 131
0.11336267 0.68050939 -0.89868206 106 96 128
0.11267738 0.67834663 -0.89632094 106 94 124
0.11288116 0.68040395 -0.89712995 105 93 124
0.11233255 0.67923445 -0.89536834 105 92 122
0.11257119 0.68140006 -0.8964321 105 93 124
0.11239447 0.67849684 -0.89541107 105 92 121
0.11246604 0.6795997 -0.89581144 105 92 122
0.11274893 0.67502171 -0.89630145 112 103 132
0.11329804 0.67424595 -0.89752388 108 94 126
0.11353122 0.67566437 -0.89854735 108 94 128
0.11330517 0.67543125 -0.89788473 110 96 129
0.11340125 0.67434376 -0.89782393 108 93 126
0.11352182 0.67527449 -0.89841008 108 93 127
0.11312871 0.67688781 -0.89779788 112 100 133
0.11265291 0.6767655 -0.89615983 109 98 128
0.11249414 0.67681152 -0.89561981 108 96 126
0.11262424 0.67664492 -0.89605266 109 98 128
0.11255849 0.67758197 -0.89589816 107 94 124
0.1132265 0.67013693 -0.89795864 107 96 124
0.11373045 0.67306358 -0.89869946 105 88 122
0.11343908 0.67199314 -0.89812744 105 91 122
0.11270379 0.67070681 -0.896357 105 93 120
0.11369005 0.67241293 -0.89873618 106 90 123
0.11334848 0.67092949 -0.8981185 106 94 123
0.11227109 0.67096859 -0.89513606 106 96 121
0.11310823 0.67331207 -0.89698225 108 94 125
0.1123229 0.67222559 -0.89508015 109 100 126
0.11348538 0.67311233 -0.8980062 105 88 121
0.11250682 0.67317736 -0.89541882 111 101 128
0.11262701 0.67286181 -0.89578372 109 99 126
0.11335883 0.66642761 -0.89747554 118 109 135
0.11301295 0.66618317 -0.89670527 117 106 132
0.1133955 0.66616887 -0.89747328 119 110 136
0.11262688 0.66655749 -0.89603639 113 102 127
0.11259 0.66654354 -0.89595783 113 101 127
0.11303709 0.66625673 -0.89677566 117 106 132
0.11232601 0.66973335 -0.89547265 105 95 120
0.11245739 0.66904563 -0.89582968 107 96 121
0.11273848 0.66838026 -0.89660817 109 97 124
0.11283661 0.66803753 -0.89687794 109 98 125
0.11344737 0.66981637 -0.89862746 108 97 125
0.11234566 0.66947275 -0.89552319 106 95 120
0.11332501 0.66321284 -0.89818329 118 111 135
0.11355284 0.66418624 -0.89827853 120 113 138
0.1139036 0.66546887 -0.89857763 123 115 142
0.11336618 0.66354781 -0.89808822 119 111 136
0.11318397 0.66272801 -0.89804113 117 110 134
0.11294962 0.66512102 -0.89653087 117 108 133
0.11245608 0.66351157 -0.89553958 115 107 130
0.11234657 0.66283387 -0.89532059 114 108 130
0.11257722 0.66311902 -0.89578533 116 109 132
0.11330448 0.66455728 -0.89724892 120 113 137
0.11272588 0.66557544 -0.89607781 116 105 131
0.11323628 0.65992719 -0.89871186 117 111 136
0.11319963 0.6606245 -0.89858347 117 110 135
0.1122798 0.65852088 -0.89572507 117 107 132
0.11310364 0.66044456 -0.89828444 117 110 134
0.11302611 0.65937465 -0.89806008 117 110 135
0.11326884 0.66076565 -0.89879888 117 110 135
0.11244009 0.65976679 -0.89618182 116 107 132
0.11230461 0.66058362 -0.89562708 115 107 131
0.11299344 0.66162229 -0.89787728 116 108 133
0.11225712 0.66136038 -0.89537877 114 107 130
0.11292204 0.66165155 -0.89762902 116 108 132
0.11321111 0.65762073 -0.89873481 117 112 137
0.11282258 0.65606362 -0.89761382 116 110 136
0.1129019 0.65701854 -0.89774638 117 112 136
0.1128877 0.65608186 -0.89783829 116 109 136
0.11289173 0.65702856 -0.89770943 117 112 136
0.11226256 0.65607375 -0.89575911 117 109 134
0.11259041 0.65807134 -0.89671445 117 109 134
0.11205569 0.65747583 -0.89505315 117 106 132
0.1124785 0.65791953 -0.89636779 117 109 134
0.11277019 0.65819228 -0.89727604 117 110 135
0.11270404 0.65083343 -0.89774692 113 107 134
0.11283907 0.65137726 -0.898224 113 107 134
0.11284163 0.65139818 -0.89823145 113 107 134
0.11240805 0.65043992 -0.89657611 114 108 135
0.11268917 0.65071988 -0.89770287 113 107 134
0.11244392 0.65071386 -0.8966825 114 108 135
0.11223503 0.65423548 -0.89582783 116 107 134
0.11239756 0.65374172 -0.89638013 115 107 135
0.11213116 0.65090191 -0.89536393 115 108 135
0.11247398 0.65224963 -0.89660162 115 106 135
0.11207268 0.65152013 -0.89517862 115 108 135
0.11228538 0.65370715 -0.89598757 116 107 134
0.11255721 0.64693469 -0.89749831 110 100 129
0.11283489 0.64824939 -0.89834088 112 104 132
0.11282787 0.64723682 -0.8982302 113 103 132
0.11306539 0.64679193 -0.8988077 115 105 134
0.11238857 0.64939952 -0.89695281 110 103 130
0.11254174 0.65037048 -0.89714974 113 108 134
0.11214018 0.64896911 -0.89611387 109 101 129
0.11307085 0.64619613 -0.89879018 117 106 135
0.11249005 0.64527869 -0.89697564 116 106 133
0.11232495 0.64473009 -0.89640641 117 107 134
0.11246003 0.6457575 -0.89701939 113 103 131
0.11805299 0.69360346 -0.91305637 103 86 126
0.11798436 0.69360423 -0.9127292 103 87 127
0.11825152 0.69461513 -0.91314358 103 90 129
0.11770089 0.69356447 -0.91141433 106 92 132
0.11847983 0.69519997 -0.91373402 103 90 129
0.11794608 0.6942665 -0.91198581 105 93 132
0.1178895 0.69461751 -0.9114747 106 95 134
0.11797667 0.69537377 -0.91138977 106 94 135
0.11805024 0.69562107 -0.91154557 106 94 135
0.11870996 0.69709158 -0.91337723 104 95 134
0.11818679 0.69681448 -0.91140753 105 92 136
0.11790542 0.69143069 -0.91360343 104 89 129
0.11778642 0.6904884 -0.91355079 107 95 134
0.11744253 0.69013566 -0.91208935 106 93 134
0.11710535 0.68947071 -0.9108327 107 94 136
0.11824324 0.69297588 -0.91437685 101 82 121
0.11766314 0.68982917 -0.9133212 109 98 137
0.11767418 0.69178063 -0.91230339 103 87 128
0.11731066 0.69112927 -0.91092139 106 92 134
0.1175581 0.69299024 -0.91110581 106 92 132
0.1172696 0.69115198 -0.91071397 107 93 134
0.11732137 0.69068837 -0.91120756 105 91 133
0.1174111 0.68653238 -0.91274983 111 102 138
0.11768876 0.68866038 -0.91366154 111 102 140
0.11733987 0.68593973 -0.91253972 111 101 137
0.1171471 0.68591654 -0.91116482 111 99 137
0.11757758 0.68568605 -0.914379 112 105 137
0.11747827 0.68788594 -0.91265595 111 101 139
0.11729869 0.68858582 -0.91178328 109 98 137
0.1172137 0.68654257 -0.91139668 111 99 137
0.1178018 0.68928003 -0.91419876 111 103 140
0.11707312 0.68943936 -0.91068745 107 94 136
0.11777553 0.68174684 -0.91413653 112 100 130
0.11749865 0.68435585 -0.9135471 113 105 136
0.11725602 0.68212068 -0.91131192 115 106 138
0.11749852 0.68430662 -0.91352767 113 105 136
0.11738489 0.68236589 -0.91214103 114 105 136
0.11772553 0.68206048 -0.91397023 112 101 131
0.11727124 0.68376642 -0.91185611 113 104 137
0.11737803 0.68416744 -0.91271222 113 105 137
0.11739536 0.68486887 -0.91299063 113 104 137
0.11712889 0.68524104 -0.91115534 111 99 137
0.11714986 0.6854009 -0.91134119 111 99 137
0.11774109 0.68037283 -0.91356838 114 101 132
0.11815923 0.67860883 -0.91426116 117 110 139
0.11763843 0.67788625 -0.91213769 118 106 140
0.11784797 0.6801635 -0.91384977 114 103 133
0.11787434 0.68074083 -0.91419077 113 102 131
0.11720974 0.68153894 -0.91085845 115 106 138
0.11726095 0.68089551 -0.9111076 115 105 137
0.11763793 0.68045145 -0.9132306 113 100 132
0.11735663 0.68162537 -0.91170305 114 104 136
0.1172375 0.67817599 -0.91079086 117 102 140
0.11737614 0.67449528 -0.91428602 102 91 119
0.11749176 0.67525822 -0.91311967 110 101 130
0.117028 0.6742332 -0.91122508 111 102 130
0.11714011 0.67420149 -0.91258574 106 96 124
0.11732413 0.6749292 -0.91230065 111 102 131
0.11816542 0.67744607 -0.91399443 118 112 141
0.11762926 0.67741084 -0.91214055 117 106 140
0.1168899 0.67393249 -0.9106499 112 102 131
0.11816604 0.67769873 -0.91391802 118 112 141
0.11745784 0.67648143 -0.91183311 116 105 138
0.11705874 0.67563754 -0.91070718 114 102 135
0.11722251 0.67250592 -0.91313738 106 96 124
0.11728506 0.67133003 -0.91367924 105 93 123
0.11728273 0.6717965 -0.91438824 101 87 118
0.11730411 0.67048103 -0.91299671 110 98 129
0.11723551 0.6724599 -0.91359228 104 93 121
0.11705752 0.672144 -0.91084701 115 107 135
0.11722526 0.67058361 -0.91086006 120 114 140
0.11709353 0.67234939 -0.91149741 112 104 131
0.11719464 0.67066842 -0.91061795 120 114 141
0.11687113 0.67371345 -0.91063565 112 102 130
0.11702723 0.66634876 -0.91153401 116 105 134
0.11729821 0.66704839 -0.91299528 114 102 131
0.11713252 0.66665089 -0.9121142 115 104 133
0.11738658 0.66937053 -0.91432941 105 90 123
0.11703724 0.66625619 -0.91153955 117 106 134
0.11722457 0.66902947 -0.91286707 110 97 129
0.11718679 0.66909838 -0.9109965 119 112 139
0.11729047 0.66955727 -0.913149 109 96 128
0.11716019 0.66892272 -0.91071105 120 113 141
0.11716732 0.66870427 -0.9120093 114 103 133
0.11754677 0.66512978 -0.91417068 118 107 133
0.11760789 0.66537488 -0.91434836 118 107 133
0.11689642 0.66266835 -0.91201895 120 111 137
0.1171153 0.66375273 -0.91228604 120 111 136
0.11704855 0.66306424 -0.91284347 119 109 136
0.11752398 0.66549706 -0.91365492 118 108 134
0.11677632 0.66334057 -0.91084433 120 111 138
0.11708812 0.66461951 -0.91194063 119 109 136
0.11710881 0.66568071 -0.91181839 118 107 135
0.11759669 0.66598243 -0.91387314 118 107 133
0.11726249 0.66533434 -0.91255373 118 108 135
0.11677975 0.65923148 -0.91408873 112 102 127
0.11675093 0.65997905 -0.91352201 114 103 131
0.11641999 0.65853846 -0.91195631 113 103 131
0.11661918 0.65876132 -0.91321629 112 103 129
0.11635538 0.65859741 -0.91148299 114 103 133
0.11663025 0.66090482 -0.91176569 118 108 136
0.1168016 0.66115987 -0.91318834 118 105 135
0.11690167 0.66208994 -0.91309315 120 108 136
0.11686824 0.66194105 -0.91293317 119 108 136
0.1167457 0.6608541 -0.91298813 117 105 135
0.1166678 0.66096181 -0.91207623 118 107 136
0.11639239 0.65518218 -0.91184556 109 103 128
0.11615437 0.65444696 -0.91330165 102 87 118
0.1165942 0.6569339 -0.91350907 108 101 124
0.1167173 0.65789115 -0.91423798 108 101 124
0.11650819 0.65624559 -0.91294968 108 101 125
0.11668446 0.65757608 -0.91389024 109 102 124
0.11643915 0.6571517 -0.91200912 111 104 130
0.11641652 0.65569288 -0.91151458 110 106 130
0.11644208 0.65667975 -0.91191965 111 104 129
0.11648175 0.65797865 -0.9124943 111 103 129
0.1165332 0.65635592 -0.912471 110 104 128
0.11619101 0.65220255 -0.9126696 110 94 125
0.11631676 0.65042132 -0.91424012 95 79 101
0.1161757 0.65242833 -0.91370463 102 84 114
0.11622502 0.65171462 -0.91226763 113 98 128
0.11620957 0.65194601 -0.91377318 101 84 112
0.11607014 0.65412545 -0.91409606 99 81 114
0.11620346 0.65415007 -0.91222328 106 95 123
0.11630533 0.65375215 -0.91078353 112 107 132
0.11629919 0.65395802 -0.91087425 111 106 131
0.11616355 0.65276885 -0.91275442 109 93 125
0.11626831 0.64909774 -0.91344172 103 88 112
0.11622649 0.64903599 -0.9139511 97 83 106
0.11631493 0.65022105 -0.91423023 96 79 101
0.10696599 0.67701173 -0.88698423 84 65 81
0.10646275 0.67390883 -0.88655978 90 70 87
0.10658985 0.67642856 -0.88664258 83 63 79
0.10692236 0.67649686 -0.88695091 85 66 82
0.10660607 0.67511576 -0.88667613 87 67 84
0.10595047 0.67577821 -0.88605702 82 60 75
0.10678469 0.67738336 -0.88681054 82 62 77
0.10587785 0.67185259 -0.88605773 85 67 82
0.10607568 0.67132473 -0.88619065 84 68 83
0.10569762 0.67203432 -0.88592124 85 65 81
0.10699499 0.67225242 -0.88698196 90 74 91
0.10579863 0.67319202 -0.88598031 86 65 81
0.10527274 0.67276716 -0.88551593 83 62 76
0.10534548 0.67333829 -0.88555026 84 62 76
0.1074028 0.66043293 -0.88702631 88 76 94
0.107581 0.65857267 -0.88706553 90 80 96
0.10761213 0.65727752 -0.88709676 94 82 99
0.10745688 0.65776581 -0.88683951 92 81 98
0.10746415 0.65073609 -0.88689166 94 82 106
0.10742918 0.64917952 -0.88665527 97 85 109
0.114939 0.68691552 -0.90096074 104 92 135
0.11418132 0.68596333 -0.89946461 101 88 126
0.11462636 0.68646014 -0.90038824 103 91 132
0.11395384 0.68612009 -0.8989082 99 84 121
0.11500488 0.68641001 -0.90127081 106 96 140
0.11541129 0.68626642 -0.90233928 112 102 148
0.11561574 0.68801451 -0.90222168 109 95 142
0.11556694 0.68764371 -0.90221435 110 96 143
0.11510596 0.68400282 -0.90208292 108 98 141
0.114605 0.684708 -0.90074486 105 93 134
0.11448232 0.68495035 -0.90039909 104 92 132
0.11471247 0.68402058 -0.90117145 105 93 133
0.11462072 0.68377239 -0.90101892 104 91 131
0.11424665 0.68326908 -0.90029013 103 91 127
0.11383669 0.68234205 -0.899616 104 93 127
0.11400221 0.68493885 -0.89929289 101 87 124
0.11451964 0.683088 -0.90095282 104 91 129
0.11465256 0.68299341 -0.90127724 104 91 130
0.11501472 0.681041 -0.90237683 106 95 134
0.11411688 0.67871577 -0.90027666 110 98 135
0.11367492 0.67825359 -0.89940614 111 99 134
0.11505891 0.6799323 -0.90218759 108 97 135
0.11517619 0.6792593 -0.90222836 109 98 137
0.11346685 0.68064719 -0.89896715 106 96 129
0.11346476 0.67946881 -0.89895695 108 97 131
0.11423445 0.68055272 -0.90069377 107 96 132
0.11348055 0.68106246 -0.89899987 106 95 128
0.11363216 0.67933118 -0.899333 109 97 132
0.1140938 0.67990339 -0.90037429 108 97 133
0.11529116 0.67807454 -0.90220356 111 101 138
0.11476047 0.67650813 -0.90093654 111 98 135
0.11513167 0.67767692 -0.90177715 111 100 138
0.11431356 0.67709869 -0.90027016 111 99 135
0.11462289 0.67589557 -0.90059388 110 97 134
0.11420697 0.67628181 -0.8999455 110 98 134
0.11451478 0.67386264 -0.9000259 107 91 126
0.11488733 0.67407471 -0.90072358 108 93 130
0.11427335 0.67519891 -0.89985847 109 94 130
0.11438385 0.67523843 -0.90006083 109 95 131
0.11549399 0.67596042 -0.90243024 113 103 139
0.11560627 0.6754607 -0.90271926 115 106 141
0.11524762 0.67566192 -0.90164256 110 98 135
0.11501884 0.67079991 -0.90107518 115 103 138
0.1152178 0.67241263 -0.90133673 112 99 135
0.11488754 0.67365795 -0.90068573 108 93 129
0.11384775 0.67261666 -0.89899689 106 90 124
0.11405858 0.67034566 -0.89961642 110 99 130
0.11449334 0.67076349 -0.90024066 112 100 134
0.11408912 0.67104751 -0.89957416 109 97 129
0.1137779 0.67244577 -0.89890987 106 90 123
0.11568314 0.67324752 -0.90273201 116 108 142
0.11566664 0.67059278 -0.90268862 120 109 145
0.11552422 0.67376596 -0.90222365 113 103 138
0.11552645 0.67340279 -0.90225089 114 104 139
0.11416232 0.6695407 -0.89980096 112 101 132
0.11464053 0.66753161 -0.90038079 117 108 139
0.11437599 0.66971672 -0.90014863 113 102 134
0.11462374 0.66768283 -0.90036708 117 108 139
0.11385331 0.66816956 -0.89899063 115 105 134
0.1141227 0.6666519 -0.89908832 122 113 141
0.11400755 0.66829276 -0.89934462 114 104 134
0.11407138 0.66684866 -0.89904195 121 112 140
0.11556037 0.66792166 -0.90242028 121 112 145
0.11555494 0.66687298 -0.90252006 120 113 145
0.11531019 0.66601807 -0.9015227 122 114 146
0.11553932 0.66962093 -0.90231526 120 109 145
0.11552527 0.66894168 -0.90222073 121 111 145
0.1148302 0.66483819 -0.90109652 120 112 142
0.11431517 0.66557467 -0.89957213 123 115 143
0.11452935 0.66463923 -0.90056878 121 112 141
0.11480119 0.66367102 -0.9017086 118 109 139
0.11402953 0.66243339 -0.90049189 116 107 135
0.11409937 0.66244859 -0.90065581 116 107 135
0.11428848 0.66463095 -0.9000181 121 112 141
0.11466703 0.66247219 -0.90203923 116 106 136
0.11472221 0.66219109 -0.90231693 115 105 135
0.11375374 0.66338503 -0.89933312 119 111 137
0.1153372 0.66497636 -0.90230209 119 111 143
0.11553483 0.66573787 -0.90270728 119 113 144
0.11423708 0.66055852 -0.90119243 116 108 136
0.1142761 0.65902859 -0.90271455 109 95 128
0.11482022 0.66197318 -0.90260398 115 105 136
0.11356662 0.65862089 -0.89984298 116 109 136
0.11333299 0.65829468 -0.89906609 117 113 137
0.11398648 0.65990019 -0.90063012 116 109 136
0.11371659 0.65946764 -0.8999247 117 111 137
0.11363743 0.66108793 -0.89970666 116 109 135
0.11343559 0.6605041 -0.89921898 117 110 135
0.11479578 0.66199595 -0.90254092 115 105 136
0.11328319 0.66088909 -0.89883876 117 110 135
0.11329536 0.66202688 -0.89885223 117 109 134
0.11361168 0.6544922 -0.90029436 115 105 137
0.11371017 0.65602821 -0.900998 112 99 132
0.11434928 0.65577543 -0.90266842 114 104 136
0.1142688 0.65547985 -0.90236533 114 104 136
0.11417087 0.65458018 -0.90184349 116 108 139
0.11399002 0.6557458 -0.90168077 113 102 134
0.11339762 0.65677625 -0.89972186 114 105 134
0.11343142 0.65733141 -0.89976639 114 106 134
0.11370596 0.65817446 -0.90085018 112 103 132
0.11331585 0.65583509 -0.899535 114 104 134
0.11346751 0.65737849 -0.89992142 114 106 134
0.11336712 0.65782678 -0.89937609 116 110 136
0.11407959 0.65053493 -0.90238649 108 97 129
0.11337703 0.65049481 -0.90016508 111 104 132
0.11330388 0.65098464 -0.89979267 113 107 134
0.11402914 0.65044731 -0.90225118 108 97 129
0.11430305 0.65258032 -0.90251249 113 105 136
0.11397514 0.65257686 -0.90147138 115 108 137
0.11371908 0.65314895 -0.90064955 115 108 138
0.11364447 0.65245253 -0.90051764 115 108 137
0.11299203 0.65058196 -0.89893115 113 107 134
0.11335385 0.65323246 -0.89964551 115 106 136
0.11355421 0.65212107 -0.90030563 115 108 137
0.11392172 0.64655966 -0.9018845 114 107 135
0.1139143 0.64665228 -0.90185553 114 106 135
0.11402725 0.64748776 -0.90225065 112 104 134
0.1139177 0.64693111 -0.9018622 113 105 134
0.11364534 0.64720839 -0.90086228 113 104 134
0.11394519 0.64781427 -0.9019444 112 103 133
0.1133012 0.64972782 -0.89987981 112 104 132
0.11336882 0.64794981 -0.89989656 113 102 133
0.11352232 0.64880568 -0.90047979 112 101 132
0.11308476 0.64757985 -0.89895254 114 105 134
0.11319534 0.64752841 -0.89929831 114 104 134
0.11361118 0.6464479 -0.90075368 115 106 135
0.11620015 0.69938952 -0.91862786 63 46 54
0.11544593 0.68228495 -0.91876417 65 40 55
0.11698471 0.67829698 -0.91872013 84 69 93
0.11598353 0.67777586 -0.91935158 64 54 70
0.11596426 0.68008548 -0.91896236 68 48 68
0.11582387 0.67906922 -0.91921407 64 48 65
0.11663603 0.68019599 -0.9185921 81 61 85
0.11660863 0.68123204 -0.91844565 84 61 86
0.11590444 0.68104821 -0.91883564 69 46 67
0.11569095 0.67464513 -0.91933161 69 57 74
0.11564302 0.67438823 -0.91934961 69 57 74
0.11608325 0.67475265 -0.91909045 77 64 83
0.11635181 0.67724657 -0.9191156 73 61 81
0.11586781 0.67718124 -0.91937131 64 54 69
0.11711186 0.67715985 -0.91869688 88 74 99
0.11728793 0.67507845 -0.91841328 99 83 110
0.11623008 0.67718279 -0.91917562 71 60 78
0.11605634 0.6706844 -0.91879755 79 67 79
0.11539519 0.67293447 -0.91938794 66 54 67
0.11663783 0.67232007 -0.91861922 92 77 97
0.11668787 0.67208564 -0.91857547 93 79 98
0.11622723 0.67333919 -0.91893071 83 69 89
0.1152916 0.66752678 -0.91884249 61 44 53
0.11607135 0.66737401 -0.91849077 78 60 74
0.11632942 0.66909838 -0.91851425 84 70 83
0.1155232 0.66590601 -0.9186005 68 47 60
0.10921157 0.67801422 -0.88985485 93 78 98
0.10943102 0.67801851 -0.89015418 94 79 99
0.10850591 0.67798829 -0.88889116 90 73 92
0.10861526 0.67912501 -0.88914043 87 69 90
0.10884077 0.67964381 -0.88949341 87 68 90
0.10925854 0.68004721 -0.89009821 88 68 93
0.10805943 0.6788246 -0.88835526 85 67 86
0.10832409 0.68040049 -0.88882619 83 63 85
0.10771251 0.67904347 -0.88788235 84 65 83
0.10790191 0.67884457 -0.88813549 85 66 85
0.10717075 0.6756081 -0.88719016 88 70 88
0.10827222 0.6740818 -0.88867193 96 80 100
0.10981677 0.67722386 -0.89067018 98 84 105
0.10924947 0.67419106 -0.89010936 98 84 106
0.10908223 0.67612916 -0.88968301 97 82 102
0.10765585 0.67410153 -0.88775712 94 77 96
0.10885061 0.67404485 -0.88953203 97 83 103
0.10900041 0.67680007 -0.88955295 95 80 99
0.10883019 0.67744184 -0.88931382 93 77 96
0.10750864 0.6755901 -0.88753414 90 73 91
0.10758859 0.67748719 -0.88762176 87 69 86
0.10929679 0.67762589 -0.88994741 95 80 99
0.10998034 0.67770249 -0.89087784 98 84 105
0.10708113 0.67367321 -0.88712549 93 75 94
0.10851514 0.67151278 -0.88891232 92 81 100
0.11005109 0.67003059 -0.89099383 100 86 114
0.10944635 0.67046475 -0.89016145 97 84 109
0.10984888 0.67360032 -0.89101058 100 87 110
0.10862957 0.67009044 -0.88895434 92 81 102
0.10999735 0.66997194 -0.89091152 100 86 114
0.10910954 0.67207837 -0.88981605 95 84 105
0.10846879 0.67343891 -0.88896328 95 81 101
0.10768992 0.67225635 -0.88773906 91 78 96
0.10852142 0.67311954 -0.88902217 95 82 101
0.10873998 0.67285454 -0.88933009 95 82 102
0.10826895 0.67336911 -0.88866311 95 80 100
0.10932244 0.67314005 -0.89020979 97 85 106
0.10856093 0.66983992 -0.88883871 92 80 102
0.10845812 0.66980731 -0.88868988 91 80 101
0.10839543 0.66902924 -0.88857669 90 77 101
0.10832751 0.66753191 -0.88843471 89 71 102
0.10985141 0.66694564 -0.89067858 96 82 108
0.10865492 0.66759241 -0.88891333 91 73 104
0.11000833 0.66620886 -0.89090782 96 83 108
0.10808747 0.66667807 -0.88807207 87 68 100
0.10843183 0.66686612 -0.88858134 89 71 102
0.10997925 0.66707665 -0.89086789 97 84 109
0.10893555 0.66336602 -0.88933426 96 81 105
0.10894303 0.66320074 -0.88935196 96 81 105
0.10932498 0.66231626 -0.88992816 99 86 108
0.10772055 0.66214871 -0.88767576 88 75 95
0.10876727 0.66503859 -0.88907063 92 75 103
0.10958422 0.66296434 -0.89027035 100 87 110
0.10983476 0.66542953 -0.89064878 96 83 107
0.10907447 0.66458851 -0.88952291 94 79 105
0.10965389 0.66581511 -0.89038295 95 81 106
0.1100846 0.66486865 -0.89101595 99 86 109
0.10875964 0.66209126 -0.88913864 96 83 103
0.10755619 0.66134334 -0.88734704 88 76 94
0.10781323 0.65865487 -0.88740724 91 81 98
0.10909698 0.66132551 -0.88952136 98 87 106
0.10858568 0.66090983 -0.88875109 95 84 102
0.10897201 0.66142637 -0.88935554 97 86 105
0.10796376 0.66114563 -0.88789642 91 79 98
0.10871238 0.65930092 -0.8888247 97 87 105
0.10864872 0.65908629 -0.88872421 97 87 104
0.10870695 0.65958667 -0.88881391 97 86 104
0.11001331 0.66038364 -0.89090413 105 95 115
0.10847712 0.65866655 -0.88845193 96 86 103
0.1091903 0.65993601 -0.88958687 100 90 108
0.10887314 0.65478587 -0.88933969 108 95 117
0.10847048 0.65434647 -0.88869172 108 93 115
0.10798404 0.65473408 -0.88779795 106 88 111
0.10913509 0.6543256 -0.88985139 110 98 120
0.10874009 0.65551066 -0.8890205 107 93 115
0.11001872 0.65747958 -0.89100891 108 101 119
0.10798953 0.65641558 -0.88773173 100 86 106
0.10949634 0.65800947 -0.89009708 104 96 113
0.10777435 0.65670979 -0.88737684 97 84 103
0.107917 0.65745932 -0.88758111 95 84 102
0.10836706 0.65620756 -0.88834435 104 89 110
0.10844978 0.6565479 -0.88846594 103 90 109
0.10929686 0.65282458 -0.89005578 106 97 120
0.10961909 0.65314072 -0.89059114 109 99 123
0.10782793 0.65063047 -0.88752198 94 83 107
0.10816269 0.65393686 -0.88815844 106 90 113
0.1085947 0.65345275 -0.88890612 105 93 115
0.10760313 0.65066206 -0.88715351 93 81 105
0.10909571 0.65417671 -0.88978517 109 98 120
0.10799769 0.65137553 -0.88784719 97 85 109
0.1163353 0.69032246 -0.90513682 110 97 140
0.11636301 0.68997848 -0.90534508 110 99 141
0.11633458 0.68954355 -0.90520459 110 100 141
0.11635078 0.69110447 -0.90516269 109 94 139
0.11631058 0.69097155 -0.90491921 109 93 140
0.11637601 0.68968803 -0.90545475 110 100 141
0.11629285 0.69176906 -0.90481716 108 90 137
0.11624082 0.68741751 -0.90624982 109 99 139
0.11589723 0.68647617 -0.90495658 111 101 143
0.11605095 0.68731117 -0.90524846 111 103 144
0.11626828 0.68814313 -0.9059025 111 103 142
0.11572289 0.68656808 -0.90390569 113 106 149
0.11600284 0.68886143 -0.90363598 110 97 143
0.11623529 0.68937659 -0.90465015 110 99 141
0.11567948 0.68752134 -0.90278774 112 99 146
0.11617021 0.68846887 -0.90505517 111 104 144
0.11638238 0.68935984 -0.90560126 110 102 142
0.11576502 0.68695068 -0.9038471 113 105 148
0.11543848 0.68460751 -0.90305477 113 104 149
0.11554291 0.68292314 -0.90369457 110 100 142
0.11545964 0.68170172 -0.90362692 106 95 135
0.11533473 0.68230301 -0.9031055 107 96 137
0.11535697 0.68426144 -0.90284199 111 102 146
0.11569077 0.68509656 -0.9042505 112 101 146
0.11606484 0.68508816 -0.90636522 107 92 135
0.11590159 0.68494231 -0.90538234 110 97 140
0.11617108 0.68268514 -0.90600193 113 102 142
0.11623447 0.68282813 -0.90641826 112 100 140
0.11571803 0.68024647 -0.90412855 111 101 139
0.11583546 0.68003023 -0.90445781 112 102 140
0.11579672 0.67911369 -0.90407354 113 104 141
0.11548077 0.67904407 -0.90300584 111 102 139
0.11564668 0.67803061 -0.90339643 113 104 140
0.11592287 0.67875242 -0.90471452 113 104 140
0.11628825 0.67953563 -0.90647292 113 103 139
0.11624217 0.67815703 -0.90636081 113 103 137
0.1160493 0.67787433 -0.90542138 113 104 138
0.11597484 0.67814845 -0.90502584 113 104 139
0.11579262 0.67437333 -0.90338153 115 107 141
0.11587166 0.67479753 -0.90386188 115 107 140
0.11598831 0.67513847 -0.90447503 115 106 140
0.11585731 0.67450404 -0.90370196 115 107 141
0.1162822 0.67663193 -0.90623313 114 105 138
0.11555291 0.67724442 -0.90284377 114 105 141
0.11573385 0.67562652 -0.90338564 114 106 140
0.11569304 0.67497301 -0.90303546 115 107 141
0.11580776 0.67483503 -0.90357774 115 107 140
0.11615093 0.67738301 -0.90586263 113 104 137
0.1159936 0.67119199 -0.90408003 120 109 145
0.11596097 0.67052549 -0.90412718 120 109 145
0.11620981 0.67148274 -0.90522677 120 109 144
0.11599623 0.67017967 -0.90445322 120 109 144
0.11613925 0.67018253 -0.9052788 119 109 143
0.11597972 0.67341799 -0.90399855 118 108 143
0.11601546 0.67291671 -0.90415186 118 108 144
0.11589701 0.6725896 -0.90364587 118 108 143
0.11576457 0.67147958 -0.903081 119 109 144
0.11645901 0.6734165 -0.90604734 120 109 144
0.11624474 0.6676712 -0.90634978 117 109 139
0.11609738 0.66807193 -0.90541923 118 111 141
0.11624955 0.66929406 -0.9061054 119 110 142
0.11615061 0.66753983 -0.90582043 117 110 140
0.11603672 0.66696239 -0.90525037 117 111 140
0.1161487 0.66954792 -0.90548253 119 110 143
0.11570178 0.66920191 -0.90295225 120 110 145
0.11561456 0.66731912 -0.90273517 120 112 145
0.11574476 0.66834301 -0.90333158 120 111 144
0.1158587 0.6685037 -0.90396565 120 111 144
0.11533233 0.66365528 -0.9031685 117 108 140
0.11546231 0.66271287 -0.90454578 117 107 139
0.11564281 0.66417474 -0.9044258 119 111 142
0.1155502 0.66243786 -0.90521532 117 107 139
0.11547682 0.66391116 -0.90373886 118 109 141
0.11571115 0.66526401 -0.90403664 119 112 142
0.11561297 0.66564357 -0.9031918 119 113 144
0.11601453 0.66586679 -0.90538526 116 110 139
0.11573017 0.66574031 -0.90380955 118 112 142
0.11589767 0.66343975 -0.9064256 117 108 139
0.11515884 0.66121942 -0.9038679 115 105 136
0.11441304 0.6586951 -0.90315819 110 96 129
0.11500986 0.65968388 -0.90403211 114 103 135
0.11436041 0.65854132 -0.90310878 109 95 129
0.11563432 0.65916085 -0.90641099 122 114 144
0.11542434 0.65834081 -0.90576506 118 110 141
0.11547643 0.66007555 -0.90576965 116 105 138
0.1153694 0.66120875 -0.9048093 116 106 137
0.11548974 0.66016144 -0.90581053 116 105 138
0.11540493 0.65983635 -0.90547264 116 105 137
0.1150128 0.65787876 -0.9046638 113 101 135
0.11430752 0.65755755 -0.90315533 108 95 128
0.1151819 0.65747708 -0.90504014 114 103 136
0.11447292 0.65796131 -0.90349901 110 96 130
0.11448728 0.65537941 -0.90299302 114 105 137
0.11484184 0.6545617 -0.9039523 114 107 138
0.11475889 0.65461874 -0.90367824 114 107 138
0.11564469 0.6574989 -0.90663773 122 117 146
0.11554482 0.65642309 -0.90637702 119 113 142
0.11534192 0.6580711 -0.90550053 117 107 139
0.1155135 0.65715885 -0.90611112 120 114 143
0.11546274 0.65798736 -0.90591329 119 112 142
0.11518601 0.65418738 -0.90512943 112 106 137
0.11523046 0.65358227 -0.90556467 110 104 135
0.11520198 0.65346837 -0.90551543 110 104 135
0.11503101 0.65195471 -0.90559441 109 102 133
0.11448611 0.65344095 -0.90288097 115 107 139
0.11430834 0.65095162 -0.90306824 109 98 130
0.11438313 0.65176004 -0.90307701 111 101 133
0.11467858 0.65171045 -0.90430009 110 102 133
0.11426958 0.65130413 -0.90278101 110 99 132
0.11468614 0.65133017 -0.90447026 109 100 132
0.11532269 0.6539169 -0.90590221 111 105 136
0.11531653 0.65359855 -0.90601474 110 104 135
0.11519624 0.64888406 -0.90613514 111 104 133
0.11506905 0.64910203 -0.90593934 110 102 132
0.11476993 0.64830345 -0.90491617 111 104 133
0.11463437 0.64689958 -0.90400457 114 108 136
0.1149445 0.64721781 -0.90484625 114 108 135
0.11441384 0.649046 -0.90373486 109 100 131
0.11471044 0.64882523 -0.90494955 109 102 132
0.1143934 0.64898211 -0.90365297 109 101 131
0.1144741 0.6489774 -0.90398216 109 101 131
0.11448067 0.64943236 -0.90399855 109 99 131
0.11525685 0.64963973 -0.90661722 109 101 132
0.11670542 0.69346821 -0.90697396 108 91 137
0.11749604 0.69576263 -0.90906197 107 91 137
0.11755021 0.69447327 -0.91013688 107 93 135
0.11697148 0.69402653 -0.90781438 108 91 137
0.11744305 0.69359982 -0.91021621 107 94 135
0.11672299 0.69373125 -0.90692842 108 91 137
0.11683316 0.69419384 -0.90721828 107 91 137
0.11709623 0.69539028 -0.90790325 106 91 136
0.11666676 0.69456249 -0.90669811 106 91 136
0.11698776 0.69543076 -0.90757966 105 91 136
0.11743782 0.69299775 -0.91051745 107 94 135
0.11666486 0.68954521 -0.90741026 110 103 140
0.11673801 0.68948579 -0.90805304 109 101 139
0.11666448 0.6896528 -0.90731013 110 103 140
0.1168742 0.69033313 -0.90838468 109 100 139
0.11662132 0.69008315 -0.90688062 110 103 141
0.11662092 0.69315672 -0.90667647 109 91 138
0.11711241 0.69197768 -0.90897095 109 98 137
0.11704805 0.69230926 -0.90865886 109 97 137
0.11705847 0.69324327 -0.90864432 108 93 136
0.11660875 0.69238824 -0.90667224 109 94 138
0.11693678 0.6884557 -0.91011739 107 94 135
0.11660857 0.68715703 -0.90878588 107 92 134
0.11669344 0.68618453 -0.90914255 108 94 135
0.11674504 0.68570095 -0.90935838 109 95 135
0.11686965 0.68570179 -0.90986854 109 96 136
0.11654411 0.68870115 -0.90726203 109 101 139
0.11656262 0.68779272 -0.90830648 107 94 135
0.11653772 0.688223 -0.90768188 108 97 137
0.11671015 0.68911755 -0.90818894 108 99 138
0.11694895 0.6893844 -0.90984923 107 95 136
0.11661322 0.68806684 -0.90844387 107 94 136
0.11695025 0.68262655 -0.90969455 114 103 139
0.11702953 0.68365133 -0.91023684 113 102 138
0.11669343 0.68256301 -0.90842479 113 102 140
0.11674259 0.68351471 -0.90880835 112 100 139
0.11699613 0.68402797 -0.91012919 112 101 138
0.11682826 0.68253714 -0.90908259 114 103 139
0.11685399 0.68544549 -0.90977639 110 96 136
0.11661128 0.68355203 -0.90823293 112 99 139
0.11643156 0.68254447 -0.90720451 112 101 140
0.11670163 0.68457985 -0.90890121 110 97 137
0.1166876 0.68383026 -0.90862614 112 99 138
0.11707148 0.67912215 -0.910065 116 104 139
0.11666889 0.67787158 -0.90827179 115 103 138
0.11656871 0.67811579 -0.90785366 114 103 138
0.11688577 0.67879283 -0.90925032 115 104 139
0.11695602 0.67969638 -0.90959787 115 104 139
0.11658075 0.67836761 -0.90791816 114 104 137
0.11635291 0.68080348 -0.90668648 113 103 140
0.11656243 0.68091083 -0.90770555 114 104 140
0.1170292 0.68114972 -0.90997595 115 106 138
0.11653664 0.67995828 -0.90765917 114 104 139
0.11680323 0.6812607 -0.90885776 115 105 139
0.11655957 0.68022054 -0.90774965 114 104 139
0.11702914 0.67611796 -0.91013831 116 102 138
0.1169565 0.67520314 -0.91027892 114 102 135
0.11702848 0.67613137 -0.9101097 116 102 138
0.11700509 0.67613006 -0.9097504 117 103 139
0.11687317 0.67511022 -0.9091205 117 104 139
0.1167606 0.67516381 -0.90779084 119 106 143
0.11663272 0.6741358 -0.90689415 120 108 144
0.11666399 0.67675304 -0.90791243 116 104 140
0.116924 0.6774537 -0.90926635 116 103 140
0.116449 0.6758678 -0.90668964 116 106 140
0.11699311 0.67733371 -0.90952277 117 103 140
0.11659639 0.67147273 -0.90837246 116 107 137
0.11687195 0.67117232 -0.9094187 118 110 139
0.11702388 0.67065036 -0.90983212 120 113 141
0.11655021 0.67120999 -0.90805352 116 107 138
0.11689099 0.6726113 -0.91016066 115 106 134
0.11655275 0.67280579 -0.90690798 119 108 143
0.11670004 0.67305082 -0.90895045 115 105 136
0.11661369 0.67211235 -0.90850401 115 106 137
0.11659411 0.6727671 -0.907583 118 107 140
0.11657615 0.67249763 -0.90756047 118 107 140
0.11669961 0.66606748 -0.90962976 117 107 136
0.11674237 0.66764146 -0.90873784 118 112 139
0.11647686 0.6661638 -0.90806776 116 108 136
0.11667828 0.6662342 -0.90936226 117 108 136
0.11704485 0.66842204 -0.91017693 120 113 140
0.11683196 0.66762614 -0.90934855 119 112 139
0.11641358 0.66799837 -0.90711254 117 110 139
0.11695725 0.66942346 -0.90927303 121 115 142
0.11675011 0.66964138 -0.90835619 120 113 142
0.11636662 0.66826206 -0.90687835 117 110 139
0.11643212 0.66789842 -0.90720451 117 110 139
0.11653589 0.6639486 -0.9096579 119 109 138
0.11649157 0.66282368 -0.90969127 120 111 139
0.11631043 0.66266423 -0.90891814 120 110 139
0.11667321 0.66303438 -0.91045618 120 112 139
0.11591343 0.66237545 -0.90721112 119 108 139
0.11658468 0.66524667 -0.90952384 118 107 136
0.11636499 0.66465002 -0.90853864 117 107 137
0.11627477 0.664702 -0.907893 117 108 137
0.11584685 0.66251975 -0.90680158 118 108 139
0.11616033 0.66451055 -0.90728295 117 108 137
0.1167313 0.66594696 -0.90993619 117 107 136
0.11625664 0.66014755 -0.90930068 121 114 141
0.11633666 0.66055614 -0.90954405 121 114 141
0.11621896 0.65875703 -0.91026258 116 106 136
0.11639837 0.66103393 -0.90958565 122 115 141
0.11625574 0.65878487 -0.91051817 116 105 135
0.11621045 0.6601252 -0.90896845 122 115 142
0.11591433 0.66100204 -0.90738827 121 112 142
0.11639854 0.66117024 -0.90952438 122 115 141
0.11593823 0.66146398 -0.90744513 120 111 141
0.11614902 0.66026539 -0.90851116 123 116 143
0.11622222 0.6611132 -0.90874606 122 114 142
0.11573865 0.65554947 -0.90799928 112 106 136
0.11612211 0.65762693 -0.91013169 114 104 135
0.11592062 0.65518117 -0.90879607 112 106 134
0.11617007 0.6544891 -0.9098587 111 107 133
0.11615583 0.6554333 -0.90994179 112 106 133
0.11609785 0.65447086 -0.90951633 111 107 133
0.11611921 0.65814465 -0.91002065 116 105 136
0.11568498 0.65790635 -0.90679491 123 118 146
0.11576507 0.65676004 -0.9078247 117 110 139
0.11581069 0.6562891 -0.90834469 114 106 136
0.1160751 0.6578362 -0.90979677 115 105 136
0.1157865 0.65605778 -0.90824461 113 106 136
0.11558373 0.65204537 -0.90758198 113 105 136
0.1156205 0.65070832 -0.90808028 114 105 135
0.1157156 0.65073556 -0.90839744 115 106 137
0.11554506 0.65084088 -0.90778571 112 104 135
0.11534965 0.65187532 -0.90683013 109 102 133
0.11586499 0.65405506 -0.90839595 112 107 135
0.11582915 0.65307957 -0.90823454 116 109 138
0.11625598 0.65334761 -0.9102388 114 109 135
0.11624774 0.65256023 -0.91020578 118 111 137
0.11604992 0.65274012 -0.90927464 117 110 138
0.11570121 0.6497454 -0.90816474 117 107 137
0.11167993 0.68573034 -0.89377171 85 67 97
0.11207286 0.68605453 -0.89477605 86 67 99
0.11101988 0.68272716 -0.89262766 91 74 104
0.11113217 0.68310261 -0.89274615 90 73 103
0.11058677 0.68380678 -0.8919971 87 71 99
0.11047682 0.68322581 -0.89186674 87 71 98
0.11030019 0.68269104 -0.89163798 87 69 97
0.11197724 0.68190539 -0.8947987 104 90 120
0.11192986 0.68278408 -0.89465523 98 83 114
0.11179334 0.68348461 -0.89428133 93 75 107
0.11159849 0.68406266 -0.89371133 89 71 102
0.11149355 0.68392271 -0.89341849 89 71 102
0.11159803 0.68484455 -0.89365637 87 68 99
0.11080057 0.68056852 -0.892178 93 74 103
0.11058542 0.68143684 -0.89203095 91 71 101
0.11105779 0.67959893 -0.89236569 95 78 106
0.11122645 0.68023944 -0.89271194 96 78 108
0.11037474 0.67947596 -0.89147133 92 75 101
0.11013202 0.67889756 -0.89115673 95 78 102
0.11031179 0.6785785 -0.89133543 95 80 103
0.11168662 0.67802995 -0.89341944 100 86 113
0.111851 0.67985302 -0.89416486 103 89 118
0.11188732 0.67963719 -0.89422506 103 89 118
0.11209247 0.67933524 -0.89472008 104 91 120
0.11145616 0.68059725 -0.89325237 98 82 111
0.11133558 0.68007469 -0.89284408 96 80 109
0.11164985 0.68073922 -0.89378625 101 86 115
0.11022778 0.67754805 -0.8911925 99 85 106
0.11123053 0.6769765 -0.89235771 99 85 110
0.11093107 0.6740725 -0.89222229 104 93 118
0.11022726 0.67648739 -0.89126563 100 87 109
0.11121739 0.67394072 -0.8925522 105 95 120
0.11187056 0.67482942 -0.89391321 108 97 124
0.11201989 0.67499566 -0.89424622 108 98 125
0.1120308 0.67606801 -0.89432138 106 95 123
0.11229779 0.67578459 -0.89488906 109 98 126
0.11194572 0.67731822 -0.89408761 103 90 118
0.11165006 0.6772067 -0.8933084 101 87 114
0.11191978 0.67710674 -0.89403313 103 90 118
0.11138231 0.67462635 -0.89277357 104 93 119
0.1105017 0.6724577 -0.89178431 102 91 114
0.11093239 0.67185396 -0.89227825 104 93 117
0.11028814 0.67295718 -0.89153564 101 90 113
0.11034758 0.67090219 -0.89147866 102 89 115
0.11023784 0.67040914 -0.8912853 101 88 115
0.11085669 0.67008734 -0.89211756 104 92 117
0.11178967 0.66993684 -0.89400297 105 95 119
0.11205712 0.67235279 -0.89434618 110 102 127
0.11209311 0.6704039 -0.8947494 106 96 120
0.11158724 0.67163038 -0.89329004 108 98 123
0.11214615 0.6732893 -0.89447534 112 103 129
0.1115793 0.6735453 -0.89323646 107 98 124
0.11097825 0.66771001 -0.89225441 104 92 118
0.11012161 0.6697911 -0.89108241 101 87 115
0.11098876 0.66749322 -0.89226723 104 92 118
0.11033308 0.66768122 -0.89136583 100 87 113
0.11073477 0.66680545 -0.89191437 102 89 115
0.11050929 0.66699731 -0.8916055 101 88 113
0.11169672 0.66628289 -0.89371085 108 96 121
0.11211502 0.66730309 -0.8948403 109 98 122
0.11210882 0.66848528 -0.89484394 107 96 120
0.11163631 0.66937101 -0.89358646 105 95 119
0.11185466 0.66917765 -0.89417475 105 94 119
0.11155121 0.66864628 -0.8933506 105 95 119
0.11112458 0.66580975 -0.8924436 104 92 117
0.11116484 0.66280627 -0.892452 111 101 123
0.11122284 0.66588855 -0.89257967 105 93 118
0.11111919 0.66241223 -0.89238763 111 102 123
0.1101189 0.66458917 -0.89106083 100 87 110
0.11058069 0.66406006 -0.89167482 104 93 115
0.11201604 0.66276896 -0.89455599 113 106 127
0.11198208 0.66409791 -0.89445692 112 103 126
0.1118279 0.66409379 -0.8940326 112 102 125
0.11186817 0.66540778 -0.89415264 111 99 124
0.11157868 0.66392404 -0.89335978 112 101 124
0.11169769 0.66583812 -0.89370608 109 97 122
0.11125413 0.65947795 -0.89271206 114 106 127
0.11084533 0.66044819 -0.89211339 111 101 122
0.11131368 0.65836281 -0.89285308 115 107 128
0.11045304 0.65986383 -0.89156938 109 99 119
0.1104783 0.65871793 -0.89161479 110 102 121
0.11073727 0.65897304 -0.89199787 111 103 123
0.11193565 0.66066837 -0.8944338 114 107 129
0.111984 0.6591267 -0.89472067 116 106 130
0.11198112 0.6585241 -0.89476883 116 106 131
0.11156579 0.66148311 -0.89335418 114 106 127
0.11162145 0.66077679 -0.8935464 114 107 128
0.11144414 0.66143376 -0.893022 114 105 126
0.1113089 0.65561706 -0.89313 115 107 129
0.11092712 0.6580615 -0.89230043 113 105 125
0.11072151 0.65789986 -0.89201224 112 104 123
0.10998575 0.65534848 -0.89118183 111 103 123
0.11005818 0.65775722 -0.89104009 108 101 118
0.10993657 0.65450728 -0.8911956 112 104 125
0.11005535 0.65470022 -0.89135331 112 104 125
0.11163465 0.65439421 -0.89406574 116 107 131
0.11199595 0.65772903 -0.89486879 116 106 132
0.1116483 0.65788412 -0.89385581 116 106 130
0.11185256 0.65800661 -0.8944425 116 106 131
0.11148308 0.65522623 -0.89365578 116 106 130
0.11120552 0.65263861 -0.89289719 113 104 130
0.11055965 0.65343857 -0.89203638 112 104 128
0.11071879 0.65384245 -0.89232802 113 105 128
0.11114193 0.65149289 -0.89265031 111 102 131
0.11071784 0.65184146 -0.89206344 111 101 129
0.10988283 0.65394825 -0.89109296 111 103 125
0.11019932 0.65145743 -0.89126247 110 98 127
0.11198323 0.65256214 -0.89490044 116 108 134
0.1118938 0.65211695 -0.89460737 115 107 134
0.11164866 0.65151215 -0.89382088 113 104 133
0.11154889 0.65388489 -0.89379919 115 107 131
0.11147871 0.65166134 -0.89332896 112 103 132
0.11154626 0.6491974 -0.89385682 108 99 129
0.11165544 0.64413232 -0.89430767 116 106 132
0.11774164 0.6973893 -0.91540259 90 78 105
0.11542516 0.69862282 -0.91776919 65 45 47
0.11634479 0.69814807 -0.91683882 75 58 70
0.11571857 0.69885969 -0.91771048 67 49 53
0.11729074 0.69849867 -0.91627258 84 71 91
0.11761857 0.69855994 -0.9159739 88 76 99
0.11787231 0.69845802 -0.91583133 90 78 104
0.11634476 0.69435436 -0.91648161 75 53 71
0.11577684 0.69368881 -0.91729856 66 43 55
0.11620512 0.69544762 -0.91638136 75 53 70
0.11534718 0.69519442 -0.91743529 63 40 48
0.11651695 0.69496423 -0.91613615 78 57 77
0.11602884 0.69427854 -0.91686553 71 48 63
0.1163121 0.69589835 -0.91615129 77 56 74
0.11565313 0.69703746 -0.91675031 69 48 59
0.11826516 0.69388092 -0.91454393 99 80 118
0.11736413 0.69511801 -0.91532344 88 69 98
0.11776584 0.69689083 -0.91526371 91 78 106
0.11820967 0.69514066 -0.91473854 97 81 117
0.11516984 0.69157809 -0.91814238 62 36 46
0.11635853 0.69027799 -0.91652155 83 64 87
0.11585557 0.69188696 -0.91717893 72 51 66
0.11553828 0.68952501 -0.91768962 69 43 61
0.11562143 0.69013309 -0.91755611 70 45 62
0.11627948 0.68988305 -0.91664326 82 62 85
0.11526697 0.69300282 -0.91797 60 35 43
0.11640729 0.69266176 -0.91655511 77 57 77
0.11816291 0.69314772 -0.91458714 99 79 118
0.11595341 0.69285786 -0.91710663 70 49 63
0.11732583 0.69142985 -0.91532815 95 80 110
0.11621967 0.69315994 -0.91683847 73 51 68
0.1170134 0.69217402 -0.91578865 88 70 96
0.11619055 0.68564737 -0.91632682 89 73 89
0.11591716 0.68582547 -0.91671711 84 66 79
0.11706173 0.68586582 -0.91518778 103 92 118
0.11530223 0.68859875 -0.91791159 67 40 54
0.11553155 0.68890339 -0.91764474 70 44 61
0.11611709 0.68706971 -0.91661501 84 65 84
0.11626122 0.6882208 -0.91655886 84 64 88
0.11739421 0.68842083 -0.91499484 105 94 126
0.11755577 0.68603265 -0.91453224 111 104 135
0.11712907 0.6876334 -0.91528744 101 89 118
0.11712499 0.68842477 -0.9153716 100 87 117
0.11769355 0.68780845 -0.91451567 111 103 137
0.1153366 0.68381518 -0.91829306 69 44 53
0.1158016 0.68423945 -0.91772771 78 57 70
0.11637716 0.68416446 -0.91700715 88 70 89
0.11591934 0.68412167 -0.91765028 80 59 74
0.1158739 0.68443948 -0.91749418 80 60 73
0.11722193 0.68509984 -0.91523576 105 95 122
0.11759645 0.68253976 -0.91505253 108 95 124
0.11677361 0.6819365 -0.91789949 89 67 93
0.11741472 0.68204421 -0.91576087 103 88 116
0.11706121 0.68190104 -0.91695851 95 76 103
0.11730726 0.68408966 -0.91566622 104 92 121
0.11763992 0.68412155 -0.91456175 111 102 132
0.11761813 0.6790188 -0.91698122 101 87 115
0.11728473 0.68001121 -0.91725171 97 80 106
0.11789056 0.67814881 -0.91690236 105 93 121
0.11742098 0.67958784 -0.91718405 98 83 110
0.11810121 0.67800349 -0.91557276 112 104 132
0.1179682 0.67956221 -0.91487479 112 103 131
0.11758932 0.68002892 -0.91593361 105 91 118
0.11790076 0.67874074 -0.9154337 110 101 128
0.11778393 0.68017966 -0.91522986 109 97 125
0.11741154 0.68014318 -0.91647327 101 86 112
0.11712077 0.6812827 -0.91696584 95 77 103
0.11721125 0.67390627 -0.91462219 98 85 113
0.1173025 0.67451531 -0.91671568 100 85 113
0.11736978 0.67493182 -0.91719317 100 85 113
0.11758899 0.67625719 -0.91772372 99 85 113
0.11743347 0.67531288 -0.91721702 100 85 113
0.1176786 0.67669719 -0.91721159 99 86 114
0.11728836 0.67418563 -0.91456109 99 87 115
0.11728997 0.67423618 -0.91466421 99 87 115
0.11785884 0.67620438 -0.91464418 109 101 129
0.11820428 0.6777336 -0.91539848 114 106 135
0.11806437 0.67770374 -0.91644526 108 98 127
0.11722053 0.67073262 -0.91605926 102 86 115
0.11721862 0.67238206 -0.91713041 102 85 115
0.11722574 0.67031491 -0.91575193 102 87 115
0.11729916 0.66996044 -0.91496468 103 87 119
0.11693442 0.66992378 -0.91772377 98 85 103
0.11722621 0.6730752 -0.91531271 100 86 115
0.11719632 0.67356873 -0.91710144 101 85 113
0.11726175 0.67227656 -0.91492027 100 86 117
0.11730281 0.67124939 -0.91532546 103 87 119
0.117342 0.67040706 -0.91457707 103 87 120
0.11148351 0.66681004 -0.9169699 55 49 57
0.11412098 0.66629297 -0.91819257 61 45 56
0.11181484 0.66631669 -0.91658223 51 40 47
0.11265434 0.66691381 -0.91793376 61 54 64
0.11737257 0.66690564 -0.91573197 109 97 119
0.11699089 0.66846281 -0.91736376 100 87 105
0.11686515 0.66813755 -0.91752672 97 83 100
0.11719237 0.66660416 -0.91603905 105 92 113
0.11694825 0.66613495 -0.91642791 99 84 104
0.11685111 0.66763192 -0.91733515 96 82 100
0.11693759 0.66978592 -0.91779649 98 86 103
0.11725032 0.66882646 -0.91610223 104 92 115
0.11730429 0.66895479 -0.91559798 105 92 118
0.11697128 0.66986954 -0.91747916 98 85 105
0.11733267 0.668984 -0.91536039 105 92 119
0.11722332 0.66914219 -0.91608059 103 90 115
0.11491732 0.66545933 -0.91820282 66 44 58
0.11355135 0.66416603 -0.91670197 69 51 64
0.11337493 0.66471452 -0.91679454 64 47 58
0.11471453 0.6631425 -0.91712242 81 60 78
0.11510104 0.66269356 -0.9172188 86 64 84
0.1119472 0.66583025 -0.91622263 50 36 43
0.11471027 0.66325361 -0.91716349 80 59 77
0.11160213 0.66522741 -0.91592586 49 35 41
0.1122243 0.66426766 -0.91611052 56 41 48
0.11140089 0.66548812 -0.91586471 46 34 39
0.11337066 0.66390765 -0.91649461 69 52 65
0.11158779 0.66322541 -0.91585845 48 33 37
0.11594766 0.66249043 -0.91623122 99 80 103
0.11529282 0.66278172 -0.91732907 87 65 84
0.11556662 0.66279006 -0.91693461 91 70 91
0.115962 0.66414601 -0.91715699 88 68 87
0.1164089 0.66335309 -0.9160741 100 83 106
0.1169579 0.66586286 -0.91628444 100 84 105
0.11702685 0.66421598 -0.91539919 109 94 119
0.11730817 0.6653946 -0.91522199 110 97 121
0.11633069 0.66578901 -0.91779029 85 65 83
0.11677878 0.6640591 -0.91593915 104 87 111
0.11764264 0.66594845 -0.91464275 116 105 130
0.11439379 0.65988338 -0.91645449 80 63 79
0.11443305 0.65916413 -0.91627634 80 65 80
0.11436261 0.65982282 -0.91643679 80 63 78
0.11322122 0.65997505 -0.91638571 67 50 61
0.11228269 0.65899247 -0.91606468 56 41 47
0.11350085 0.6610136 -0.91649932 71 52 64
0.11312661 0.66101241 -0.91637027 66 48 59
0.11434107 0.66207457 -0.91677356 80 60 76
0.1127811 0.66107148 -0.91625029 62 45 53
0.1124735 0.66071993 -0.91614926 59 42 49
0.11563687 0.65948105 -0.91598469 94 80 100
0.11588928 0.65883142 -0.91554892 97 86 105
0.11533392 0.66018325 -0.91648811 91 74 93
0.11698457 0.66190594 -0.91451108 117 104 133
0.11591688 0.66137975 -0.91601068 100 83 106
0.11675739 0.65972257 -0.91461396 111 100 125
0.11538319 0.66208285 -0.91686106 93 71 93
0.11546578 0.65676695 -0.91561532 91 76 98
0.11586057 0.65475917 -0.91481113 95 76 108
0.11589263 0.65586185 -0.91492563 96 80 107
0.11605565 0.65786707 -0.91514504 99 89 109
0.1162067 0.65778422 -0.91496593 101 91 113
0.1154592 0.65206337 -0.91566789 86 67 90
0.11588646 0.65142316 -0.91506064 90 72 95
0.11604509 0.65332657 -0.9145788 96 76 107
0.11559726 0.65353209 -0.91538036 90 69 99
0.11583534 0.65225929 -0.91510516 91 71 98
0.11534111 0.64854544 -0.91554904 83 71 89
0.11587034 0.65012455 -0.9150666 88 72 91
0.11609326 0.65020841 -0.91475511 91 74 95
0 0 0 1 0 0 0 1 0 0 0 1 0 0 0 0 0 1030 1 0 0
