ply
format ascii 1.0
comment PCL generated
element vertex 940
property float x
property float y
property float z
property uchar red
property uchar green
property uchar blue
element camera 1
property float view_px
property float view_py
property float view_pz
property float x_axisx
property float x_axisy
property float x_axisz
property float y_axisx
property float y_axisy
property float y_axisz
property float z_axisx
property float z_axisy
property float z_axisz
property float focal
property float scalex
property float scaley
property float centerx
property float centery
property int viewportx
property int viewporty
property float k1
property float k2
end_header
0.20364778 0.049364597 -0.89727068 163 160 187
0.20298219 0.050424881 -0.89654285 169 166 195
0.20316699 0.049396358 -0.89669275 164 161 189
0.20324111 0.050557792 -0.89686471 169 166 196
0.20365292 0.050096586 -0.89732885 166 164 192
0.20434885 0.049973298 -0.89815986 164 162 189
0.20465373 0.050434366 -0.89856052 165 163 191
0.20322055 0.050859936 -0.89669889 170 168 196
0.22554399 0.076318584 -0.9137615 113 95 70
0.22598438 0.076893747 -0.91398585 108 86 65
0.2241862 0.074091919 -0.91242123 143 134 115
0.22446756 0.074581519 -0.91261065 134 121 102
0.22433373 0.075426273 -0.91439003 127 115 90
0.22316083 0.072474316 -0.91258669 158 147 145
0.22379278 0.07407257 -0.91357261 142 130 115
0.22423968 0.074890919 -0.91369396 134 123 101
0.2234216 0.073101193 -0.91293323 152 141 133
0.22431615 0.075042948 -0.91373682 132 121 98
0.22528277 0.076012217 -0.91371101 116 101 76
0.22522439 0.07470075 -0.91171396 126 107 93
0.22490242 0.075457349 -0.91333282 123 108 85
0.22481115 0.075165577 -0.91298497 126 111 90
0.22538705 0.07529033 -0.91244483 121 102 84
0.22476257 0.074133046 -0.91140181 134 116 103
0.22499712 0.075247101 -0.91287625 124 108 88
0.22532661 0.074656881 -0.91151285 125 106 93
0.22222084 0.07138218 -0.91368961 159 145 154
0.2218812 0.070077144 -0.91263813 162 154 164
0.22163764 0.06958615 -0.91267103 161 156 165
0.22162525 0.070443854 -0.9142341 157 149 152
0.22139719 0.069053777 -0.91261923 161 159 166
0.22181524 0.070482515 -0.91359937 159 150 156
0.22272627 0.071184009 -0.91177243 163 155 158
0.2231947 0.071966156 -0.91160309 163 155 152
0.22312385 0.071994096 -0.91186941 162 153 151
0.22298308 0.070983939 -0.91064441 165 161 161
0.22244139 0.071495987 -0.91317183 160 147 154
0.22245558 0.070689321 -0.91179991 163 156 162
0.2203282 0.067058809 -0.91273218 167 170 174
0.22029041 0.066640913 -0.91182935 173 175 183
0.21992648 0.065824598 -0.9117409 177 178 186
0.22025388 0.066187114 -0.91082287 178 180 193
0.22044161 0.067592248 -0.91344947 162 165 167
0.21978036 0.065473169 -0.91157764 179 180 188
0.2198576 0.06577491 -0.91295463 163 163 171
0.21951914 0.064547904 -0.91116023 180 180 192
0.21973702 0.065324031 -0.91170293 177 177 186
0.21970125 0.065257505 -0.91432619 145 141 153
0.22037487 0.067615286 -0.91414309 156 157 158
0.22082821 0.068100348 -0.91288555 162 165 169
0.22111064 0.067692928 -0.91071767 171 172 187
0.21864666 0.062042687 -0.91335434 163 158 174
0.21815233 0.060617637 -0.91165656 173 167 184
0.21889576 0.062772237 -0.91362357 156 150 166
0.21890767 0.062806055 -0.91369063 156 150 166
0.2184872 0.061577126 -0.91310549 167 162 178
0.21874912 0.062333085 -0.91395754 161 157 173
0.21943447 0.064286478 -0.9110021 181 180 193
0.21934681 0.064054884 -0.91196102 169 166 180
0.21885905 0.062659569 -0.91142571 170 164 180
0.21944004 0.064362586 -0.9143157 142 136 152
0.21904778 0.063182667 -0.91070718 180 177 191
0.21626088 0.057154372 -0.91207337 174 174 192
0.2164679 0.058057394 -0.9110651 174 174 192
0.21624063 0.057475913 -0.91146272 173 173 191
0.21703653 0.059096504 -0.91067439 176 174 191
0.21688692 0.057898458 -0.91241878 180 178 195
0.21763358 0.059681926 -0.91097307 174 168 186
0.21809292 0.060415428 -0.91303766 177 174 190
0.21695407 0.057036534 -0.91427332 183 181 197
0.21805757 0.06032772 -0.91220218 175 170 187
0.21773155 0.059328474 -0.91418511 181 180 195
0.21811421 0.060489781 -0.91244531 176 171 187
0.21195154 0.052776556 -0.91193128 170 168 189
0.21280473 0.054044489 -0.91125333 156 154 172
0.21203813 0.053253613 -0.91133261 167 165 186
0.21337722 0.054766975 -0.91089487 156 154 172
0.21290916 0.054155037 -0.91123456 155 152 171
0.21474175 0.056126207 -0.91055059 160 160 180
0.21368247 0.05361443 -0.91307503 161 158 177
0.21361592 0.052783459 -0.91433609 160 157 174
0.21515131 0.0560751 -0.91122299 163 162 182
0.21395774 0.053312186 -0.91404229 161 158 176
0.21514879 0.054620191 -0.91438365 171 169 185
0.21462142 0.054800387 -0.91257936 162 161 180
0.21427803 0.053628035 -0.91421223 164 161 178
0.21581461 0.056577783 -0.91190445 170 169 188
0.21662202 0.056438707 -0.91436893 182 181 197
0.19326372 0.049446426 -0.91438496 161 161 185
0.19483531 0.049596313 -0.91417605 161 161 185
0.19691449 0.048968822 -0.91388953 162 161 185
0.19458504 0.050444044 -0.91425657 160 161 183
0.19370554 0.050560139 -0.91436881 159 161 183
0.19623345 0.050428182 -0.91421998 163 162 186
0.19468971 0.050897002 -0.91434836 161 161 183
0.19683629 0.050768275 -0.91428983 165 163 187
0.19752854 0.05042642 -0.91428757 165 163 187
0.19813918 0.049407825 -0.91424441 164 163 186
0.21182981 0.051445082 -0.91168922 163 160 181
0.21166725 0.052283105 -0.91153437 170 168 190
0.21222407 0.051984936 -0.91232085 163 160 180
0.21256101 0.051900014 -0.91280627 159 155 174
0.21145605 0.052122492 -0.91120881 170 169 192
0.21111371 0.050204784 -0.91070586 134 128 145
0.21142313 0.050021719 -0.91110331 136 130 146
0.21219334 0.04965762 -0.91209388 141 135 152
0.21165313 0.049958214 -0.91139972 138 132 149
0.21150854 0.049127206 -0.911201 120 112 126
0.21356659 0.049379412 -0.91434574 166 164 183
0.213542 0.052200489 -0.91425931 157 153 170
0.21329741 0.050075747 -0.9137913 152 147 164
0.21313448 0.051584609 -0.91360921 154 149 166
0.21342641 0.052075747 -0.91407847 156 152 169
0.1680561 0.04644319 -0.91360265 190 179 190
0.16959484 0.047903169 -0.91375214 164 148 174
0.16758683 0.045275278 -0.91359818 208 200 198
0.16879828 0.046319991 -0.9137218 188 177 186
0.16968688 0.046092268 -0.91386896 188 176 181
0.16805565 0.048073649 -0.91350967 166 149 174
0.16693868 0.046833623 -0.91341144 188 175 187
0.16674118 0.046423204 -0.913405 194 184 192
0.16735597 0.047729906 -0.91342342 173 157 177
0.16689955 0.04650002 -0.91342461 193 182 191
0.17014417 0.045390993 -0.91432041 188 178 173
0.17035913 0.047504392 -0.91417879 164 150 168
0.19288115 0.047761902 -0.91442138 154 152 177
0.19263078 0.04603947 -0.9143967 142 139 160
0.19704574 0.045839816 -0.91415447 128 127 141
0.19536453 0.04683486 -0.91403323 144 142 164
0.19397637 0.045523275 -0.91415977 133 130 150
0.19661821 0.046219382 -0.91411018 134 132 149
0.1960133 0.047038063 -0.91401762 145 143 164
0.1952537 0.047919519 -0.91405934 154 153 176
0.19538002 0.04791788 -0.9140442 154 153 176
0.19488369 0.047816064 -0.9141013 153 152 175
0.19376767 0.048387431 -0.91424799 158 157 182
0.19504525 0.048481517 -0.91409707 159 158 182
0.19798841 0.045567863 -0.91433281 127 126 139
0.19746935 0.04508568 -0.9142763 119 118 130
0.19744536 0.04581159 -0.91421545 127 126 140
0.1978998 0.046190441 -0.91431701 132 131 145
0.19778034 0.048162188 -0.91407025 155 154 175
0.19289123 0.044847291 -0.91430736 130 126 146
0.1928065 0.042798121 -0.9141072 123 122 135
0.19043063 0.041177552 -0.91438669 112 111 120
0.19316274 0.044016678 -0.91416347 126 124 140
0.19174603 0.042787675 -0.91430366 119 117 130
0.21786308 0.066324949 -0.92228597 187 189 207
0.216391 0.061691407 -0.92372245 178 173 190
0.21682331 0.061555754 -0.9237045 175 169 187
0.21684106 0.063701093 -0.92352015 194 196 212
0.21695262 0.060564283 -0.92349309 166 155 174
0.21741542 0.063451022 -0.92249924 190 189 204
0.21733861 0.062242128 -0.92260718 178 174 189
0.21130367 0.056708202 -0.92229539 180 178 199
0.21619332 0.059602737 -0.92373496 168 159 177
0.21447451 0.05713002 -0.92345262 173 167 182
0.21573982 0.059295759 -0.92364144 170 161 180
0.21440633 0.057100136 -0.92343765 174 167 183
0.2166611 0.058012918 -0.92393643 166 155 166
0.2131988 0.056825113 -0.92315876 178 174 192
0.21576753 0.060044006 -0.92369682 169 162 179
0.21711285 0.057694949 -0.92316669 163 150 158
0.21701494 0.058085818 -0.92339951 164 152 161
0.21696407 0.060444999 -0.92346734 165 155 173
0.21724853 0.059546284 -0.9228338 163 151 165
0.21231854 0.055661291 -0.92267698 178 176 197
0.2121737 0.054933142 -0.92250973 177 176 198
0.21246317 0.054008383 -0.92253816 176 174 198
0.21602868 0.054611027 -0.92343825 168 162 172
0.21322122 0.052936256 -0.92268223 173 171 195
0.21490264 0.05291808 -0.92287523 171 169 186
0.21563691 0.054320768 -0.92331839 169 163 176
0.21554679 0.053013477 -0.92297518 170 168 183
0.21351476 0.056114614 -0.9231782 176 172 189
0.21363793 0.055604175 -0.92314261 175 170 188
0.21324861 0.053257611 -0.92274636 173 171 194
0.21325897 0.056067072 -0.92310983 177 173 192
0.21319272 0.05504135 -0.92296189 175 173 193
0.2169075 0.05448116 -0.92322189 166 160 167
0.21727267 0.056540459 -0.92278504 161 148 151
0.21715745 0.056373958 -0.92304355 163 150 154
0.21657103 0.052290827 -0.92259991 165 157 172
0.21539234 0.052209985 -0.92240632 166 159 177
0.21379229 0.052658472 -0.92263871 172 171 192
0.17340541 0.041961711 -0.92250341 88 77 87
0.17328022 0.04158318 -0.92265594 87 76 86
0.17377429 0.042045671 -0.9234004 70 58 69
0.17419225 0.042176638 -0.92267144 76 63 75
0.17418803 0.042220198 -0.92262268 76 64 76
0.21372023 0.057873517 -0.90205556 199 196 214
0.21378309 0.057870913 -0.90233576 198 193 213
0.21409571 0.058196161 -0.90196145 200 195 213
0.20652126 0.052981503 -0.9017849 155 155 174
0.20766741 0.053698476 -0.9022364 158 157 177
0.20687714 0.053350259 -0.90153587 160 159 180
0.2061169 0.052905291 -0.90115488 158 158 180
0.20720714 0.053773906 -0.90113866 165 163 188
0.20500927 0.049999777 -0.8990525 165 163 191
0.20584147 0.050181646 -0.9009704 159 158 180
0.20622765 0.049639083 -0.90226054 167 165 189
0.20608626 0.049837831 -0.90178818 164 162 186
0.20604949 0.050433733 -0.90152168 159 158 179
0.20640409 0.051705003 -0.9022395 153 153 170
0.20535538 0.051259294 -0.8998872 162 161 186
0.2052075 0.05271567 -0.89973581 165 165 193
0.20525607 0.049519584 -0.8994996 161 159 184
0.20553391 0.050725147 -0.90019876 159 158 181
0.20612955 0.052257724 -0.90158701 153 154 172
0.15042621 0.10607818 -0.91931432 112 86 83
0.22563933 0.080405585 -0.91919291 106 75 64
0.2259381 0.080731139 -0.91943777 101 72 62
0.22403826 0.078323692 -0.91864526 122 102 84
0.22396994 0.077999093 -0.91837448 122 101 85
0.22069421 0.072827585 -0.920434 160 161 166
0.22085474 0.073422454 -0.92023838 161 164 168
0.22099204 0.073045544 -0.91969168 161 163 168
0.22198589 0.074817508 -0.91863018 148 149 138
0.22191906 0.074968979 -0.91884232 149 150 140
0.22216521 0.075093269 -0.91845322 145 145 131
0.22060621 0.071255766 -0.91962361 160 162 171
0.2202647 0.071818031 -0.92042345 162 161 169
0.22081158 0.071421839 -0.91924387 160 163 171
0.22091775 0.071144506 -0.91873217 160 164 173
0.21835802 0.067259543 -0.92123801 177 177 197
0.21807921 0.066378668 -0.92165625 184 185 204
0.21783428 0.065957956 -0.92221689 189 191 209
0.21828559 0.065038748 -0.92025656 186 185 202
0.21803296 0.06579309 -0.92148519 187 188 205
0.2184494 0.066465616 -0.9205085 178 177 196
0.21873873 0.068180144 -0.92109686 172 173 195
0.21916217 0.066838458 -0.91927719 172 173 192
0.21898228 0.065716438 -0.91883987 176 175 193
0.21883553 0.066373952 -0.91960824 175 175 194
0.21909645 0.065816656 -0.91867971 175 174 192
0.21873572 0.068168983 -0.92109495 172 173 195
0.2178352 0.061145667 -0.9192546 170 167 167
0.21770011 0.061999653 -0.92067087 177 174 181
0.21756604 0.062674224 -0.92205817 182 179 193
0.21760899 0.063953862 -0.92177171 194 196 209
0.21781383 0.061340634 -0.91948503 172 169 170
0.21822719 0.062075183 -0.91844594 172 168 172
0.21865518 0.064266182 -0.91861081 181 178 193
0.21839811 0.064225256 -0.91941196 184 183 198
0.21796392 0.062780634 -0.91979408 181 179 187
0.21800384 0.060957752 -0.91837823 167 163 161
0.17469178 0.056878012 -0.91943616 98 88 92
0.17767361 0.057911709 -0.91934699 173 159 152
0.17482977 0.056881979 -0.9194271 102 91 95
0.17557041 0.057834093 -0.91948313 112 103 108
0.17724025 0.057629962 -0.91934514 164 150 144
0.18011191 0.05773421 -0.91909373 164 156 157
0.17876363 0.057186246 -0.91913825 179 165 156
0.18321013 0.057053983 -0.9185732 153 146 151
0.18217815 0.056781854 -0.91913021 149 148 160
0.18283215 0.057752032 -0.91860205 152 145 151
0.20459992 0.057386182 -0.91917837 163 166 179
0.20377876 0.056877673 -0.91859579 161 162 176
0.20708343 0.056907568 -0.92029446 171 173 190
0.20786992 0.056833073 -0.92065889 176 177 196
0.20629746 0.056970358 -0.91992885 167 169 184
0.20553525 0.057492916 -0.91963685 164 167 180
0.21063045 0.056967467 -0.92200035 181 180 201
0.21760242 0.05782504 -0.92000347 165 156 163
0.21754941 0.056668289 -0.92086339 162 151 154
0.21755353 0.058769561 -0.9212271 163 152 162
0.21752994 0.060249895 -0.92203659 162 151 165
0.21756522 0.057135545 -0.92063296 163 152 157
0.21785074 0.060450744 -0.91897821 165 160 159
0.21770985 0.057994623 -0.91881174 166 160 163
0.2175841 0.059176363 -0.92079175 164 155 165
0.21776104 0.058372829 -0.91854787 166 161 162
0.21772118 0.058099415 -0.91876674 166 160 163
0.21777134 0.05924413 -0.91899651 166 160 161
0.17729239 0.054566272 -0.91896123 165 153 152
0.17611989 0.054085162 -0.91909164 149 136 140
0.17730781 0.054588482 -0.91896188 165 153 152
0.176835 0.055595912 -0.91919714 171 155 147
0.17734464 0.055689879 -0.91912299 177 161 152
0.17518072 0.053917401 -0.91922915 138 124 130
0.17476672 0.054060761 -0.91928214 128 114 121
0.17439793 0.054891229 -0.91934687 109 97 105
0.17689388 0.056486942 -0.91925055 167 151 140
0.1750489 0.05554359 -0.91933298 122 109 112
0.17431408 0.054635897 -0.91934061 109 97 106
0.18100855 0.05455412 -0.91896772 148 146 162
0.17908259 0.053085197 -0.91866714 149 144 159
0.17936277 0.053991869 -0.91886359 149 146 160
0.17971055 0.053091388 -0.91866094 148 144 160
0.17982276 0.054311782 -0.91892856 148 146 161
0.17878579 0.054868985 -0.91898984 160 154 159
0.17786741 0.05433603 -0.91885704 165 155 157
0.18140323 0.056583866 -0.91939795 150 150 164
0.17949466 0.055784512 -0.91916889 162 156 160
0.1806384 0.056493629 -0.91934109 157 154 162
0.17793031 0.055965327 -0.91910833 181 167 157
0.18215689 0.053867213 -0.91866678 148 146 164
0.1822179 0.055774692 -0.91898447 149 148 161
0.18243621 0.056211371 -0.91895866 150 148 159
0.18296817 0.055302843 -0.91853708 152 146 156
0.18245105 0.055283453 -0.91878271 150 147 160
0.20452638 0.056096449 -0.91877806 159 160 174
0.2068169 0.053128663 -0.91879535 159 155 172
0.20659812 0.053868771 -0.91897798 159 157 173
0.20554978 0.054514028 -0.91872823 158 157 172
0.20692341 0.053488899 -0.91898787 159 156 173
0.2067548 0.05384602 -0.91904306 159 157 173
0.20570344 0.056311302 -0.91947848 161 164 177
0.20824005 0.055719517 -0.92045838 173 174 193
0.20883662 0.052990317 -0.91969979 163 159 176
0.20544788 0.056397021 -0.91938967 160 163 176
0.20781809 0.056050647 -0.92038423 173 173 192
0.20852387 0.05426535 -0.92003804 168 166 184
0.21113807 0.056085628 -0.92204583 178 176 197
0.21013848 0.054615002 -0.92096364 171 168 187
0.21039332 0.053536281 -0.92090738 169 166 186
0.21072763 0.054872196 -0.92146218 174 171 191
0.21051453 0.053296793 -0.92094314 168 166 186
0.2104319 0.052867077 -0.92078322 167 164 184
0.20911558 0.05316253 -0.91989923 165 161 178
0.20954454 0.055221666 -0.92089307 175 173 193
0.21071841 0.056277219 -0.92186373 179 177 198
0.21642706 0.052943233 -0.91853774 166 162 173
0.2171621 0.054510288 -0.91904116 167 162 169
0.21685018 0.053001497 -0.92006588 167 163 173
0.21712279 0.053232588 -0.92137718 166 163 171
0.21720518 0.053860482 -0.92070651 166 163 170
0.21718226 0.053520631 -0.92120594 166 163 170
0.21744353 0.055904202 -0.92161983 162 151 155
0.21750154 0.0561621 -0.92091537 163 153 156
0.21754819 0.056558345 -0.92072034 163 152 155
0.21723694 0.054008212 -0.92220503 164 158 164
0.21739791 0.054826394 -0.920452 166 161 167
0.21741953 0.054940227 -0.92022401 166 162 167
0.17748894 0.05217972 -0.91847676 149 144 157
0.17411815 0.050775908 -0.91871256 127 118 133
0.17578444 0.052393548 -0.91885376 133 125 138
0.1752945 0.050605435 -0.91846299 139 133 146
0.17452872 0.051439218 -0.91881776 127 118 132
0.17405824 0.051098242 -0.91880876 125 115 130
0.1794243 0.050474625 -0.91836405 155 151 169
0.18058258 0.049727686 -0.91845757 156 154 173
0.18160661 0.051053897 -0.91852373 152 149 169
0.17939308 0.051393941 -0.91855758 152 148 164
0.17902848 0.052364592 -0.91858256 150 145 160
0.17907372 0.052455436 -0.91858393 150 145 160
0.18072109 0.052048553 -0.9185555 150 145 164
0.18215197 0.049617138 -0.91840535 156 154 175
0.18185988 0.05188784 -0.91849625 150 146 166
0.20889911 0.05075331 -0.91876495 155 152 170
0.2085783 0.052008372 -0.91916126 159 155 173
0.20783649 0.052452762 -0.91900223 159 155 173
0.2071147 0.052024215 -0.91847086 157 153 170
0.21014956 0.051476441 -0.91999185 161 158 179
0.20948343 0.050855622 -0.91922301 157 154 173
0.21217707 0.05255837 -0.92197871 170 169 192
0.21010263 0.052159853 -0.92025584 163 160 180
0.20905855 0.051761337 -0.91930211 159 156 173
0.21164709 0.052013516 -0.9213413 167 165 188
0.2128204 0.049880199 -0.91892433 158 152 163
0.21028467 0.050274033 -0.91922253 156 153 172
0.21225008 0.050264761 -0.91939634 159 155 169
0.21205264 0.051130787 -0.92056239 163 161 180
0.21209943 0.051457912 -0.92101431 165 163 184
0.21216394 0.049799688 -0.91875196 156 151 163
0.21177572 0.04996369 -0.91893941 157 152 166
0.21649218 0.052485537 -0.91998166 165 159 172
0.21646796 0.05177366 -0.92178178 161 148 164
0.21570092 0.051590327 -0.92021227 162 153 166
0.21484925 0.050742902 -0.92019176 159 149 161
0.21527679 0.051187824 -0.92014986 160 151 164
0.21491195 0.05132753 -0.9187963 162 156 167
0.2138263 0.050145775 -0.91904181 157 150 160
0.2150086 0.051506452 -0.92144877 162 153 170
0.21392836 0.050400428 -0.91978627 159 151 163
0.21492577 0.051880218 -0.92194861 165 156 175
0.21324082 0.050764125 -0.92018872 162 157 172
0.21334596 0.05174005 -0.92153829 167 163 183
0.21358024 0.050989453 -0.92054391 162 157 173
0.17451371 0.045374855 -0.91998893 120 110 125
0.17427546 0.046719834 -0.91930544 126 117 132
0.1755078 0.0468431 -0.91840124 133 128 144
0.17471169 0.046727039 -0.9190082 128 121 136
0.17583001 0.046530504 -0.91838098 133 128 145
0.17405155 0.045855809 -0.91999739 120 110 124
0.17405921 0.046010967 -0.91989499 121 111 125
0.22012739 0.065343678 -0.90379184 189 186 195
0.22027692 0.065746218 -0.90470344 184 182 191
0.22014914 0.065508977 -0.90451014 186 183 192
0.22051767 0.066374876 -0.90617275 177 176 184
0.22032104 0.065976694 -0.90591496 179 178 187
0.22035836 0.066023409 -0.90567875 180 179 187
0.21974356 0.064866588 -0.90574366 185 182 193
0.22197756 0.067448899 -0.905545 169 166 166
0.22158486 0.067202441 -0.90579873 170 168 171
0.2218565 0.067460284 -0.90581524 169 167 168
0.22217004 0.067863747 -0.90606689 168 167 165
0.22084707 0.06670697 -0.90578097 176 175 181
0.22113119 0.066895694 -0.90583497 173 172 177
0.21952598 0.064443208 -0.90560514 187 184 196
0.21318479 0.056647804 -0.90456825 176 173 190
0.21459517 0.057360061 -0.90611869 173 169 186
0.21475594 0.05742082 -0.90633643 172 168 185
0.21521083 0.05845248 -0.90508819 195 193 213
0.21341737 0.05709191 -0.90410298 186 183 202
0.21429746 0.057910666 -0.90415531 195 193 213
0.21349759 0.05754539 -0.90281826 195 192 212
0.20762704 0.053311933 -0.90297318 152 151 167
0.20732522 0.052938681 -0.90317166 149 149 163
0.20858662 0.05307094 -0.90436918 149 147 160
0.20947741 0.053489693 -0.90464127 154 151 165
0.20980981 0.052903999 -0.90599239 147 142 151
0.20980775 0.053028431 -0.90577608 149 144 153
0.20987156 0.053262927 -0.9054504 151 147 158
0.21067879 0.053643603 -0.90582371 155 150 159
0.21103038 0.054199185 -0.90532577 161 156 168
0.21272144 0.055773441 -0.90618759 155 150 160
0.21284513 0.056403305 -0.9045732 174 171 187
0.21216787 0.055128284 -0.90629125 152 147 157
0.21116343 0.054051545 -0.9061715 152 147 155
0.21296023 0.056306522 -0.90520316 167 163 177
0.21334073 0.056170456 -0.90645319 155 150 162
0.20849751 0.050050937 -0.90557885 112 100 109
0.20884332 0.051306054 -0.90557075 128 120 129
0.20813848 0.051148683 -0.90484536 126 119 129
0.20885949 0.049975742 -0.9059996 111 98 106
0.20747475 0.051469225 -0.90401733 131 126 137
0.20697564 0.05068646 -0.90343153 147 143 160
0.20644663 0.049673252 -0.90281355 166 165 188
0.20776892 0.049411334 -0.90470761 129 120 133
0.20681094 0.051082097 -0.9031502 150 148 165
0.20772246 0.049145173 -0.90467548 132 122 137
0.20754543 0.05054776 -0.90425092 131 124 137
0.20918779 0.051909301 -0.90578574 135 128 138
0.20936149 0.052415002 -0.90583992 141 136 145
0.20930494 0.051912401 -0.9059267 135 128 137
0.22266175 0.069051899 -0.90731174 167 167 161
0.2230482 0.070322946 -0.90867144 166 164 157
0.22242999 0.068700559 -0.90749556 167 167 165
0.22324961 0.070982948 -0.90939462 165 162 155
0.22269383 0.069820888 -0.90910465 166 165 163
0.22236107 0.069428213 -0.90971529 167 165 169
0.22317104 0.07112319 -0.91014153 165 162 158
0.22065908 0.06688334 -0.9093591 175 177 190
0.22052124 0.066631459 -0.9094848 176 178 192
0.22040834 0.066360183 -0.90867561 177 178 190
0.21950148 0.064481638 -0.9089396 186 185 197
0.22028916 0.066161245 -0.91044933 180 181 195
0.21976729 0.065042198 -0.91004384 184 184 197
0.22004998 0.065650821 -0.91003078 181 182 196
0.22183362 0.068245828 -0.90913713 168 168 176
0.22134641 0.067639351 -0.90942907 172 173 183
0.22121361 0.067767762 -0.91052079 171 171 187
0.22215906 0.06812162 -0.90673614 168 169 166
0.22107577 0.067178696 -0.90751445 173 173 180
0.22194579 0.067943335 -0.90699273 169 170 169
0.21824081 0.061060891 -0.90964991 181 174 191
0.21826372 0.0610057 -0.91027147 176 168 185
0.2185896 0.061942965 -0.91021204 180 174 190
0.21844587 0.061671522 -0.90950459 184 179 195
0.21926652 0.063945167 -0.90672356 186 184 196
0.21938482 0.064209081 -0.90851462 187 185 198
0.2193867 0.064208061 -0.90898651 187 186 198
0.21894467 0.063141361 -0.90917742 192 191 205
0.21578322 0.058265045 -0.90724462 179 176 194
0.21510202 0.057464235 -0.90783989 166 163 179
0.21516094 0.057535008 -0.90777773 167 164 180
0.21552727 0.057297897 -0.90971285 166 165 183
0.21527244 0.056811556 -0.90990651 163 162 182
0.21643187 0.05850222 -0.91012383 174 173 190
0.21701479 0.059164423 -0.9102937 178 176 193
0.21783814 0.060253829 -0.90978408 178 172 190
0.21685278 0.059344877 -0.90757465 192 190 209
0.21707293 0.059359692 -0.90913653 185 184 201
0.21232019 0.054788403 -0.90791631 149 145 157
0.21258695 0.05443811 -0.90996605 152 149 165
0.21151337 0.054205459 -0.9069286 147 142 150
0.21197872 0.054171856 -0.90867174 149 146 158
0.21124324 0.053589046 -0.90793443 148 143 153
0.21158849 0.053530518 -0.90963292 159 157 175
0.21129598 0.053065412 -0.91049731 173 174 197
0.2108479 0.053212535 -0.90776569 148 143 152
0.21184362 0.053827375 -0.90939224 153 150 165
0.21325488 0.055057101 -0.909908 154 152 170
0.21445554 0.055905085 -0.91049147 159 158 178
0.21372734 0.055925786 -0.90804011 156 153 169
0.21412443 0.056403011 -0.90746158 158 155 171
0.21376152 0.056134433 -0.90743476 156 153 168
0.21346535 0.055790607 -0.90791947 155 151 166
0.21050486 0.050767943 -0.90955859 139 133 150
0.21016082 0.049223114 -0.90881479 108 97 107
0.21044993 0.049048245 -0.90940642 107 97 107
0.21048217 0.051538445 -0.90952933 153 149 168
0.20986229 0.049310729 -0.90820181 108 96 106
0.2101185 0.049613655 -0.90873647 115 105 116
0.20998205 0.052118979 -0.90679818 138 131 137
0.21003485 0.051824693 -0.90737873 139 132 141
0.21045546 0.052317563 -0.90872109 157 154 169
0.21007331 0.05217123 -0.90715259 142 135 143
0.21028633 0.051644552 -0.9087308 149 144 159
0.21003579 0.051070966 -0.90825528 137 130 143
0.2016145 0.048946083 -0.89470446 165 161 188
0.20146748 0.049673907 -0.89412117 163 162 185
0.22422111 0.077362821 -0.91708684 121 103 81
0.22398555 0.077294953 -0.91740036 123 107 86
0.223685 0.077316262 -0.91794598 126 111 91
0.22388072 0.077857643 -0.91833985 123 104 86
0.22447635 0.076738633 -0.9158057 120 104 78
0.22539647 0.077414431 -0.91551334 110 90 68
0.22597744 0.079661302 -0.91780496 103 71 61
0.22502925 0.077358447 -0.91588509 114 95 72
0.22523144 0.079039253 -0.91789836 110 81 67
0.22475497 0.078832626 -0.91821927 113 85 70
0.22357474 0.074183673 -0.91445524 139 124 112
0.22409426 0.075257868 -0.91473979 128 114 93
0.22258386 0.074883044 -0.91694421 144 136 124
0.2232634 0.073902421 -0.91474754 142 127 119
0.22251587 0.074196018 -0.91634089 147 138 131
0.22286339 0.075930156 -0.91756129 137 132 111
0.22270197 0.074177697 -0.91600162 146 135 127
0.2214485 0.072318919 -0.91805357 160 161 165
0.22242978 0.075614959 -0.9181658 141 139 122
0.22232747 0.074239828 -0.91701853 148 142 134
0.22189282 0.072937056 -0.91714185 155 151 152
0.22211774 0.073908001 -0.91740483 150 146 141
0.2223434 0.07332366 -0.9159528 152 141 140
0.22050656 0.068429299 -0.91539264 156 160 163
0.22042653 0.068430893 -0.9161166 158 161 169
0.2215924 0.071290568 -0.91655058 159 154 163
0.22129638 0.071594819 -0.9179011 160 162 169
0.22165591 0.07161051 -0.91662776 159 154 162
0.22149026 0.072210655 -0.91779292 160 160 165
0.22138332 0.070234187 -0.91501307 157 152 156
0.22148092 0.070903838 -0.91652179 159 154 165
0.22132593 0.070228338 -0.91538328 157 153 158
0.22150512 0.070341974 -0.91453642 156 149 152
0.22157899 0.07072179 -0.91526663 157 150 156
0.222004 0.071537554 -0.91502845 157 145 152
0.21951605 0.064850539 -0.91498524 144 139 156
0.21964917 0.065505013 -0.91553134 147 143 161
0.21974202 0.06713745 -0.91823381 167 169 188
0.21929142 0.064619452 -0.91578794 153 149 165
0.21978649 0.066377565 -0.91648436 152 151 170
0.21997344 0.066505052 -0.91519654 149 148 159
0.22024859 0.067194112 -0.91449064 150 151 154
0.22024997 0.068084069 -0.91675735 158 161 174
0.2203062 0.067460544 -0.91465569 152 153 156
0.22028019 0.067448013 -0.91485697 152 153 158
0.21952172 0.064718671 -0.91467792 142 137 153
0.21798164 0.060663708 -0.91773731 168 165 164
0.21826626 0.061573587 -0.91626292 177 176 187
0.21807387 0.060957927 -0.91725719 171 169 172
0.21813092 0.061113961 -0.91686291 173 171 177
0.21842432 0.062512144 -0.91707426 178 176 188
0.21871722 0.064191364 -0.91835177 180 176 191
0.21877877 0.0644155 -0.91826105 180 177 193
0.21896894 0.063234702 -0.91495234 158 154 170
0.2183069 0.061367363 -0.91511518 179 178 193
0.21897721 0.064027749 -0.91641247 165 161 177
0.21875894 0.063551359 -0.9167307 173 170 186
0.21933247 0.064157821 -0.91466856 146 140 156
0.1838631 0.058145031 -0.91797465 155 148 154
0.18541683 0.057950869 -0.91721982 161 149 150
0.1847831 0.057809129 -0.91758108 159 149 153
0.18690011 0.057207946 -0.91676569 162 149 147
0.18757479 0.056999739 -0.91647822 155 145 149
0.18815164 0.056806765 -0.91623455 150 142 150
0.18846422 0.056917936 -0.91607141 150 143 153
0.18582024 0.057267599 -0.91722679 163 147 142
0.19123375 0.057997115 -0.91532004 153 151 169
0.19215649 0.058143627 -0.91513258 157 156 173
0.19233072 0.058171205 -0.91509718 157 157 174
0.19288486 0.05675808 -0.91493469 153 153 171
0.19255021 0.057839729 -0.91504043 157 156 174
0.1894834 0.05678637 -0.91562414 142 140 157
0.18969645 0.057489384 -0.91551638 151 148 163
0.1955093 0.05723891 -0.91517329 154 155 175
0.19482832 0.057498213 -0.9152267 157 157 177
0.19444185 0.057196479 -0.91509545 156 156 175
0.19658397 0.05737384 -0.91528481 153 155 175
0.19489852 0.057884984 -0.91537005 160 159 179
0.1935669 0.058098983 -0.91496062 161 160 179
0.19906878 0.057521462 -0.91616333 158 160 179
0.20038329 0.057601888 -0.91683447 165 165 183
0.19739804 0.056952156 -0.91522217 150 152 172
0.20304668 0.05700491 -0.91819203 163 163 178
0.20159097 0.057793409 -0.917503 168 168 186
0.21725361 0.057143155 -0.91629702 176 173 182
0.21768221 0.057732947 -0.91809666 168 163 165
0.21745534 0.057216223 -0.91720462 172 168 174
0.21762878 0.057797372 -0.91783148 169 164 167
0.21741997 0.058688488 -0.91660583 174 171 176
0.21767542 0.059526294 -0.91660523 173 171 175
0.21733961 0.058228735 -0.91480392 181 180 194
0.21713088 0.057620596 -0.9148432 181 180 194
0.21776222 0.059939943 -0.91752815 169 166 166
0.21711057 0.057510473 -0.91454923 182 182 197
0.21769848 0.059522014 -0.91618329 175 173 179
0.18483913 0.056567762 -0.91783327 158 144 140
0.18357755 0.054627135 -0.91810489 153 144 152
0.18323489 0.054756586 -0.91830593 152 145 154
0.18327883 0.053652585 -0.918109 152 144 157
0.18494615 0.054011546 -0.91765612 156 147 156
0.18473564 0.054386564 -0.91771185 156 146 153
0.18512282 0.05551926 -0.91760284 158 144 144
0.18494499 0.054546386 -0.91765451 157 146 152
0.18924071 0.056332614 -0.91574782 142 139 156
0.18745218 0.052772865 -0.91661614 153 150 167
0.18702956 0.052962728 -0.9168095 154 150 167
0.18882135 0.054995265 -0.91595721 146 143 160
0.18697955 0.053575829 -0.91682553 152 148 165
0.18901847 0.05356754 -0.91588247 149 147 164
0.18718615 0.055166043 -0.91671795 151 144 156
0.18555251 0.053238422 -0.91749358 157 150 164
0.18748975 0.055105854 -0.91657531 149 144 158
0.18774606 0.056448217 -0.9164499 149 141 148
0.18657839 0.054466773 -0.91700649 153 146 159
0.18682875 0.056187805 -0.91688246 153 142 145
0.19097635 0.054061126 -0.91534066 152 151 169
0.19313832 0.054218229 -0.91470861 155 157 176
0.19153707 0.053945988 -0.91516453 153 153 171
0.19117683 0.053586628 -0.91524386 153 152 170
0.19164768 0.052998599 -0.91505766 154 154 173
0.19224349 0.055403385 -0.91506779 153 153 171
0.19093166 0.054923087 -0.91535765 150 149 167
0.18955132 0.054196455 -0.91565365 147 145 163
0.18980519 0.054497939 -0.91559732 147 145 163
0.18953216 0.054283388 -0.91565669 147 145 162
0.19022244 0.054802492 -0.91550684 148 146 164
0.19110107 0.054715715 -0.91532475 151 150 168
0.19684538 0.055511896 -0.91494131 152 154 174
0.19592181 0.052782338 -0.91465652 163 163 185
0.19379312 0.05273518 -0.91454834 158 160 180
0.19455829 0.053633902 -0.91466469 155 158 177
0.19525459 0.052942514 -0.91463798 161 162 183
0.19554949 0.055330507 -0.9148581 151 154 173
0.19560912 0.056459188 -0.91494972 151 152 171
0.19482476 0.05566765 -0.91484195 152 154 173
0.19659039 0.056064598 -0.91497642 149 152 171
0.19438124 0.055727243 -0.91482055 153 155 173
0.20051867 0.054328319 -0.9161287 162 160 180
0.20102414 0.053212043 -0.91594607 159 156 176
0.2010555 0.05456274 -0.91635305 162 160 178
0.19948345 0.054514688 -0.91588408 165 164 184
0.19929914 0.052825596 -0.91533321 162 160 182
0.19857635 0.053558245 -0.91533989 166 164 186
0.19956852 0.055217002 -0.91607839 165 164 184
0.19731395 0.055363633 -0.91497266 154 156 176
0.19918245 0.05468541 -0.91584015 166 165 185
0.199531 0.055106673 -0.91605008 166 165 184
0.1981006 0.054077145 -0.91525 164 163 185
0.19792718 0.056439731 -0.91537136 152 154 173
0.20387083 0.055861052 -0.91829884 159 159 173
0.20441186 0.053472608 -0.9176777 157 154 172
0.20450053 0.053907473 -0.91790098 157 154 171
0.20437641 0.053538103 -0.91768241 157 154 172
0.20362341 0.055139758 -0.91786426 160 158 174
0.20333178 0.053991091 -0.91728824 159 156 174
0.20123748 0.05595452 -0.91682923 164 163 180
0.20274861 0.052968461 -0.9166981 157 154 173
0.20132415 0.052895918 -0.9159711 158 155 175
0.2034957 0.052908991 -0.91705072 157 153 172
0.20215209 0.053387612 -0.91652614 158 155 174
0.20508814 0.052862879 -0.91784155 156 152 170
0.21478394 0.052970961 -0.91585487 162 158 172
0.21548671 0.05312724 -0.91670406 163 159 171
0.21513274 0.054091629 -0.91502619 168 165 181
0.21605128 0.054982364 -0.91531342 173 171 186
0.21493052 0.053772289 -0.91511065 166 163 179
0.21436718 0.053142354 -0.91503471 162 159 175
0.2164647 0.055510484 -0.91529024 176 174 190
0.21506731 0.053650647 -0.9154582 166 162 177
0.21528514 0.053006973 -0.91657263 163 159 172
0.21692415 0.056639418 -0.91493011 182 180 194
0.21713096 0.055110171 -0.91775417 169 164 172
0.217072 0.056155827 -0.91620284 176 173 184
0.21701393 0.055918194 -0.91622621 176 173 184
0.21738273 0.056013141 -0.91780877 169 164 170
0.17540678 0.049077321 -0.91793406 143 137 154
0.1776797 0.049247723 -0.91746551 156 151 171
0.17602296 0.049828511 -0.91803926 145 139 156
0.17572755 0.049647197 -0.91804796 144 138 154
0.17724046 0.050604902 -0.91801316 151 146 162
0.17704317 0.049290754 -0.91762674 152 146 166
0.17910582 0.049924642 -0.91808808 156 151 171
0.17930743 0.048890784 -0.91780889 157 153 175
0.17914252 0.050274808 -0.9182142 155 151 169
0.1779702 0.051342368 -0.91821253 153 148 163
0.18356267 0.051157437 -0.91803074 156 152 171
0.18386786 0.05104797 -0.91794777 157 153 172
0.18249507 0.050902352 -0.91831911 154 150 171
0.1844434 0.051999327 -0.9177947 156 151 170
0.18299772 0.049567699 -0.91818249 158 156 177
0.18403056 0.049295072 -0.91797245 159 157 179
0.18537052 0.051636968 -0.91758335 158 153 172
0.18496355 0.051039562 -0.9176966 158 154 174
0.18923832 0.051961921 -0.9158169 152 150 169
0.18876156 0.050377008 -0.9160924 156 155 175
0.18782696 0.048872288 -0.91658282 160 158 181
0.18931082 0.049074978 -0.91587192 159 158 180
0.18903932 0.050724532 -0.9159497 155 154 174
0.18884671 0.050221425 -0.91605681 156 155 176
0.18688831 0.05027144 -0.91698402 157 155 176
0.18588981 0.051777363 -0.91738075 157 153 172
0.18584757 0.050823022 -0.91744161 158 155 175
0.18628715 0.051546216 -0.91720694 157 153 172
0.18625693 0.051636457 -0.91721708 157 153 172
0.18872206 0.052425075 -0.91604257 152 150 168
0.19234161 0.050320085 -0.91478908 159 160 182
0.19061284 0.049316857 -0.91539556 160 159 181
0.19065736 0.049276363 -0.91537648 160 159 182
0.19276653 0.051169712 -0.91467136 158 160 181
0.19151457 0.049483616 -0.91506064 160 159 183
0.19131118 0.052612338 -0.91514105 154 154 173
0.19150564 0.051253892 -0.91512519 157 158 178
0.19150722 0.052551474 -0.91508448 154 155 173
0.18980424 0.049958844 -0.9156723 157 157 178
0.1903917 0.050555009 -0.91547877 157 157 177
0.19523881 0.05168039 -0.91451657 163 163 185
0.19718656 0.052452564 -0.91465831 167 165 189
0.19483145 0.051967718 -0.91456014 162 162 184
0.19436507 0.052726913 -0.91457582 159 161 181
0.19998614 0.048882667 -0.91469383 164 163 185
0.20022248 0.049419817 -0.91488564 164 164 185
0.19863415 0.050702479 -0.91468847 166 164 187
0.19829439 0.051598202 -0.91478014 166 165 188
0.20105518 0.049853947 -0.9152199 162 161 182
0.20109348 0.05019249 -0.91530085 162 161 181
0.20095845 0.052190527 -0.91567409 159 156 177
0.20049573 0.051216595 -0.91533923 162 160 181
0.19915362 0.051491059 -0.91500759 165 163 185
0.20011394 0.051213693 -0.91522819 163 161 182
0.20392801 0.050874971 -0.9168945 159 156 176
0.20152399 0.049132489 -0.9152835 163 163 183
0.20454594 0.051135715 -0.91728711 158 155 175
0.2048872 0.052454017 -0.91763884 156 152 170
0.20425171 0.050421074 -0.91703224 159 157 177
0.20450704 0.050522387 -0.91719377 158 156 176
0.20301796 0.049393114 -0.91619015 161 160 181
0.20305331 0.051849566 -0.91659749 158 155 174
0.20276761 0.050819274 -0.91624337 160 158 177
0.20206739 0.050004691 -0.91572839 161 160 180
0.20248839 0.050402388 -0.91601902 160 159 179
0.20153636 0.052114557 -0.91590071 158 156 176
0.2029092 0.051477645 -0.91644937 159 156 175
0.20688856 0.051978797 -0.91834319 156 152 170
0.20672007 0.051654276 -0.91811413 155 151 169
0.20620795 0.052304368 -0.91815341 156 152 170
0.20770104 0.048926543 -0.91776711 153 151 170
0.20762749 0.049030777 -0.91776723 153 151 170
0.20650434 0.049519137 -0.91764283 155 153 173
0.20601133 0.050449535 -0.91767049 155 153 172
0.20652518 0.05023957 -0.91772896 154 152 171
0.21197732 0.048915144 -0.91792744 153 148 157
0.21144207 0.049342558 -0.91818833 153 148 160
0.21343249 0.048923455 -0.91539121 166 163 180
0.21361989 0.049253568 -0.91566241 166 164 180
0.21482366 0.05111149 -0.91752476 164 161 174
0.2139017 0.049685419 -0.91608942 166 163 179
0.21389137 0.049432836 -0.91539478 168 166 184
0.21488354 0.050929777 -0.91683114 167 164 179
0.21513014 0.051707491 -0.91835165 163 159 170
0.21385594 0.050058816 -0.91481423 167 165 184
0.21463278 0.051763389 -0.91600668 165 162 178
0.2141137 0.050859649 -0.91520756 166 164 181
0.214351 0.050998971 -0.91557556 166 164 181
0.21409778 0.052552816 -0.9151659 161 158 175
0.21382798 0.052100755 -0.9147504 162 159 176
0.17250526 0.047146857 -0.91763955 137 130 140
0.17248546 0.047793943 -0.91722107 137 129 144
0.17111994 0.047892764 -0.91543812 141 129 151
0.17130131 0.048661422 -0.91519946 141 128 154
0.17224129 0.047330931 -0.91719455 138 130 143
0.17272517 0.048467077 -0.91711408 137 128 146
0.17185852 0.047776826 -0.91644043 139 129 147
0.17033479 0.045449276 -0.91471595 181 171 167
0.17134087 0.046814334 -0.9163124 142 132 146
0.17055905 0.047220338 -0.9145484 161 149 162
0.17058045 0.046041209 -0.91501343 169 159 162
0.1706498 0.047968097 -0.91446954 153 139 160
0.17040977 0.045350373 -0.91490644 179 170 165
0.17451659 0.048026398 -0.9182747 134 128 143
0.17634879 0.046144035 -0.91817671 135 130 148
0.17762667 0.048675556 -0.91735941 155 150 172
0.17642179 0.047590554 -0.91777247 143 138 157
0.17726906 0.046960935 -0.91767132 145 141 161
0.17657867 0.04810641 -0.91766775 146 142 161
0.17545132 0.047300927 -0.91802573 136 131 147
0.17582138 0.047583278 -0.91790581 140 135 152
0.18030879 0.046668921 -0.91774774 153 151 173
0.18097353 0.046037845 -0.91784781 152 151 173
0.17968647 0.048077855 -0.91778356 156 153 175
0.17912489 0.048178833 -0.91763061 156 152 174
0.18034519 0.04778723 -0.91793567 156 153 175
0.17872906 0.045471061 -0.91777802 143 141 162
0.17779844 0.048147004 -0.91740799 153 149 170
0.1799356 0.045621015 -0.91776562 148 147 168
0.17838268 0.047444697 -0.91750741 152 148 170
0.1778564 0.045803584 -0.91772699 142 139 159
0.18230964 0.04868434 -0.91833639 158 156 178
0.18279772 0.046269316 -0.91784132 153 153 175
0.18340601 0.04699178 -0.91782737 155 155 177
0.18334554 0.047433119 -0.91790956 156 155 177
0.18329902 0.047441483 -0.91792071 156 155 177
0.18420638 0.045040667 -0.91721368 152 152 173
0.18329515 0.045742255 -0.91760671 152 153 175
0.18548423 0.048274782 -0.91756529 159 158 180
0.18483563 0.046565078 -0.91737223 155 155 177
0.1833557 0.046275407 -0.91770464 154 153 176
0.18713206 0.045834091 -0.91630876 154 153 174
0.18766047 0.046202589 -0.91614509 154 153 175
0.18833764 0.045776922 -0.91579026 153 151 173
0.18886788 0.046560362 -0.91569287 154 152 174
0.18706094 0.04608852 -0.91637993 154 154 175
0.18673359 0.046963364 -0.91670436 156 156 177
0.18673939 0.048322555 -0.91699255 159 158 180
0.1856081 0.046726186 -0.91718817 156 155 177
0.18619247 0.048698206 -0.91733265 160 158 181
0.18816516 0.048627384 -0.9163807 159 158 180
0.18785454 0.047748689 -0.91634011 158 157 179
0.19003993 0.046415504 -0.91526908 150 148 169
0.19207369 0.045146186 -0.9145332 136 132 152
0.19080485 0.046257183 -0.91504389 146 143 164
0.18991852 0.046338305 -0.91528827 151 148 170
0.19184467 0.046528615 -0.91472632 145 142 164
0.19232015 0.048395634 -0.91468686 158 157 181
0.19240487 0.047626909 -0.91459626 153 151 175
0.19255486 0.047095686 -0.91449881 149 147 170
0.19032164 0.047681507 -0.91539407 152 150 172
0.19014859 0.048473869 -0.91552013 157 156 179
0.20106195 0.047541898 -0.91489565 156 155 174
0.20099105 0.046899285 -0.91481769 152 151 168
0.20015623 0.047613781 -0.91462666 156 155 174
0.20043899 0.045206472 -0.91461444 139 137 150
0.19920096 0.047773689 -0.91445678 154 153 172
0.19964771 0.04701592 -0.91451246 150 148 166
0.20293225 0.045225821 -0.91525298 143 140 153
0.20399387 0.046617348 -0.91611266 149 147 163
0.20438457 0.047646869 -0.91665405 154 152 171
0.20475239 0.047149993 -0.91652608 152 150 167
0.20254678 0.045700017 -0.91536689 145 142 157
0.2039074 0.046527371 -0.91605282 149 147 163
0.20296606 0.048335191 -0.91605145 159 158 178
0.20193914 0.046411421 -0.91527992 148 147 163
0.20117851 0.046958294 -0.91488165 152 152 169
0.20144956 0.048242569 -0.91515344 160 159 179
0.20205006 0.04624835 -0.91533071 147 146 162
0.20140669 0.046638165 -0.91498739 150 149 166
0.20826153 0.045860454 -0.91671711 160 156 169
0.20871304 0.045071896 -0.91653621 167 163 174
0.2071455 0.04576762 -0.91642344 152 149 161
0.20586014 0.045674529 -0.91609019 144 140 152
0.20849755 0.047310404 -0.91729814 154 151 166
0.20647602 0.045448631 -0.9161517 149 146 157
0.2068435 0.046908323 -0.91678286 147 144 158
0.20537543 0.04725194 -0.91669631 152 150 166
0.20667221 0.04825557 -0.91734135 153 151 170
0.20679182 0.047735691 -0.91713446 150 148 165
0.20795479 0.047937311 -0.91740912 148 146 162
0.20601772 0.048750285 -0.91745132 157 155 176
0.17892621 0.04198508 -0.91738832 107 103 120
0.18050081 0.043267872 -0.91766089 128 127 146
0.18139447 0.041673724 -0.91777158 123 123 140
0.18110695 0.042115476 -0.91773462 125 123 142
0.18087888 0.04286832 -0.91771293 128 127 146
0.17806377 0.04483464 -0.91783339 137 135 155
0.17774935 0.043891437 -0.91767091 125 121 140
0.17866781 0.043496735 -0.91760999 123 120 139
0.17886624 0.044829488 -0.91783786 140 138 158
0.18021883 0.043571729 -0.917633 129 127 147
0.17790283 0.04398711 -0.91768819 127 123 142
0.18319394 0.042442467 -0.91742831 132 132 150
0.18205665 0.041113339 -0.91773224 122 121 138
0.18467322 0.042511649 -0.91722673 134 134 151
0.18419145 0.04191437 -0.91735947 129 129 146
0.18443689 0.042973772 -0.91720372 137 137 155
0.18330994 0.043313388 -0.91739672 139 139 158
0.18267852 0.044351511 -0.91758472 146 147 168
0.18310991 0.043239046 -0.91744864 138 138 157
0.18205643 0.041476093 -0.917696 124 123 141
0.18187079 0.041621607 -0.91774821 125 124 142
0.18653215 0.041104518 -0.91661537 120 120 134
0.18612923 0.041521665 -0.91696107 127 126 142
0.18945006 0.044593535 -0.91513157 146 143 164
0.18806998 0.043363601 -0.91589922 138 137 155
0.18888868 0.044105809 -0.9154458 143 141 161
0.18745469 0.042102147 -0.91612971 127 126 142
0.18618815 0.041207459 -0.91687083 123 123 137
0.18633813 0.044722203 -0.91652018 150 150 171
0.18641834 0.043619901 -0.91661495 142 141 161
0.1890544 0.044858966 -0.91535676 149 147 168
0.18824011 0.043967508 -0.9158048 143 141 161
0.18583138 0.043234508 -0.91690791 140 140 158
0.18656391 0.044643931 -0.91643387 150 149 170
0.18958566 0.042384382 -0.91475457 123 121 135
0.18993068 0.044817097 -0.91504049 146 143 164
0.19051462 0.044687331 -0.91486853 142 138 159
0.19077483 0.043592319 -0.9146356 130 127 144
0.1898997 0.042747598 -0.91473675 126 124 139
0.17812693 0.037420671 -0.9145667 30 31 34
0.18041371 0.037908871 -0.91660327 60 64 81
0.17774732 0.03951684 -0.91598439 64 60 69
0.18007366 0.037560835 -0.91607898 51 55 68
0.1799933 0.037530765 -0.91599709 49 53 66
0.17819765 0.038529534 -0.91551256 50 49 57
0.181582 0.037136406 -0.91681975 57 65 85
0.18003157 0.038308047 -0.91665041 64 67 83
0.17809686 0.040677652 -0.91715628 88 83 99
0.18032369 0.038694914 -0.91702116 73 76 94
0.17856541 0.040787622 -0.91725713 93 89 104
0.17949821 0.039471947 -0.91708153 79 79 96
0.17871217 0.040191606 -0.91713411 85 82 98
0.18552761 0.040040515 -0.91641539 121 123 139
0.18248689 0.037779588 -0.91678572 72 78 97
0.18505922 0.040520068 -0.91722429 115 116 132
0.18273431 0.037839603 -0.91665256 76 82 101
0.18221502 0.037142564 -0.91644019 67 74 94
0.1845444 0.038647644 -0.91599643 105 109 128
0.18532377 0.040303446 -0.91684014 119 120 136
0.18226372 0.037902586 -0.91695315 71 77 96
0.18219207 0.038322613 -0.9170655 77 83 102
0.18376829 0.039824974 -0.91722763 103 105 122
0.18500136 0.040579267 -0.91725129 116 117 133
0.18277128 0.039386176 -0.91725051 95 98 116
0.18836005 0.037128866 -0.91606301 126 128 140
0.18677889 0.039145488 -0.91656536 124 125 139
0.1874968 0.0380047 -0.91609842 124 125 139
0.18864261 0.037346877 -0.91641629 126 127 138
0.18695776 0.039473869 -0.91700906 125 125 138
0.18740697 0.039108239 -0.91703522 126 126 138
0.18640465 0.0387525 -0.91590577 122 124 140
0.18843491 0.037410188 -0.91630757 126 127 138
0.18868411 0.038352836 -0.91665816 125 125 135
0.18944173 0.040707648 -0.91475683 109 108 117
0.18799074 0.03864852 -0.91696811 126 126 137
0.18840697 0.038590968 -0.91671205 125 125 135
0.18768832 0.03950179 -0.91668057 123 123 134
0.1891418 0.039248493 -0.91581702 118 118 127
0.18632874 0.040333562 -0.91714132 124 124 138
0.18735799 0.040807873 -0.9161483 117 117 129
0 0 0 1 0 0 0 1 0 0 0 1 0 0 0 0 0 940 1 0 0
