ply
format ascii 1.0
comment PCL generated
element vertex 756
property float x
property float y
property float z
property uchar red
property uchar green
property uchar blue
element camera 1
property float view_px
property float view_py
property float view_pz
property float x_axisx
property float x_axisy
property float x_axisz
property float y_axisx
property float y_axisy
property float y_axisz
property float z_axisx
property float z_axisy
property float z_axisz
property float focal
property float scalex
property float scaley
property float centerx
property float centery
property int viewportx
property int viewporty
property float k1
property float k2
end_header
-0.17117503 -0.25072494 -0.7578941 53 36 38
-0.17093717 -0.25122875 -0.75746632 56 37 40
-0.17108656 -0.25175637 -0.75750422 55 37 41
-0.17152196 -0.25257879 -0.75776923 56 38 45
-0.17165802 -0.25255668 -0.75794452 54 37 45
-0.17149183 -0.25211588 -0.75789255 52 36 42
-0.17164363 -0.25258407 -0.75791728 55 38 45
-0.17166331 -0.25570545 -0.75689113 68 45 59
-0.17124586 -0.25508183 -0.75659174 67 44 56
-0.17097035 -0.25361314 -0.75673652 68 46 54
-0.17082655 -0.25357446 -0.7565763 68 45 53
-0.17154036 -0.25469673 -0.75707012 69 46 58
-0.1716979 -0.2564176 -0.75669777 72 46 59
-0.17168568 -0.25682122 -0.75654936 74 46 59
-0.17328423 -0.25858822 -0.75813222 122 90 107
-0.17292854 -0.25976172 -0.75735289 133 95 110
-0.1735708 -0.26335424 -0.75772059 46 32 64
-0.17367029 -0.26157027 -0.75807559 96 70 96
-0.17292987 -0.26065007 -0.75733232 135 104 116
-0.17301399 -0.26002559 -0.75745928 135 100 114
-0.17262009 -0.26002103 -0.75693744 128 92 104
-0.18298113 -0.23219483 -0.77356815 135 81 103
-0.18326584 -0.23397303 -0.77382118 137 73 107
-0.18310042 -0.23298922 -0.77366936 136 77 105
-0.18283333 -0.23374298 -0.77329087 137 78 108
-0.18272969 -0.23506624 -0.77309799 138 75 111
-0.18332137 -0.2363068 -0.77376491 139 66 114
-0.18220775 -0.2362818 -0.77252734 128 59 108
-0.18259247 -0.23782369 -0.7731024 111 56 91
-0.18243815 -0.23737237 -0.77288651 116 56 96
-0.18287097 -0.23872808 -0.77350086 102 55 81
-0.18267956 -0.2395262 -0.7733795 88 50 70
-0.18266477 -0.23969014 -0.77338856 86 49 68
-0.18151428 -0.23971759 -0.77223432 71 39 60
-0.18136601 -0.23947495 -0.77202231 75 40 63
-0.18248041 -0.24143751 -0.7732513 83 46 69
-0.18208508 -0.24035563 -0.77289325 70 40 57
-0.18274777 -0.24058461 -0.77353853 81 48 64
-0.1823864 -0.2432698 -0.77296382 92 42 79
-0.18167993 -0.24190718 -0.77224636 72 31 59
-0.18248966 -0.24285053 -0.77316666 92 46 79
-0.18145795 -0.24287419 -0.77180892 75 27 59
-0.18103014 -0.24396318 -0.77109236 78 25 56
-0.18135425 -0.24382995 -0.77152562 79 24 61
-0.18307437 -0.24578443 -0.77366966 105 67 93
-0.18321522 -0.24736303 -0.77379328 103 81 92
-0.18228677 -0.24540477 -0.77264416 91 46 77
-0.18203832 -0.24700528 -0.7719394 80 48 62
-0.18235639 -0.24668333 -0.77255112 88 55 73
-0.18189934 -0.24798632 -0.77150089 72 49 53
-0.18205163 -0.24657962 -0.77204907 82 46 65
-0.18165648 -0.24657069 -0.77137244 73 35 54
-0.18137218 -0.24557328 -0.77118367 77 30 57
-0.18157034 -0.24664921 -0.7712338 72 35 53
-0.1815965 -0.24426594 -0.77175665 82 23 65
-0.18090561 -0.24541226 -0.77062315 75 31 51
-0.18329659 -0.24980506 -0.77352268 75 54 58
-0.18296859 -0.24897283 -0.77313221 81 61 65
-0.18329726 -0.24931622 -0.77362525 83 64 68
-0.18247296 -0.24888624 -0.77229929 71 49 53
-0.18217838 -0.25116706 -0.77143919 70 50 49
-0.1824937 -0.25172409 -0.77186322 68 47 47
-0.18188974 -0.2508871 -0.7710163 74 53 53
-0.18227614 -0.25079283 -0.77165341 67 46 46
-0.18363757 -0.25191662 -0.77367806 51 26 30
-0.18144259 -0.24988526 -0.77055365 73 51 53
-0.18129158 -0.24904194 -0.77045536 70 47 48
-0.18116041 -0.25133431 -0.77001286 78 58 59
-0.18303949 -0.25307655 -0.77203697 76 53 54
-0.18301794 -0.25294951 -0.77207816 75 52 53
-0.18350366 -0.25351122 -0.77252555 75 50 53
-0.18291223 -0.25326657 -0.77171826 81 58 59
-0.18358903 -0.25320655 -0.77284521 70 44 48
-0.18361236 -0.25250292 -0.77330327 59 34 38
-0.18337595 -0.25410274 -0.77207798 82 57 59
-0.1824968 -0.25365803 -0.77117532 80 59 59
-0.18170768 -0.25252706 -0.7704556 81 63 59
-0.18285947 -0.25361854 -0.77157527 82 59 59
-0.18196699 -0.25487339 -0.77044797 76 57 55
-0.18443529 -0.25530589 -0.77308303 83 53 59
-0.18246247 -0.25435489 -0.77105176 79 57 57
-0.18129617 -0.25280857 -0.76997632 78 60 59
-0.18309359 -0.25628954 -0.77142656 77 52 55
-0.18259214 -0.25869069 -0.77017415 74 50 53
-0.1840052 -0.25732332 -0.77211553 79 50 56
-0.18501289 -0.2559067 -0.77362978 83 51 59
-0.18221222 -0.2578783 -0.76999933 74 51 52
-0.18193345 -0.25586176 -0.77028871 74 54 52
-0.18252082 -0.25675544 -0.77066565 75 52 53
-0.18490607 -0.25814351 -0.77331811 84 55 58
-0.18350698 -0.25904652 -0.7712158 77 51 55
-0.18523374 -0.25904197 -0.7737602 86 58 58
-0.18479949 -0.25780261 -0.77317649 83 53 58
-0.18501627 -0.25617111 -0.7735697 83 51 59
-0.1849719 -0.25954193 -0.77335179 85 58 57
-0.1844023 -0.25761473 -0.77259976 81 51 57
-0.18298028 -0.26321447 -0.77060086 87 69 63
-0.18352655 -0.26304677 -0.77145755 89 69 68
-0.18397287 -0.26217604 -0.77204651 88 66 65
-0.18495785 -0.26241934 -0.77367377 96 68 80
-0.18494949 -0.26333827 -0.7737993 100 71 89
-0.18286705 -0.26324588 -0.77042276 86 69 62
-0.18385802 -0.26067916 -0.77174664 82 59 57
-0.18346097 -0.26198536 -0.7712276 85 64 59
-0.18381035 -0.2599709 -0.77164054 80 55 55
-0.18294021 -0.26071689 -0.77039623 78 55 55
-0.18317436 -0.26203787 -0.77080792 83 63 59
-0.18348713 -0.26130912 -0.77123201 83 61 58
-0.18577017 -0.26686367 -0.77338088 110 96 94
-0.18422484 -0.26643318 -0.77177078 107 85 86
-0.18507408 -0.26630387 -0.77272475 112 93 95
-0.18476558 -0.26599643 -0.77250409 107 85 89
-0.18442412 -0.26645958 -0.77197444 109 88 88
-0.18460342 -0.2651256 -0.77274501 103 76 87
-0.18501899 -0.26489934 -0.77322417 101 75 88
-0.18339698 -0.26546121 -0.77107739 101 78 78
-0.1829233 -0.26488617 -0.77039784 95 75 71
-0.18340197 -0.26557085 -0.77106917 101 79 79
-0.18361121 -0.26517916 -0.77146518 101 77 80
-0.18258063 -0.2641075 -0.76996017 88 72 64
-0.18383919 -0.26425534 -0.77197039 97 73 80
-0.18584922 -0.26923379 -0.77367282 100 89 85
-0.18573327 -0.26909673 -0.77345645 107 95 91
-0.18431658 -0.27127835 -0.77057928 115 87 82
-0.18547158 -0.27119744 -0.77339369 102 85 85
-0.18504795 -0.26927727 -0.77193016 121 103 97
-0.18545628 -0.26781946 -0.77260888 128 116 107
-0.18408102 -0.27144012 -0.77003747 116 86 81
-0.18441758 -0.26862362 -0.77124006 120 101 93
-0.18396816 -0.27038673 -0.77020252 116 89 83
-0.18499365 -0.26831967 -0.77195203 124 108 100
-0.18370149 -0.26837954 -0.77055144 115 94 86
-0.18350731 -0.26795608 -0.77047759 113 93 85
-0.1858485 -0.27454209 -0.77197212 139 125 112
-0.18572639 -0.27485093 -0.7713359 144 133 115
-0.18623964 -0.27501029 -0.77277374 142 124 116
-0.18626036 -0.27507356 -0.77278364 143 124 117
-0.18598855 -0.27446499 -0.77246672 137 121 111
-0.18558352 -0.27313951 -0.77234972 122 109 99
-0.18521565 -0.27499309 -0.77032065 143 135 112
-0.18462962 -0.27295113 -0.77035463 126 106 94
-0.18525961 -0.27155095 -0.77288991 103 84 83
-0.18474524 -0.27172652 -0.77150434 111 88 84
-0.18529353 -0.27292737 -0.77199948 118 104 95
-0.18512435 -0.27310738 -0.77145725 122 107 96
-0.18515189 -0.27434245 -0.77065122 136 125 107
-0.18641675 -0.2754887 -0.77300692 146 126 120
-0.19102181 -0.24753408 -0.78569347 122 108 98
-0.19179584 -0.25041965 -0.78724855 112 88 87
-0.19150944 -0.25019208 -0.78682667 109 88 87
-0.19183688 -0.24834476 -0.78713536 129 108 100
-0.19176145 -0.2497721 -0.78716063 116 93 90
-0.19109617 -0.24888286 -0.78608674 116 100 95
-0.19063596 -0.25045705 -0.78555453 97 82 83
-0.19147526 -0.24916112 -0.7866767 118 98 94
-0.19162148 -0.24913169 -0.7868911 120 99 94
-0.19174412 -0.25306913 -0.78734815 116 93 91
-0.19107218 -0.25262228 -0.78637981 99 79 83
-0.19126606 -0.25348839 -0.78673154 109 88 90
-0.19082668 -0.25397754 -0.78602642 107 86 91
-0.1908097 -0.25256911 -0.78599328 94 75 80
-0.18019663 -0.24759762 -0.76931292 70 43 43
-0.18020049 -0.24881822 -0.76916319 74 51 52
-0.17994289 -0.24982315 -0.76878059 79 58 61
-0.17988357 -0.2493308 -0.76876092 78 55 59
-0.17957322 -0.2496344 -0.76838577 81 59 63
-0.17972313 -0.24807085 -0.76870102 75 50 53
-0.18027912 -0.25049469 -0.76909238 79 59 62
-0.18110804 -0.25425404 -0.76949966 75 55 55
-0.1810286 -0.25402108 -0.76942748 75 56 56
-0.18098505 -0.25365874 -0.76942563 76 56 57
-0.18060584 -0.25426394 -0.76880497 74 54 56
-0.18025103 -0.25392604 -0.76836956 74 53 58
-0.18108822 -0.25535703 -0.76929498 73 52 53
-0.18209237 -0.25777581 -0.76988471 72 50 51
-0.18174377 -0.25958556 -0.76863372 67 43 46
-0.18188731 -0.25746816 -0.76970088 71 50 50
-0.18076211 -0.25855714 -0.76772648 87 68 66
-0.18121241 -0.25749683 -0.76875085 79 60 57
-0.18027768 -0.25909078 -0.76686871 98 80 76
-0.18163531 -0.25645962 -0.76972955 71 51 49
-0.17966446 -0.25718567 -0.76674819 82 61 64
-0.17933242 -0.25643626 -0.76657289 74 52 59
-0.18044075 -0.25840381 -0.76735961 95 77 73
-0.17971444 -0.25617182 -0.76719999 72 50 56
-0.1810919 -0.25651833 -0.76897037 78 58 57
-0.1812833 -0.2564263 -0.76926929 77 58 56
-0.1798542 -0.2596812 -0.76606762 106 89 85
-0.18252274 -0.2619752 -0.76984334 80 60 57
-0.18223023 -0.26000074 -0.76930296 71 47 50
-0.18236102 -0.26059285 -0.76952958 74 51 53
-0.18211509 -0.26320472 -0.76886672 80 61 55
-0.18188667 -0.26089069 -0.76882392 71 49 50
-0.18199766 -0.26332131 -0.76848954 80 60 53
-0.18159634 -0.26297173 -0.76748961 76 54 48
-0.18103421 -0.26267755 -0.76699311 87 66 62
-0.180577 -0.26337433 -0.76633483 98 80 73
-0.18112838 -0.25991637 -0.76770067 77 56 57
-0.18044505 -0.26014861 -0.76675361 94 74 72
-0.18102403 -0.26042235 -0.76747525 81 60 60
-0.18058693 -0.2613506 -0.76673561 93 74 71
-0.18231311 -0.26522493 -0.76890236 91 71 63
-0.18231902 -0.26379862 -0.76930535 84 67 59
-0.18269408 -0.26567206 -0.76990217 97 79 70
-0.18229266 -0.26518744 -0.76885229 91 71 62
-0.18220137 -0.26676673 -0.76824141 108 91 82
-0.18181725 -0.26481485 -0.76759195 89 69 61
-0.18166909 -0.26741764 -0.76664901 124 114 105
-0.18175572 -0.26439503 -0.76751012 85 64 56
-0.18271095 -0.26710272 -0.76956797 105 84 75
-0.18153559 -0.26699874 -0.76652539 119 108 99
-0.18080182 -0.26486832 -0.76620746 106 91 83
-0.18100113 -0.26494515 -0.76639402 103 87 79
-0.18075763 -0.26415664 -0.7663269 100 83 75
-0.18178813 -0.26920447 -0.76657826 129 122 112
-0.18195777 -0.26835069 -0.76723385 124 114 104
-0.18178733 -0.26967117 -0.76647168 131 125 114
-0.18223721 -0.26977989 -0.76767975 124 114 103
-0.18180574 -0.26831833 -0.76682472 126 117 108
-0.18363343 -0.27054566 -0.76971585 116 89 82
-0.1829178 -0.27077582 -0.7683621 123 105 97
-0.18266295 -0.27056921 -0.76802725 124 110 100
-0.18232413 -0.27002284 -0.76772076 125 114 103
-0.18277223 -0.26975453 -0.76863182 120 103 93
-0.1830906 -0.27062467 -0.76873773 121 101 92
-0.18161513 -0.26782903 -0.7664513 127 119 110
-0.18301328 -0.27535853 -0.76688385 119 103 101
-0.18348214 -0.27328292 -0.76840353 117 93 90
-0.18344003 -0.27450326 -0.76784247 121 103 98
-0.18351971 -0.27423489 -0.76806611 121 102 97
-0.18394856 -0.27297866 -0.7691924 122 98 91
-0.18496411 -0.27535808 -0.76966095 145 137 114
-0.1828126 -0.27355605 -0.7672289 117 98 96
-0.18265736 -0.27461016 -0.76666051 113 94 96
-0.18248981 -0.27183205 -0.76716214 128 116 107
-0.18381205 -0.27159142 -0.76951492 118 89 84
-0.18266773 -0.27460024 -0.76668125 113 93 95
-0.18295608 -0.27240184 -0.7678054 121 102 97
-0.18443528 -0.27682835 -0.76901615 142 136 109
-0.18490012 -0.27589184 -0.7695933 145 139 113
-0.18395756 -0.27722698 -0.76809198 127 117 99
-0.18454267 -0.27675423 -0.76923305 146 140 112
-0.18286631 -0.27660415 -0.76657861 115 99 95
-0.18258919 -0.27899671 -0.76602107 105 91 81
-0.18271142 -0.27783012 -0.76627457 110 95 87
-0.18414594 -0.27606627 -0.76843679 133 122 106
-0.18263479 -0.27808359 -0.76614821 108 93 86
-0.18368199 -0.27562487 -0.76780647 128 115 105
-0.18913305 -0.23085427 -0.78180456 145 120 125
-0.18878542 -0.23208287 -0.78164768 104 72 86
-0.18963356 -0.2479201 -0.78303891 96 74 86
-0.18985733 -0.24697915 -0.78304046 117 100 102
-0.19007792 -0.24675654 -0.78339642 125 111 107
-0.18982282 -0.24567457 -0.78231394 135 123 115
-0.1897531 -0.24596849 -0.78231287 130 116 112
-0.19114184 -0.24642111 -0.78542048 130 117 103
-0.18888795 -0.24783994 -0.78188056 95 70 85
-0.18886028 -0.24781334 -0.7818312 96 70 86
-0.18983014 -0.2484924 -0.78358036 95 74 85
-0.18985163 -0.24824646 -0.78359216 97 76 86
-0.1903891 -0.2482356 -0.78472966 109 93 93
-0.19025995 -0.2499496 -0.78469127 93 75 82
-0.19010206 -0.2503964 -0.78441757 86 66 77
-0.18972814 -0.25030118 -0.78347892 80 55 75
-0.18993515 -0.25123388 -0.78402603 78 54 73
-0.18970719 -0.24898858 -0.78338546 88 66 80
-0.18908259 -0.2502996 -0.78229278 80 52 77
-0.18906261 -0.25052688 -0.78227305 79 51 76
-0.18878144 -0.24950604 -0.78187752 86 58 80
-0.18879376 -0.2492104 -0.78188717 87 60 80
-0.19037862 -0.25229573 -0.78516042 84 65 75
-0.19037136 -0.25285375 -0.78514582 89 69 79
-0.18999258 -0.25284806 -0.78419793 82 57 77
-0.18975225 -0.25519744 -0.7830978 84 51 71
-0.18962649 -0.25462621 -0.78280634 77 44 67
-0.18968323 -0.25547808 -0.7827999 82 47 67
-0.18986315 -0.25414515 -0.7837162 87 58 79
-0.18986416 -0.25457168 -0.7836206 88 58 78
-0.18938281 -0.25409126 -0.78224945 68 32 60
-0.18866798 -0.25229478 -0.78170758 75 44 73
-0.18873474 -0.25259548 -0.78172708 74 43 71
-0.18913187 -0.26157528 -0.78222996 100 101 81
-0.18878849 -0.2610518 -0.78166521 95 100 78
-0.18819813 -0.26451856 -0.78178632 121 111 100
-0.18849294 -0.26393649 -0.78210521 120 111 100
-0.18822727 -0.26458284 -0.78183055 122 112 100
-0.18811192 -0.26990208 -0.78168958 141 130 117
-0.17269664 -0.25043985 -0.75981295 56 31 38
-0.17299758 -0.25125182 -0.76001018 55 30 37
-0.17215694 -0.2509715 -0.75901014 53 33 39
-0.17196301 -0.25137857 -0.75867093 51 33 39
-0.17195307 -0.25028428 -0.75892478 55 34 39
-0.17418174 -0.25467396 -0.76029044 70 46 51
-0.17497429 -0.25541005 -0.76095629 72 50 49
-0.17427787 -0.2550973 -0.76024401 72 48 53
-0.17458321 -0.25523135 -0.76055753 72 49 51
-0.17381048 -0.25529531 -0.75961095 73 50 58
-0.17332512 -0.25439039 -0.75938398 67 42 55
-0.17203332 -0.25222924 -0.75852966 51 34 41
-0.17266643 -0.25421628 -0.75862354 63 42 55
-0.17234834 -0.25312549 -0.75860935 57 38 47
-0.17335838 -0.25232765 -0.76017481 56 31 39
-0.1732254 -0.25241119 -0.75997639 56 32 40
-0.17444412 -0.25600037 -0.76014107 77 55 59
-0.17525156 -0.25655234 -0.7610603 82 62 60
-0.17588368 -0.2587018 -0.76164085 106 91 84
-0.17576064 -0.25859746 -0.76150239 105 90 83
-0.17421432 -0.25641406 -0.75983322 82 61 66
-0.17392004 -0.25971919 -0.75863135 146 111 127
-0.17407762 -0.25899717 -0.75902945 131 99 113
-0.17478667 -0.2577056 -0.76035541 99 79 80
-0.17465961 -0.2571702 -0.76030016 90 71 73
-0.17440908 -0.25867382 -0.75958264 121 94 102
-0.1739198 -0.2587761 -0.75885528 128 97 111
-0.17365117 -0.25953671 -0.75834644 142 106 123
-0.17330253 -0.25736809 -0.75844628 101 73 89
-0.17350829 -0.25808063 -0.75852233 115 84 99
-0.17330576 -0.25655934 -0.75863874 87 62 76
-0.1739447 -0.26293144 -0.75822228 54 35 69
-0.17409398 -0.26135293 -0.75864935 98 72 96
-0.17409587 -0.26044932 -0.75877786 124 94 113
-0.17435957 -0.26278809 -0.7588312 53 37 65
-0.174638 -0.26303706 -0.75914323 49 34 60
-0.17362112 -0.26012903 -0.75821215 135 100 120
-0.17568628 -0.26451343 -0.76013839 63 44 53
-0.17494179 -0.2639657 -0.75930417 48 30 53
-0.17884967 -0.26991272 -0.76210743 87 62 61
-0.17829351 -0.27083498 -0.76114506 88 64 62
-0.17781077 -0.27140009 -0.76042318 83 58 61
-0.17837314 -0.27122417 -0.76113468 91 66 65
-0.17832136 -0.27157027 -0.76098949 90 65 65
-0.18086661 -0.27774975 -0.76199949 107 66 77
-0.18089381 -0.27866352 -0.76155329 107 68 75
-0.18596171 -0.22441237 -0.77744919 141 112 127
-0.18601352 -0.22618183 -0.77740556 146 116 129
-0.18599252 -0.2275636 -0.77722138 154 124 131
-0.18625179 -0.22796507 -0.77757502 149 118 128
-0.18566632 -0.22699104 -0.77678484 159 132 135
-0.18437043 -0.22749816 -0.7751826 153 132 124
-0.18459222 -0.22680813 -0.77552372 151 128 126
-0.18466292 -0.22847319 -0.77539754 163 142 130
-0.18529303 -0.22593534 -0.77643859 153 126 132
-0.18392515 -0.22803381 -0.77460372 151 133 120
-0.18406864 -0.22698595 -0.77490062 145 124 119
-0.18577565 -0.22931793 -0.77680683 156 123 120
-0.1859441 -0.23012866 -0.77711147 141 101 100
-0.18562022 -0.23168546 -0.77675879 132 83 79
-0.18561162 -0.23240539 -0.77680242 124 69 65
-0.18515611 -0.23072165 -0.77609956 148 106 105
-0.18508342 -0.23230806 -0.77613324 129 75 76
-0.18495847 -0.23110361 -0.77588624 144 99 101
-0.18451998 -0.23129559 -0.77536207 144 96 104
-0.18360272 -0.23194857 -0.77428514 140 85 105
-0.18490466 -0.22905105 -0.77568626 165 136 131
-0.18481734 -0.22865884 -0.77557403 165 141 131
-0.18350998 -0.23073372 -0.77413267 144 103 110
-0.18370551 -0.2309496 -0.77436405 145 101 112
-0.18392225 -0.229982 -0.77458429 151 116 117
-0.18620513 -0.23336798 -0.7775774 96 42 54
-0.18575177 -0.23348816 -0.77691686 110 61 66
-0.18597654 -0.2346741 -0.7771399 93 49 66
-0.183726 -0.23603824 -0.774252 134 66 108
-0.18485397 -0.23528694 -0.77560472 115 62 88
-0.18465629 -0.23481688 -0.77543676 124 66 89
-0.18501313 -0.23591286 -0.77571142 106 59 87
-0.18332411 -0.23354118 -0.77391702 136 73 105
-0.18343186 -0.23257653 -0.77410322 135 76 100
-0.18424796 -0.2344961 -0.77499956 134 69 94
-0.18380579 -0.23438726 -0.77446204 135 70 101
-0.18325809 -0.2328164 -0.77387625 136 75 103
-0.18649499 -0.23820427 -0.77748686 86 59 71
-0.18622304 -0.23788868 -0.77710116 90 61 75
-0.18653764 -0.23706183 -0.77773273 71 37 64
-0.18629201 -0.2401112 -0.77712774 96 76 70
-0.18578887 -0.23983848 -0.77657592 92 69 67
-0.1855536 -0.23713818 -0.7762816 90 56 77
-0.18405686 -0.24003166 -0.77483982 85 56 64
-0.18537496 -0.23807804 -0.77611732 89 58 73
-0.18432416 -0.23996408 -0.77510351 86 58 64
-0.18365736 -0.23934612 -0.77443469 84 52 67
-0.18463586 -0.24003452 -0.7754131 87 60 64
-0.18376042 -0.23695537 -0.77431971 120 61 99
-0.18408328 -0.23670189 -0.77465701 117 61 98
-0.18387581 -0.23815487 -0.77456856 98 55 80
-0.18491489 -0.23727305 -0.77564734 88 53 77
-0.1864468 -0.24195415 -0.777569 89 56 58
-0.18613093 -0.24071395 -0.77702963 92 68 64
-0.18609917 -0.24210045 -0.77721345 85 49 54
-0.18571994 -0.24340601 -0.77683222 86 46 56
-0.18578433 -0.24413228 -0.77698714 85 41 53
-0.18543072 -0.24089332 -0.77623528 91 64 64
-0.18367559 -0.24337305 -0.77438569 106 58 90
-0.18373227 -0.24333331 -0.77444869 105 58 89
-0.18377078 -0.24374822 -0.77452695 105 56 88
-0.18335877 -0.24385369 -0.77405447 109 57 94
-0.18380563 -0.24176688 -0.77455008 96 57 77
-0.18434429 -0.24099711 -0.77510542 92 60 70
-0.18393248 -0.24161369 -0.77468002 95 58 75
-0.18381813 -0.24094835 -0.7745859 90 56 69
-0.18456161 -0.24057953 -0.77533251 89 61 66
-0.1859687 -0.24576642 -0.7774477 102 67 82
-0.18563399 -0.24642684 -0.77701432 115 87 100
-0.18557096 -0.24435453 -0.77669203 92 52 63
-0.18482018 -0.2478247 -0.77600569 121 103 113
-0.18536942 -0.24791244 -0.77679139 130 112 124
-0.18499716 -0.24742757 -0.77621263 119 99 109
-0.18445019 -0.2474273 -0.77543962 112 92 100
-0.18550842 -0.24580826 -0.77675891 108 77 89
-0.18381329 -0.24582335 -0.77454937 102 68 85
-0.18399376 -0.24584888 -0.77475911 100 67 82
-0.18348399 -0.24756896 -0.77410388 101 83 88
-0.18362196 -0.24642754 -0.77430487 102 73 88
-0.18342464 -0.24497016 -0.77412546 107 62 92
-0.18609928 -0.24944873 -0.77760679 117 94 105
-0.18610305 -0.2513409 -0.7771439 88 59 64
-0.18555777 -0.24814716 -0.77704877 132 115 127
-0.18612085 -0.25070989 -0.7773484 101 75 81
-0.18537545 -0.24861971 -0.77669579 122 103 115
-0.18426369 -0.25121951 -0.77465975 66 42 47
-0.1849222 -0.24969736 -0.77586091 99 77 87
-0.18551083 -0.25183576 -0.77597606 59 25 32
-0.18396576 -0.24846725 -0.77475077 106 89 96
-0.1842279 -0.25014099 -0.77483541 84 63 70
-0.18388474 -0.24928634 -0.77449638 92 74 79
-0.18349795 -0.24958844 -0.77389824 82 63 67
-0.18363136 -0.2493064 -0.77413493 88 70 75
-0.1837201 -0.24994788 -0.77415079 80 60 65
-0.18620428 -0.25341168 -0.77708262 79 51 55
-0.18577941 -0.25259873 -0.77636784 64 33 38
-0.1863361 -0.25494835 -0.77717733 83 59 64
-0.18565404 -0.25508654 -0.77504528 71 37 48
-0.18632728 -0.25555354 -0.77690566 86 60 67
-0.18605357 -0.25493103 -0.77632439 78 49 57
-0.18601637 -0.25377339 -0.77667934 73 44 50
-0.18534093 -0.25480017 -0.77450842 74 41 49
-0.18508635 -0.25523737 -0.77398854 79 46 55
-0.18522753 -0.25388286 -0.77475464 69 36 44
-0.18510176 -0.25251392 -0.77520919 59 27 33
-0.18546444 -0.25245392 -0.77566761 60 26 32
-0.1863533 -0.2581574 -0.77641362 93 68 77
-0.18570414 -0.25630391 -0.77479869 77 43 55
-0.1863766 -0.25811639 -0.77649254 94 69 77
-0.18670493 -0.2574887 -0.77761424 98 78 83
-0.18649894 -0.25587186 -0.77730215 90 67 73
-0.18629271 -0.25906783 -0.77618492 95 72 77
-0.18594654 -0.25741091 -0.77537078 84 55 64
-0.18598999 -0.25845689 -0.77541697 88 62 67
-0.18563181 -0.25904998 -0.7744205 85 57 58
-0.18624164 -0.25868145 -0.77607429 93 69 75
-0.18542433 -0.25897199 -0.77403986 83 55 56
-0.18537328 -0.25601935 -0.77412361 78 44 54
-0.18615869 -0.26033807 -0.77585262 95 72 74
-0.18587768 -0.26087606 -0.77516991 89 65 64
-0.18611076 -0.2605992 -0.77575761 93 70 72
-0.1860328 -0.25999215 -0.77547252 93 70 71
-0.18611991 -0.2599965 -0.77570581 95 72 73
-0.18667568 -0.26366055 -0.77765071 98 77 81
-0.18568735 -0.2633675 -0.77485073 92 62 78
-0.18560365 -0.26139635 -0.77444571 88 60 67
-0.18561938 -0.26169389 -0.77451557 89 61 68
-0.18581823 -0.26279274 -0.7751686 92 64 75
-0.18537107 -0.26254639 -0.77419734 93 63 77
-0.1851505 -0.26293391 -0.77399433 97 67 84
-0.18521751 -0.26112294 -0.7738834 92 64 70
-0.18572013 -0.26502019 -0.77407908 95 71 83
-0.18633582 -0.26558641 -0.77545327 95 79 81
-0.18621382 -0.26496625 -0.77551389 95 75 81
-0.18610042 -0.26655281 -0.77416432 93 80 80
-0.18645684 -0.26503912 -0.77614874 96 79 81
-0.18614236 -0.26650989 -0.77430993 93 80 80
-0.18658993 -0.26726413 -0.77564645 96 79 81
-0.18641944 -0.26736411 -0.77483207 94 82 81
-0.18687956 -0.2662591 -0.77739435 99 74 81
-0.18642645 -0.26738116 -0.77485627 94 82 81
-0.18656477 -0.26694915 -0.77567017 96 80 81
-0.1867373 -0.26617956 -0.77678585 97 77 81
-0.1851375 -0.26389304 -0.77389145 100 71 90
-0.1866561 -0.27005759 -0.77682137 119 104 106
-0.18687738 -0.26960236 -0.77741492 121 105 108
-0.18666907 -0.2692011 -0.77673721 107 86 91
-0.18684614 -0.27023315 -0.7774123 129 117 118
-0.18654525 -0.2693561 -0.77639085 104 83 88
-0.18674476 -0.26941991 -0.77699393 113 94 98
-0.18673289 -0.26795354 -0.7764321 98 75 81
-0.18630585 -0.26887536 -0.77518022 97 79 81
-0.18640284 -0.26784742 -0.77486199 95 81 81
-0.18609263 -0.26845431 -0.77390635 94 84 81
-0.18662931 -0.26794097 -0.77595472 97 77 81
-0.18584029 -0.27073374 -0.77444345 98 80 82
-0.18689297 -0.27227318 -0.77719736 148 142 139
-0.18686073 -0.27283534 -0.77661818 148 138 135
-0.18714549 -0.27408195 -0.77756029 147 134 135
-0.18698892 -0.27462506 -0.77621698 146 129 129
-0.18705416 -0.27380359 -0.77717656 147 135 134
-0.18686113 -0.27509442 -0.77510297 145 124 124
-0.18589614 -0.27168879 -0.77459049 110 96 96
-0.18633914 -0.27403998 -0.77392608 129 108 108
-0.18611221 -0.27202412 -0.77495086 119 106 105
-0.18637531 -0.27262604 -0.77522641 130 116 115
-0.1863855 -0.27391601 -0.77416867 131 111 111
-0.18564422 -0.27153775 -0.77396792 100 84 85
-0.18733142 -0.27604118 -0.77762735 146 129 131
-0.18694116 -0.27544546 -0.775419 145 123 124
-0.18696006 -0.27554232 -0.77556407 145 124 125
-0.17803209 -0.25566903 -0.76485169 69 48 51
-0.17774403 -0.25356084 -0.76543576 54 36 46
-0.17743813 -0.25340599 -0.76511461 53 35 44
-0.17732494 -0.2549457 -0.76418251 65 46 47
-0.17726472 -0.25452313 -0.76432019 61 43 46
-0.17759413 -0.25453711 -0.76473945 61 43 47
-0.17701608 -0.25384554 -0.76434135 56 39 43
-0.17627472 -0.25411233 -0.76314908 68 47 47
-0.17661318 -0.25389293 -0.7637403 61 42 45
-0.17659152 -0.25399438 -0.76366442 62 43 45
-0.17570369 -0.25448683 -0.76214975 79 56 51
-0.17591263 -0.25444332 -0.76247478 75 53 49
-0.17853199 -0.25648424 -0.76531607 75 54 58
-0.17939125 -0.25821283 -0.76597542 91 71 73
-0.17916973 -0.25826767 -0.76557171 93 74 73
-0.17889827 -0.25843218 -0.76517606 98 80 76
-0.17794852 -0.25814795 -0.76420456 106 92 83
-0.17972644 -0.25959125 -0.76591635 105 88 84
-0.17870645 -0.25799567 -0.7650243 93 75 72
-0.177178 -0.2594974 -0.76314592 124 113 100
-0.17729679 -0.25766784 -0.76350427 95 80 73
-0.1772642 -0.25879824 -0.76333231 114 101 90
-0.1765918 -0.25678313 -0.76268643 83 65 57
-0.17674559 -0.25767499 -0.76280719 93 77 69
-0.17653108 -0.25858396 -0.76244968 104 89 80
-0.17875855 -0.25999424 -0.76484066 122 109 98
-0.17977822 -0.26263279 -0.76555854 110 95 85
-0.18003276 -0.26208898 -0.76590222 106 90 83
-0.17879507 -0.26032344 -0.76483428 121 109 98
-0.17959343 -0.26300886 -0.76527137 107 92 82
-0.17867236 -0.26350424 -0.7640658 97 80 72
-0.17784722 -0.26259014 -0.76328987 103 89 78
-0.1792215 -0.26232436 -0.7649827 113 99 88
-0.18009989 -0.26361859 -0.7657367 103 86 78
-0.17888929 -0.26217595 -0.76462114 113 100 88
-0.17747711 -0.26252252 -0.76278222 98 81 72
-0.17733628 -0.26140103 -0.76287311 109 95 84
-0.17728293 -0.25980264 -0.76323187 129 119 105
-0.17655611 -0.26059109 -0.76214254 110 96 86
-0.17935555 -0.26426303 -0.7646262 94 76 69
-0.17855294 -0.26601717 -0.76303744 76 55 54
-0.17816751 -0.26418895 -0.76324111 88 71 64
-0.17988314 -0.26434436 -0.76522374 96 78 72
-0.17844126 -0.26518193 -0.76320708 82 63 59
-0.17914021 -0.26375163 -0.76455539 96 80 72
-0.18046848 -0.26754883 -0.76503015 109 97 92
-0.17950064 -0.26619482 -0.76416206 88 69 67
-0.18030693 -0.26696175 -0.76499218 106 91 86
-0.17908914 -0.2668595 -0.76342583 80 59 59
-0.17980514 -0.26633325 -0.76452035 94 77 74
-0.18014702 -0.26685342 -0.76481456 102 87 83
-0.17945094 -0.26714119 -0.76381677 88 69 68
-0.18107167 -0.27137986 -0.76465559 126 116 105
-0.1815249 -0.27040905 -0.76567543 133 128 116
-0.1813249 -0.26824975 -0.76598853 128 120 111
-0.18093158 -0.26898515 -0.76521987 124 113 104
-0.18058811 -0.27008867 -0.76443052 120 107 99
-0.1809136 -0.26830429 -0.76536763 122 111 103
-0.18020654 -0.26866752 -0.76430875 109 94 88
-0.18068923 -0.26821992 -0.76509339 117 105 98
-0.17935915 -0.2682786 -0.76332963 90 70 69
-0.18080415 -0.26808897 -0.76528835 119 107 100
-0.1794598 -0.26773596 -0.76364547 89 71 70
-0.17898837 -0.26918069 -0.7625376 86 63 62
-0.17943813 -0.26858851 -0.76332808 93 73 71
-0.18177594 -0.2715407 -0.76600444 136 134 121
-0.18181817 -0.27421468 -0.7648825 115 93 96
-0.18166493 -0.27180836 -0.76534516 131 124 112
-0.1818658 -0.27316594 -0.76538336 123 110 105
-0.1810098 -0.27507854 -0.76345968 105 72 82
-0.18133515 -0.27390072 -0.76421708 115 91 93
-0.18156858 -0.27475539 -0.76415062 110 80 87
-0.18160249 -0.27538863 -0.76395828 105 71 82
-0.18064855 -0.27238581 -0.7638545 118 100 95
-0.18023516 -0.27434105 -0.76290482 106 76 83
-0.18045935 -0.27178946 -0.76370901 118 101 93
-0.18109648 -0.27194315 -0.76455849 125 113 104
-0.18051204 -0.27148834 -0.76384014 119 104 95
-0.18015994 -0.27240902 -0.76317567 112 90 87
-0.18210593 -0.2767671 -0.76452559 112 84 91
-0.18193875 -0.27651134 -0.76421613 110 80 88
-0.18199155 -0.2760568 -0.76458126 110 81 89
-0.18230905 -0.27734518 -0.76519066 110 88 89
-0.18236394 -0.27621752 -0.76564568 111 91 94
-0.18247187 -0.27668482 -0.76600313 109 92 92
-0.18237437 -0.27592704 -0.76574737 111 92 95
-0.18126495 -0.27737892 -0.76260847 108 69 80
-0.18076867 -0.27562407 -0.76298207 102 66 78
-0.18085428 -0.27626118 -0.76274914 104 66 78
-0.1812467 -0.27742317 -0.7625674 108 69 80
-0.18790519 -0.2233821 -0.77994823 126 103 108
-0.18728849 -0.2239379 -0.77915567 131 105 114
-0.18730123 -0.22407861 -0.7791543 129 104 113
-0.18625639 -0.22453383 -0.77786827 141 112 127
-0.18814015 -0.22388829 -0.78016645 118 96 100
-0.18673307 -0.22443499 -0.77844232 135 108 120
-0.18891734 -0.22610715 -0.78100556 147 131 126
-0.18843667 -0.22609614 -0.78043848 154 136 134
-0.18647306 -0.22465533 -0.77811527 139 110 124
-0.18804117 -0.22590092 -0.779971 154 134 135
-0.18824127 -0.22608142 -0.78020799 157 138 137
-0.18625164 -0.22461316 -0.77785385 141 112 127
-0.18730901 -0.22621141 -0.77908927 168 144 149
-0.18866447 -0.22836545 -0.78065145 198 181 173
-0.18820444 -0.22709948 -0.78016478 187 169 166
-0.18860313 -0.22781375 -0.78061771 196 180 173
-0.18683784 -0.22697233 -0.77842337 158 130 138
-0.18716832 -0.22689122 -0.7788536 165 140 145
-0.18640536 -0.22588816 -0.77795726 148 119 131
-0.187427 -0.23120943 -0.77922291 136 93 93
-0.18853249 -0.23079738 -0.78086323 145 116 117
-0.18862405 -0.23054668 -0.78093463 153 125 125
-0.18763719 -0.2309856 -0.77949154 142 103 102
-0.18864807 -0.23094703 -0.78109211 140 111 115
-0.18798918 -0.23096386 -0.78004634 142 106 106
-0.18809639 -0.23062828 -0.78011745 152 119 117
-0.18864907 -0.22898465 -0.78063959 192 172 163
-0.18714827 -0.22908631 -0.7787202 158 128 131
-0.18639997 -0.22878864 -0.77774829 145 112 121
-0.18666001 -0.22937715 -0.77810681 144 108 115
-0.18756652 -0.22968726 -0.77928215 161 128 127
-0.18887389 -0.22905025 -0.78093058 196 177 166
-0.18783772 -0.22859497 -0.77958286 179 156 154
-0.18863475 -0.23260707 -0.78148794 93 59 77
-0.1877351 -0.23439282 -0.77987134 84 49 73
-0.18821029 -0.23442148 -0.78048927 99 67 88
-0.18711467 -0.23578933 -0.77871644 79 44 74
-0.18713747 -0.23630777 -0.7786206 85 52 81
-0.18746178 -0.23463811 -0.77945238 78 42 69
-0.18778369 -0.23334613 -0.78007722 88 49 68
-0.18669188 -0.23255888 -0.77840036 99 44 53
-0.18792184 -0.23261605 -0.78035712 94 53 68
-0.18682963 -0.23447435 -0.7784636 81 37 60
-0.18676627 -0.23399715 -0.77840149 85 39 58
-0.18714568 -0.23322454 -0.77906966 91 45 60
-0.18746947 -0.24000044 -0.77861929 110 94 81
-0.18819824 -0.23965403 -0.7796613 121 105 91
-0.18854806 -0.23880172 -0.78021359 131 115 106
-0.18796203 -0.23893346 -0.77938682 123 107 101
-0.18802275 -0.23929869 -0.77944368 121 105 95
-0.1873115 -0.23767127 -0.7786727 99 74 87
-0.18691798 -0.23741052 -0.77818853 85 56 75
-0.18769863 -0.23765205 -0.77918422 111 88 99
-0.1869947 -0.23866385 -0.7781291 96 73 78
-0.18673569 -0.23742341 -0.77794719 80 49 70
-0.18732655 -0.23639207 -0.77885616 92 60 87
-0.18761723 -0.24322243 -0.77916735 102 66 66
-0.18756992 -0.24382058 -0.77904189 104 66 70
-0.18779783 -0.24405673 -0.77923465 110 75 77
-0.18801537 -0.24313617 -0.77956998 111 79 75
-0.18882838 -0.24111116 -0.78063637 122 100 79
-0.18654571 -0.24331048 -0.77793413 83 39 48
-0.1877808 -0.24095674 -0.77918106 109 87 73
-0.18712325 -0.24263903 -0.77860373 93 55 57
-0.18785562 -0.24213389 -0.7795226 104 72 64
-0.18833719 -0.24140516 -0.78004694 113 88 73
-0.18801028 -0.24182159 -0.77967519 108 78 68
-0.1869937 -0.24236123 -0.77836722 93 58 58
-0.18930912 -0.24511796 -0.78112179 135 116 111
-0.18870389 -0.24666776 -0.78115255 107 81 90
-0.18778659 -0.24584454 -0.77991277 94 59 71
-0.18748365 -0.24447757 -0.77905321 100 61 69
-0.18839563 -0.24451603 -0.7799651 121 92 91
-0.18872711 -0.24485923 -0.78043193 125 99 98
-0.18873367 -0.24677527 -0.78122598 107 81 90
-0.18662243 -0.247402 -0.77860236 113 86 103
-0.18649356 -0.2479417 -0.77847153 122 100 117
-0.1867705 -0.24595931 -0.77866089 92 54 70
-0.18627794 -0.24658084 -0.77800018 107 75 92
-0.18702254 -0.24798352 -0.77926028 115 92 109
-0.18695401 -0.24617505 -0.77895695 92 55 72
-0.18703559 -0.25177079 -0.77870321 88 59 66
-0.18708482 -0.25188053 -0.77880144 87 58 66
-0.18749098 -0.25106403 -0.77955699 88 59 70
-0.1872281 -0.25177917 -0.77907395 86 57 67
-0.18792272 -0.25102675 -0.78038675 85 56 73
-0.18851253 -0.25062081 -0.78150892 82 53 77
-0.18688034 -0.25121546 -0.77840614 92 63 67
-0.18649112 -0.25034326 -0.77800828 104 79 86
-0.18691401 -0.25045243 -0.77861267 97 70 77
-0.18654807 -0.24909182 -0.77834958 114 90 103
-0.18736859 -0.2481986 -0.77974916 109 85 102
-0.1880151 -0.24916339 -0.78050935 92 65 77
-0.18746765 -0.25505522 -0.77918881 85 59 72
-0.18734857 -0.25521275 -0.77896851 86 61 73
-0.18735099 -0.25448734 -0.77916181 87 62 76
-0.18702573 -0.25547346 -0.77841485 89 66 75
-0.18805647 -0.25372109 -0.78042305 81 52 73
-0.18773608 -0.25448015 -0.77974278 83 56 72
-0.18693638 -0.25227061 -0.77850062 88 59 66
-0.18694769 -0.25355569 -0.77845216 89 63 71
-0.18705802 -0.25446519 -0.77861476 89 65 74
-0.18798849 -0.25274864 -0.78049946 81 53 75
-0.18697405 -0.25213009 -0.77858084 88 59 66
-0.18740803 -0.25413007 -0.77930671 86 61 76
-0.1883797 -0.25869229 -0.78032315 89 77 73
-0.18877497 -0.25753176 -0.78094143 80 57 64
-0.18883051 -0.25939894 -0.78118771 87 91 70
-0.18793254 -0.2595633 -0.77958906 96 90 82
-0.18898579 -0.25635627 -0.78122741 74 37 57
-0.1887234 -0.25771752 -0.78086346 81 61 65
-0.18698147 -0.25904545 -0.77794087 104 84 91
-0.18745366 -0.25641292 -0.77890432 88 61 72
-0.18813869 -0.25748828 -0.77983099 86 56 72
-0.18842484 -0.25679702 -0.78032786 81 48 65
-0.18734175 -0.25856969 -0.77852845 98 75 85
-0.18757123 -0.25787178 -0.77894074 93 68 79
-0.18695331 -0.25940737 -0.77786368 105 86 93
-0.18832411 -0.2620005 -0.78104621 100 98 83
-0.18735722 -0.26328218 -0.77924693 102 87 85
-0.18718429 -0.26352438 -0.77893329 102 86 85
-0.18843086 -0.2613841 -0.7809456 95 96 78
-0.18864751 -0.26100451 -0.78129047 93 98 76
-0.18829682 -0.26277474 -0.78146058 107 102 90
-0.18805361 -0.26117602 -0.77994215 92 90 75
-0.1879314 -0.26048169 -0.7796638 95 92 80
-0.1870995 -0.26110643 -0.77822387 102 87 87
-0.18694474 -0.26004192 -0.77785569 106 89 94
-0.18779105 -0.25991613 -0.77936381 98 93 84
-0.1884798 -0.26036632 -0.78063816 90 94 73
-0.18805292 -0.26418969 -0.78133541 115 103 97
-0.18754944 -0.2673758 -0.78006804 122 104 94
-0.18760602 -0.26734641 -0.78034848 125 108 96
-0.18736847 -0.26669657 -0.7788462 105 82 86
-0.18718837 -0.26433879 -0.77886379 103 84 86
-0.1875826 -0.26390189 -0.78004044 108 93 91
-0.18724132 -0.26463962 -0.77892828 104 84 86
-0.18675275 -0.26375788 -0.77784044 99 78 82
-0.18721624 -0.26434854 -0.77893645 104 85 86
-0.1874599 -0.26503253 -0.77941543 106 87 88
-0.18750104 -0.26970851 -0.78003007 144 137 123
-0.18716051 -0.27114198 -0.77861243 148 143 137
-0.18755995 -0.26938727 -0.78029704 143 136 120
-0.1873163 -0.27046531 -0.77926713 146 140 130
-0.1876865 -0.27102372 -0.78018105 144 136 129
-0.18768239 -0.26930642 -0.78067797 142 134 118
-0.18721831 -0.269142 -0.77882892 131 118 112
-0.18741901 -0.26798913 -0.77958041 124 106 98
-0.18700729 -0.27101171 -0.77820265 148 145 138
-0.18746854 -0.2685194 -0.77996874 134 123 109
-0.18709898 -0.26946697 -0.7782923 129 116 114
-0.18715982 -0.26788786 -0.77821386 108 84 88
-0.187803 -0.27476072 -0.77865082 150 134 133
-0.18729545 -0.27223688 -0.77866852 147 140 136
-0.1872606 -0.27176973 -0.77871335 147 142 137
-0.18771926 -0.27218282 -0.77992111 144 134 131
-0.18720911 -0.2720989 -0.77846003 148 141 138
-0.18716098 -0.27287742 -0.77807564 148 139 137
-0.18703131 -0.27269211 -0.77775568 149 142 139
-0.18734044 -0.27547112 -0.77775311 147 129 132
-0.18793367 -0.27711272 -0.77819228 150 138 135
-0.1877131 -0.27644625 -0.77803278 149 135 134
0 0 0 1 0 0 0 1 0 0 0 1 0 0 0 0 0 756 1 0 0
