ply
format ascii 1.0
comment PCL generated
element vertex 1054
property float x
property float y
property float z
property uchar red
property uchar green
property uchar blue
element camera 0
property float view_px
property float view_py
property float view_pz
property float x_axisx
property float x_axisy
property float x_axisz
property float y_axisx
property float y_axisy
property float y_axisz
property float z_axisx
property float z_axisy
property float z_axisz
property float focal
property float scalex
property float scaley
property float centerx
property float centery
property int viewportx
property int viewporty
property float k1
property float k2
end_header
0.30591512 -0.14223084 -0.8988387 91 89 109
0.30542007 -0.13913991 -0.89949334 90 88 107
0.29888135 -0.14263242 -0.90269792 42 21 21
0.30478108 -0.14325885 -0.90250009 87 89 98
0.3048479 -0.14359275 -0.90237963 87 88 98
0.30612531 -0.14611129 -0.8992576 86 83 106
0.30508777 -0.14470015 -0.90192771 87 87 98
0.30583152 -0.14568599 -0.90000826 86 84 104
0.30531004 -0.14523824 -0.90140557 86 86 99
0.30604923 -0.14371581 -0.89885777 90 87 108
0.30609825 -0.14564903 -0.89921921 86 84 107
0.30572149 -0.14407079 -0.89992815 88 86 105
0.30523717 -0.14329956 -0.90116966 88 88 102
0.30572054 -0.14264308 -0.8995561 91 89 107
0.30538592 -0.14306277 -0.90066409 89 88 104
0.3064436 -0.15017058 -0.90059602 74 68 93
0.30635035 -0.150369 -0.90095311 74 67 92
0.30639586 -0.14808279 -0.89955914 82 78 103
0.30623153 -0.14710799 -0.89938456 84 81 105
0.30564153 -0.15005499 -0.90268236 76 73 92
0.30564311 -0.14844903 -0.90179569 81 78 95
0.30533662 -0.14838023 -0.90263492 81 79 91
0.30544481 -0.14778888 -0.90200049 83 80 94
0.30526814 -0.1465224 -0.90181029 86 85 95
0.30703828 -0.15034162 -0.89902139 75 67 94
0.30549115 -0.15262182 -0.90242082 75 69 86
0.30618778 -0.15125945 -0.90107274 74 67 90
0.30568272 -0.15137121 -0.90237957 75 70 89
0.30601779 -0.15216765 -0.90121609 74 67 88
0.30628192 -0.1531866 -0.90046328 71 66 92
0.30585769 -0.1529766 -0.90141684 73 67 87
0.30621618 -0.15228958 -0.90076596 72 66 90
0.30602255 -0.15206684 -0.9012239 74 67 88
0.30682191 -0.15285 -0.89945376 70 66 97
0.30710486 -0.15047678 -0.89885288 75 67 94
0.30688259 -0.15153416 -0.89943814 72 67 95
0.30561054 -0.15607378 -0.90230894 74 68 83
0.30555606 -0.15529686 -0.90216631 74 68 84
0.30632642 -0.15465236 -0.90028727 69 65 93
0.30591783 -0.15492198 -0.90125966 72 67 89
0.30631486 -0.15447149 -0.90025163 69 65 94
0.306499 -0.15592705 -0.90022105 69 66 92
0.3065711 -0.15541224 -0.89991683 69 66 94
0.30653292 -0.15779598 -0.90053356 71 69 88
0.3068856 -0.1559165 -0.89925182 68 68 94
0.30687758 -0.15668033 -0.89943588 69 69 92
0.30721226 -0.15779538 -0.8988812 69 72 90
0.30703035 -0.15614314 -0.8990252 69 69 94
0.30564699 -0.15960369 -0.90272111 71 66 78
0.30563593 -0.15982656 -0.90270722 70 66 78
0.30623358 -0.15880752 -0.90130526 70 68 84
0.30657965 -0.16018088 -0.90035999 67 67 86
0.30557162 -0.16197644 -0.90249401 65 62 75
0.30605304 -0.16185454 -0.90143472 65 64 80
0.30625972 -0.16169959 -0.90098554 64 65 82
0.30687609 -0.16041435 -0.89983535 67 70 88
0.30716968 -0.16123806 -0.89932072 66 72 90
0.30694884 -0.15848762 -0.899625 70 71 89
0.30670762 -0.15843645 -0.90019804 70 70 88
0.30605307 -0.16230214 -0.90150392 64 64 79
0.3058643 -0.16287078 -0.90216643 66 65 77
0.30655247 -0.1626284 -0.9005385 64 66 84
0.30608809 -0.1624617 -0.90149498 65 64 80
0.30662513 -0.16561756 -0.90168351 70 74 86
0.30719671 -0.1652319 -0.89990944 64 71 90
0.30732644 -0.16583586 -0.89980596 64 71 91
0.3071903 -0.16521528 -0.89992034 64 71 90
0.3073554 -0.1659147 -0.89975846 64 72 91
0.30759579 -0.16494939 -0.89888471 62 71 93
0.30717841 -0.16389927 -0.89944404 62 68 90
0.30653292 -0.16711169 -0.90228766 68 69 80
0.30634657 -0.16629671 -0.90251791 71 73 80
0.30665955 -0.1681595 -0.90216494 64 65 77
0.30681723 -0.1680305 -0.90159982 65 66 80
0.30698979 -0.16924082 -0.90123725 62 62 77
0.30704737 -0.1683792 -0.90087676 65 66 82
0.30682689 -0.1671675 -0.90140349 68 70 84
0.30715853 -0.16657132 -0.90037137 66 72 89
0.30738032 -0.16756544 -0.89976573 64 69 89
0.30706853 -0.16710612 -0.90063763 67 71 87
0.30727005 -0.16764641 -0.90007943 65 69 88
0.29331163 -0.10702829 -0.87537217 93 86 104
0.29268709 -0.10604896 -0.87470222 82 71 93
0.29326364 -0.10707245 -0.87531394 93 85 104
0.29145545 -0.10663366 -0.87323886 66 49 78
0.29234505 -0.10661749 -0.87427288 79 66 90
0.29122064 -0.10678222 -0.87295282 63 45 74
0.29233035 -0.10489972 -0.87435049 75 61 86
0.29310018 -0.11084917 -0.87491649 90 82 99
0.29174921 -0.11051324 -0.87343383 71 61 85
0.29278263 -0.11035836 -0.87459207 86 77 96
0.29319179 -0.10770324 -0.875202 92 85 104
0.29304847 -0.10856983 -0.87499207 90 82 101
0.29273552 -0.11053817 -0.87452912 85 77 96
0.29258558 -0.10765378 -0.87450004 84 73 95
0.2921719 -0.10849223 -0.87399542 78 66 90
0.29156435 -0.10903455 -0.87327415 69 56 82
0.2923573 -0.1079778 -0.87422556 80 69 92
0.29251078 -0.10781217 -0.8744086 83 72 94
0.29077908 -0.1126142 -0.87226623 58 45 75
0.29094863 -0.11252677 -0.87241244 58 45 76
0.29272071 -0.11323559 -0.8743012 81 71 93
0.29138359 -0.1149848 -0.87266386 59 44 78
0.29316425 -0.11401507 -0.8747254 86 77 97
0.29147279 -0.11456389 -0.87279969 61 47 80
0.29319599 -0.11268036 -0.87487745 89 80 99
0.29138282 -0.11331993 -0.87280703 62 49 79
0.29130337 -0.11217367 -0.87281758 63 51 79
0.29240635 -0.11157174 -0.87409598 80 70 91
0.29228655 -0.11277708 -0.87385875 76 65 89
0.29276791 -0.11211289 -0.8744514 84 75 95
0.29119894 -0.1141675 -0.87252945 58 43 77
0.29090354 -0.11532614 -0.87212813 54 38 74
0.29055598 -0.11752919 -0.87160623 64 50 73
0.2920399 -0.11787596 -0.87309659 80 68 85
0.29298207 -0.11869442 -0.87409562 89 77 91
0.29387426 -0.11794655 -0.87517309 97 85 99
0.29367593 -0.11774857 -0.87496501 95 83 98
0.29269999 -0.11690588 -0.87392974 85 74 92
0.293657 -0.11685892 -0.87502033 93 83 99
0.29144821 -0.11578488 -0.87265605 62 48 79
0.2912569 -0.11806686 -0.87220484 70 57 78
0.29108086 -0.11617639 -0.87220734 59 44 75
0.29105598 -0.11695117 -0.87209857 62 47 75
0.29138443 -0.11553285 -0.87261164 60 45 78
0.29121876 -0.11580135 -0.87239969 59 44 77
0.29096264 -0.11929973 -0.87177402 72 59 76
0.29326433 -0.1216723 -0.87417167 101 90 98
0.29273 -0.12302312 -0.87345874 100 91 97
0.2944198 -0.12256286 -0.87532043 106 98 101
0.29249465 -0.12139785 -0.87337357 98 86 96
0.29433283 -0.12287895 -0.87519449 106 98 101
0.29173222 -0.12269828 -0.87242091 97 86 95
0.29258943 -0.12256692 -0.87335485 99 89 97
0.29375237 -0.1194326 -0.87491602 98 86 98
0.29283759 -0.11969964 -0.87386316 92 79 92
0.29291421 -0.12019418 -0.87392372 95 83 95
0.29252142 -0.12088579 -0.87344074 96 84 95
0.29125708 -0.12274048 -0.8719061 95 84 94
0.29190749 -0.12043478 -0.87276787 87 75 88
0.29218525 -0.11980063 -0.87311715 86 74 87
0.29100218 -0.12360296 -0.87156367 91 80 92
0.29135236 -0.12380689 -0.87191939 90 80 92
0.29145023 -0.12442978 -0.87197703 86 76 91
0.29137099 -0.12440593 -0.87189376 86 76 90
0.29211998 -0.12493966 -0.87266433 85 76 90
0.29203242 -0.12483446 -0.87257689 86 76 90
0.29330552 -0.1243323 -0.87398314 93 85 95
0.29238889 -0.12488576 -0.87295794 86 77 91
0.29263577 -0.1255938 -0.8731733 84 75 90
0.29418728 -0.12657142 -0.8747499 100 90 100
0.29380155 -0.12512006 -0.87445182 97 88 97
0.29339704 -0.12469618 -0.8740539 93 85 95
0.29251897 -0.12591818 -0.87302369 83 74 90
0.29436404 -0.12602587 -0.87498057 102 92 101
0.29350033 -0.12536892 -0.87411171 94 85 95
0.29387456 -0.13056883 -0.87458563 89 88 98
0.29434997 -0.12895973 -0.87500554 97 92 101
0.29311183 -0.12906715 -0.8736524 85 77 91
0.29383504 -0.12910807 -0.87444937 92 86 97
0.29192773 -0.1303346 -0.87243235 70 64 82
0.29434302 -0.12788282 -0.87492949 100 91 100
0.29342923 -0.12900606 -0.87399715 88 81 93
0.29331625 -0.1277741 -0.87381822 89 79 93
0.29281172 -0.12717432 -0.87326199 85 75 91
0.29159304 -0.12758693 -0.87197685 71 62 83
0.29289323 -0.12840964 -0.87338752 84 75 90
0.29122606 -0.12892973 -0.87162805 65 57 79
0.29319155 -0.12809488 -0.87369543 88 78 92
0.29222459 -0.12714663 -0.87263572 79 69 88
0.29440328 -0.13311467 -0.87519556 82 77 99
0.29433635 -0.13191268 -0.87510151 88 86 100
0.29449937 -0.1311141 -0.87528533 93 94 102
0.29423073 -0.13149568 -0.87497103 89 88 99
0.29386485 -0.13255867 -0.87454957 80 75 94
0.29336956 -0.13127115 -0.8740232 82 79 92
0.29145455 -0.13331035 -0.87179017 53 42 71
0.2931425 -0.13114098 -0.87378204 80 77 91
0.29235411 -0.13227345 -0.8728441 67 60 81
0.29203039 -0.1319693 -0.87250787 65 58 80
0.29241094 -0.13090204 -0.87299371 74 70 86
0.29191259 -0.13216348 -0.87236613 63 56 78
0.29451537 -0.13839898 -0.87466061 64 44 93
0.29431218 -0.13677217 -0.87475836 67 52 93
0.29397386 -0.13680741 -0.8743977 65 50 88
0.29495955 -0.13772498 -0.87527084 69 50 99
0.29445043 -0.13925368 -0.87449843 64 43 90
0.29482311 -0.14208953 -0.8746829 68 54 86
0.29477084 -0.14018889 -0.87476593 67 48 91
0.29430515 -0.14154914 -0.87418008 65 49 80
0.29430172 -0.14248858 -0.87415218 68 52 79
0.29522783 -0.14156151 -0.8752929 70 56 89
0.29483348 -0.14358307 -0.87459856 67 53 81
0.29535642 -0.14357981 -0.87532461 69 58 82
0.29520968 -0.14428264 -0.87506437 66 55 80
0.29493076 -0.14583883 -0.874547 61 49 74
0.29880986 -0.1792279 -0.87536711 36 29 53
0.29853874 -0.17918731 -0.87501568 35 29 52
0.29830059 -0.17971213 -0.87466359 36 28 51
0.29862171 -0.17987168 -0.8750785 37 28 53
0.29823744 -0.18100524 -0.87449056 40 28 50
0.2983287 -0.18046665 -0.87464881 38 28 51
0.29872024 -0.1833643 -0.87472922 47 33 56
0.29721093 -0.18313533 -0.87277472 41 32 48
0.29770708 -0.18212441 -0.87364274 41 29 49
0.29858774 -0.18459266 -0.87429845 49 37 58
0.29778481 -0.181742 -0.87382525 40 28 48
0.29874617 -0.18221365 -0.87500256 44 29 54
0.29708815 -0.18444866 -0.87233305 43 33 49
0.29698509 -0.1846568 -0.87215155 42 33 48
0.29811805 -0.18515538 -0.87355584 48 37 56
0.29892853 -0.18299361 -0.8751716 46 32 55
0.29886901 -0.18317921 -0.87499523 47 33 56
0.29734731 -0.18616039 -0.87233943 47 36 52
0.29781905 -0.18602483 -0.87299156 48 38 55
0.29703459 -0.18575582 -0.87199247 45 34 50
0.29729986 -0.18736726 -0.87213463 48 38 54
0.29697883 -0.18886244 -0.87166989 48 37 53
0.29776555 -0.18807378 -0.87262046 51 42 58
0.29687124 -0.18735918 -0.87164545 46 35 50
0.29733774 -0.18965638 -0.87199414 50 40 56
0.29733926 -0.19051777 -0.87179911 50 41 56
0.30100644 -0.098577976 -0.88892406 132 134 141
0.30088952 -0.098506942 -0.88869494 132 135 141
0.30191916 -0.099520192 -0.89061415 136 129 143
0.30140635 -0.098547161 -0.88977689 133 132 141
0.30053192 -0.099094622 -0.8877905 133 136 142
0.30026388 -0.097385287 -0.88721031 128 125 131
0.30133709 -0.096428715 -0.89013404 127 133 137
0.30069309 -0.097708449 -0.88834137 129 132 137
0.30060911 -0.096653439 -0.88817376 126 125 131
0.30092603 -0.097162396 -0.88899428 128 132 137
0.30093354 -0.1022184 -0.88857323 132 131 141
0.30164826 -0.10272415 -0.89029151 132 128 140
0.30118394 -0.10256642 -0.8891955 132 130 140
0.30096698 -0.10210291 -0.88863713 133 131 141
0.30117586 -0.10306877 -0.88923645 131 130 140
0.30192119 -0.10277998 -0.89093137 132 127 139
0.30039012 -0.10103125 -0.88738757 133 135 141
0.30155253 -0.099956118 -0.8898235 135 130 143
0.30060995 -0.10145282 -0.88786012 133 134 141
0.30080813 -0.10012756 -0.88825381 134 134 142
0.30141065 -0.10074559 -0.88953859 134 130 142
0.30092576 -0.1004205 -0.88850784 134 133 142
0.30182275 -0.10485597 -0.89070213 131 129 137
0.3014923 -0.10461132 -0.88992429 130 127 138
0.30079785 -0.10658146 -0.8881402 129 129 137
0.3007324 -0.10732343 -0.88793856 129 130 136
0.30180651 -0.10417947 -0.89070386 130 127 138
0.30052233 -0.10368951 -0.88775754 130 132 139
0.30098492 -0.10456756 -0.88875097 130 129 138
0.30042624 -0.10472223 -0.88744068 130 132 138
0.30051619 -0.10364566 -0.88774729 130 132 139
0.30089402 -0.10426112 -0.88856798 130 130 139
0.3002407 -0.10360612 -0.88711172 130 133 139
0.3018513 -0.10943035 -0.89028692 123 123 129
0.30213061 -0.11014441 -0.89081836 120 118 129
0.3015947 -0.10981978 -0.88962179 122 120 128
0.30124295 -0.11023926 -0.88872933 120 118 126
0.30176535 -0.10957012 -0.89006257 123 122 129
0.30217025 -0.11018682 -0.89090371 120 118 129
0.30095381 -0.10798445 -0.88838106 128 129 134
0.30097196 -0.1095664 -0.88819242 122 122 128
0.30150768 -0.10797327 -0.88971114 129 130 133
0.30148059 -0.10785906 -0.88966292 129 131 133
0.30121061 -0.10777722 -0.88902748 129 130 134
0.3006517 -0.10861649 -0.88756371 125 125 132
0.30154389 -0.11371859 -0.88944262 110 102 115
0.30102417 -0.11483192 -0.8884005 107 98 110
0.3021993 -0.11498509 -0.89056438 108 99 109
0.30221206 -0.11348927 -0.89069575 111 104 116
0.30188289 -0.11326396 -0.89010274 111 104 118
0.30171782 -0.11465988 -0.88969666 108 100 110
0.30049059 -0.11405236 -0.88725394 109 101 112
0.30074587 -0.11243555 -0.88757366 113 108 119
0.30056173 -0.114332 -0.88746786 108 100 111
0.3012825 -0.11323401 -0.8889634 111 104 118
0.30051139 -0.11431655 -0.88734764 108 100 111
0.30114245 -0.11348739 -0.88867968 110 103 116
0.30189744 -0.11684217 -0.88970852 105 96 103
0.30133879 -0.11876556 -0.88840401 103 94 97
0.30170891 -0.11892489 -0.88931602 104 94 97
0.30207849 -0.11815113 -0.89019555 105 95 100
0.30158576 -0.11756168 -0.888969 104 96 100
0.30227238 -0.11639957 -0.8906123 106 97 104
0.30085295 -0.11884961 -0.88726163 102 94 96
0.30125877 -0.1154918 -0.88874918 106 97 107
0.30107862 -0.11834708 -0.88778955 103 94 98
0.30082881 -0.11558562 -0.8879329 106 97 106
0.30104706 -0.11617777 -0.8882069 105 96 105
0.3006064 -0.11602218 -0.88742548 105 96 105
0.30146444 -0.12223706 -0.88843137 105 95 100
0.30210519 -0.12039372 -0.89015079 105 94 99
0.30212376 -0.12087277 -0.89010304 106 94 100
0.30180052 -0.12256557 -0.88909578 106 95 103
0.30160308 -0.12168314 -0.88883185 105 94 100
0.3021456 -0.12067367 -0.89018655 106 94 100
0.3015306 -0.12095271 -0.8887558 104 94 98
0.30149302 -0.12032502 -0.88870889 104 94 98
0.30101925 -0.12062573 -0.88752669 103 94 97
0.30187184 -0.11919589 -0.88971835 104 94 97
0.30128449 -0.11938617 -0.88826591 103 94 96
0.30174074 -0.12580961 -0.88885003 108 102 109
0.30134135 -0.12690659 -0.8879742 107 104 109
0.30266011 -0.12353173 -0.89091265 110 98 109
0.30226937 -0.12444802 -0.89002621 109 99 109
0.30206957 -0.1257112 -0.88972294 110 103 111
0.30162427 -0.12518813 -0.88851041 106 100 107
0.30120012 -0.12557974 -0.88757455 105 100 105
0.30094975 -0.12357148 -0.88714439 104 96 101
0.30101874 -0.12680104 -0.88711673 104 102 106
0.30228102 -0.12323144 -0.89003354 108 96 107
0.30190217 -0.12411182 -0.88916856 107 98 106
0.3014068 -0.13005248 -0.88836771 106 100 117
0.3014732 -0.12976183 -0.88853019 106 101 116
0.30153295 -0.13056548 -0.88872635 107 103 118
0.30122885 -0.13072565 -0.88792723 104 99 117
0.30221227 -0.12997928 -0.89050072 115 111 120
0.30097905 -0.13071437 -0.88726407 101 96 116
0.30098164 -0.12997805 -0.88721973 102 97 114
0.30118471 -0.12929906 -0.88772273 104 99 113
0.30169067 -0.12756354 -0.88897282 109 104 113
0.30174363 -0.12785023 -0.88913649 109 104 114
0.30108956 -0.12983233 -0.88750207 103 98 114
0.30220214 -0.13345325 -0.8900491 112 107 125
0.30256799 -0.13376102 -0.89090681 115 110 127
0.30196249 -0.13276266 -0.88958043 111 107 122
0.3022483 -0.13320769 -0.89021152 113 108 124
0.30205926 -0.13334899 -0.88971114 111 106 124
0.30156207 -0.13429399 -0.88828599 104 100 122
0.30146173 -0.13112955 -0.88851261 107 102 118
0.30113333 -0.1334721 -0.88730758 101 96 119
0.30149555 -0.13256778 -0.88839728 106 102 120
0.30186453 -0.13184507 -0.88947898 111 107 121
0.30148807 -0.13253328 -0.88838232 106 102 120
0.30137861 -0.13233523 -0.88812029 105 100 119
0.30270216 -0.13837293 -0.88967538 102 103 121
0.30244166 -0.13772741 -0.8894124 103 101 122
0.30189717 -0.13748884 -0.88844126 100 97 120
0.30261374 -0.13845241 -0.88947284 102 102 121
0.30206427 -0.13560002 -0.88928491 107 102 124
0.30123261 -0.13600692 -0.88711959 98 94 119
0.30179322 -0.13572478 -0.88858068 104 99 123
0.3018499 -0.13552563 -0.88876307 105 100 123
0.30171034 -0.13717225 -0.88807994 100 96 120
0.3028838 -0.13715048 -0.89051706 106 105 122
0.30297068 -0.13816088 -0.8903141 103 103 119
0.30253798 -0.14100419 -0.88861966 96 96 114
0.3027125 -0.14053799 -0.88908428 98 98 116
0.30188292 -0.13974006 -0.88767982 94 92 115
0.3027249 -0.14128117 -0.88891023 96 97 114
0.3022638 -0.1424031 -0.88772196 92 93 109
0.30225372 -0.1421545 -0.88776684 93 93 110
0.30261332 -0.14247832 -0.88837546 93 94 110
0.30347106 -0.14152397 -0.89055908 92 92 107
0.30368677 -0.1423704 -0.89088362 89 88 103
0.30299687 -0.14237547 -0.88924903 93 93 109
0.30346432 -0.13990341 -0.89089966 97 96 111
0.30276582 -0.14155996 -0.88892019 96 96 113
0.30275255 -0.14197654 -0.88878131 95 96 112
0.30239961 -0.14281286 -0.88790256 92 93 109
0.30212891 -0.14306571 -0.88734299 91 92 107
0.30236983 -0.14529264 -0.8874917 90 87 105
0.30382022 -0.14510241 -0.89072442 89 87 101
0.30311921 -0.14562112 -0.88902259 89 86 103
0.30343422 -0.14383744 -0.8900488 88 86 102
0.30344325 -0.1458914 -0.88972324 89 86 102
0.30344284 -0.14415012 -0.8900159 88 86 102
0.30288368 -0.14317459 -0.88884598 92 92 108
0.30279785 -0.14470337 -0.8884111 91 89 107
0.30362174 -0.14298151 -0.89062279 88 87 102
0.30246684 -0.14731246 -0.88737446 86 84 103
0.30401659 -0.15016474 -0.89026701 77 81 100
0.30420274 -0.14985794 -0.89074826 78 81 99
0.30364832 -0.14821689 -0.88978493 84 85 101
0.30412886 -0.15008508 -0.89053786 77 81 99
0.30374074 -0.14825025 -0.88998973 84 85 101
0.30373141 -0.15015401 -0.88961804 77 81 101
0.30301183 -0.14744975 -0.88845873 87 85 103
0.30329847 -0.14786208 -0.88904589 85 85 102
0.30311343 -0.14893988 -0.88842887 82 84 103
0.30275449 -0.14690782 -0.88796216 88 85 104
0.30341753 -0.15062287 -0.88877678 76 80 101
0.30324581 -0.15131423 -0.88814181 73 77 99
0.30431035 -0.15050191 -0.89085686 75 79 98
0.30330342 -0.15236086 -0.88790506 69 71 94
0.3034032 -0.15292856 -0.88793308 66 68 92
0.3029277 -0.15164681 -0.88729888 72 75 98
0.30414355 -0.15134132 -0.89019567 72 75 96
0.30443257 -0.1526244 -0.8905946 69 69 92
0.30419004 -0.15383232 -0.88964564 64 63 88
0.30465147 -0.15396108 -0.89079869 65 62 88
0.30438566 -0.15166689 -0.89073122 72 73 95
0.30414492 -0.15657598 -0.88902044 58 57 82
0.30372927 -0.15782483 -0.88775623 54 55 79
0.30465204 -0.15479051 -0.89062291 63 60 86
0.30467555 -0.15498523 -0.89063358 63 60 85
0.30416739 -0.15643218 -0.88910633 58 58 82
0.30445081 -0.15799037 -0.88941544 58 58 81
0.3044115 -0.15491934 -0.88999307 62 60 85
0.30348817 -0.15628967 -0.88740176 57 57 82
0.30340832 -0.1567772 -0.88711983 55 57 81
0.30393338 -0.15551794 -0.88866866 60 59 84
0.30389062 -0.15470883 -0.88868558 61 60 86
0.30499798 -0.15893453 -0.8904798 60 60 82
0.3046349 -0.16098708 -0.88914466 56 60 78
0.30415109 -0.16123785 -0.88790864 53 57 76
0.30420655 -0.15839611 -0.88874418 56 57 80
0.30372098 -0.15836494 -0.88760978 54 55 78
0.30427855 -0.15974374 -0.88857913 55 57 79
0.30424362 -0.15990323 -0.88845748 55 57 78
0.30458632 -0.15910995 -0.88946038 57 58 80
0.30502003 -0.16556261 -0.88946921 53 59 76
0.30450603 -0.1651666 -0.88843524 48 55 72
0.305278 -0.16591486 -0.8899647 55 61 77
0.304735 -0.16506806 -0.88893783 51 57 74
0.3046996 -0.16262133 -0.88904589 55 62 76
0.30414057 -0.16392718 -0.88764381 48 54 72
0.30455917 -0.16288994 -0.88869518 53 60 75
0.30394122 -0.16338699 -0.88716972 48 53 73
0.3040247 -0.16383532 -0.8873626 47 53 72
0.3048602 -0.16273798 -0.88943607 56 63 76
0.30424935 -0.16767544 -0.88744432 46 50 71
0.30428779 -0.16620129 -0.88780582 45 51 71
0.30422631 -0.16729666 -0.88746709 46 50 71
0.30415848 -0.16639525 -0.88749373 44 50 70
0.30500749 -0.16758472 -0.8890757 54 58 76
0.30443555 -0.16848978 -0.88768637 49 52 72
0.30469522 -0.17192951 -0.88767397 54 58 77
0.30508515 -0.17117357 -0.88860542 57 63 80
0.30459651 -0.17210419 -0.88744062 53 57 76
0.30437362 -0.17027678 -0.88723075 50 52 73
0.30514774 -0.17006288 -0.88889617 56 64 80
0.30487907 -0.095601283 -0.90328372 109 109 109
0.30487493 -0.095045596 -0.90483087 92 90 89
0.30494148 -0.095354058 -0.90312362 109 110 109
0.30487695 -0.094945125 -0.90507406 89 87 85
0.30500931 -0.094752178 -0.90318978 109 108 105
0.30462199 -0.097206891 -0.90632832 73 64 68
0.30462208 -0.097682729 -0.90631062 71 61 66
0.30471885 -0.097990766 -0.90488982 81 73 80
0.30474091 -0.098257288 -0.90455949 82 75 82
0.30469275 -0.09801437 -0.90526968 78 69 76
0.30476364 -0.097812712 -0.90427011 87 81 87
0.30487403 -0.095913723 -0.90305048 110 110 111
0.3047919 -0.096918695 -0.90400869 95 91 95
0.30484208 -0.096546464 -0.90339303 103 101 104
0.30485666 -0.099091351 -0.90288234 92 87 96
0.3046549 -0.10130783 -0.90589142 69 57 63
0.3048037 -0.10191453 -0.90444142 82 71 79
0.30494353 -0.10345189 -0.90296823 96 88 97
0.30461213 -0.10336445 -0.9060539 71 60 63
0.30469823 -0.10294791 -0.90530241 76 66 71
0.30465204 -0.10065287 -0.90599263 67 54 61
0.30471197 -0.10023056 -0.9051792 72 61 70
0.30471876 -0.10010964 -0.90503305 73 62 71
0.30468032 -0.099671781 -0.90542161 69 58 67
0.30480331 -0.10027275 -0.90386426 83 74 84
0.30470553 -0.10001061 -0.90518701 72 61 70
0.30479455 -0.10051848 -0.90408838 82 72 82
0.30336028 -0.10715142 -0.9046635 86 79 73
0.30425647 -0.10486238 -0.90561134 76 67 67
0.30345923 -0.10665587 -0.9050954 82 75 68
0.3030549 -0.10616993 -0.90652931 70 61 48
0.30350372 -0.10623838 -0.90550983 78 70 63
0.30362579 -0.10582472 -0.90575778 76 67 61
0.30400217 -0.10697103 -0.90357989 95 89 90
0.30425978 -0.1064297 -0.90360928 94 88 91
0.30447537 -0.10430489 -0.90576345 74 65 67
0.3045553 -0.10402624 -0.90556622 76 66 69
0.30451667 -0.10502093 -0.90397984 90 82 87
0.30443683 -0.10515108 -0.90446627 86 78 81
0.3042464 -0.10648829 -0.90361875 94 88 91
0.30301583 -0.1098858 -0.90405065 86 73 79
0.30273497 -0.1096269 -0.90440404 83 71 74
0.30381432 -0.11052705 -0.90278554 96 83 96
0.30330339 -0.10840952 -0.90419877 88 78 77
0.30352476 -0.10796424 -0.90384924 91 84 83
0.30410409 -0.10756142 -0.90278757 102 96 100
0.3027465 -0.11225162 -0.90365106 85 70 83
0.30284894 -0.11300866 -0.90363514 83 69 81
0.3031784 -0.11183207 -0.90322012 90 75 89
0.30274332 -0.11809681 -0.90564811 61 50 57
0.30280998 -0.11719619 -0.90493923 68 57 63
0.30288258 -0.11741968 -0.90486211 69 59 64
0.30296975 -0.11657666 -0.90412831 76 66 71
0.3030529 -0.11706051 -0.90417135 77 67 71
0.30372471 -0.11842579 -0.90305173 94 88 86
0.30378887 -0.11765296 -0.90293014 93 87 86
0.30364925 -0.11770665 -0.90307617 92 85 85
0.30385146 -0.11672793 -0.9028613 91 83 86
0.30283722 -0.11998641 -0.90579128 58 47 54
0.30317599 -0.12129293 -0.90470618 65 53 60
0.302939 -0.12251937 -0.90472335 63 52 57
0.30344832 -0.12298093 -0.90361285 71 58 65
0.30303082 -0.1193113 -0.90542495 65 55 60
0.30378613 -0.12247616 -0.9031083 77 63 71
0.30304047 -0.11923302 -0.90540195 66 56 61
0.30371156 -0.12136458 -0.90338051 80 68 73
0.3033641 -0.11992966 -0.90444517 74 64 68
0.30274913 -0.12584187 -0.90554857 102 90 76
0.30364552 -0.12533498 -0.90391827 76 66 69
0.30355582 -0.12671219 -0.90439051 99 87 80
0.30276507 -0.12469391 -0.9052543 85 73 66
0.30350316 -0.12690422 -0.90452409 103 91 82
0.30418625 -0.12577665 -0.90307879 78 68 74
0.30366975 -0.12428588 -0.90356982 73 61 67
0.30384237 -0.12494449 -0.90345651 74 64 70
0.30327296 -0.12872089 -0.90638715 107 95 82
0.30354869 -0.12900464 -0.90614301 100 89 80
0.30286089 -0.12727019 -0.90587938 116 103 84
0.30422169 -0.12739579 -0.90368682 88 78 80
0.30435395 -0.12780456 -0.90379924 85 75 79
0.30316216 -0.12799166 -0.90596348 109 97 82
0.30425727 -0.13020393 -0.90573877 85 76 78
0.30450335 -0.12798506 -0.90343869 84 75 80
0.30452034 -0.12754537 -0.90323079 82 73 80
0.30447355 -0.1286442 -0.90378445 86 77 82
0.30452654 -0.13040458 -0.90367341 96 89 90
0.30433011 -0.1336761 -0.90512824 82 74 81
0.30416405 -0.13418303 -0.9065854 68 57 62
0.30420583 -0.13370559 -0.90621728 73 64 68
0.30424449 -0.13181005 -0.90586996 86 78 81
0.30425629 -0.13387075 -0.90577614 76 67 73
0.30451465 -0.13250166 -0.90367031 95 89 95
0.3044326 -0.13226645 -0.90433496 93 86 91
0.30460542 -0.13397118 -0.90280694 97 92 102
0.3044852 -0.13269369 -0.90387964 94 88 94
0.30463794 -0.13177086 -0.90278614 101 95 99
0.30458105 -0.13322264 -0.90307623 97 92 99
0.30299878 -0.1386621 -0.90570116 64 51 53
0.30438137 -0.13806567 -0.90384519 77 70 77
0.30323392 -0.13753529 -0.90627331 63 50 52
0.30358586 -0.13669707 -0.90625602 64 52 56
0.30387732 -0.13710028 -0.90544415 68 58 63
0.30453861 -0.13850261 -0.90324765 80 74 82
0.30413857 -0.13812099 -0.90423721 74 66 73
0.30464691 -0.13750874 -0.90330553 82 77 86
0.30463615 -0.1367878 -0.90315068 85 81 90
0.30447683 -0.13542667 -0.90407616 83 76 85
0.30454743 -0.13522556 -0.90338832 89 84 94
0.30419302 -0.13495959 -0.90640116 66 55 60
0.30284756 -0.14063084 -0.90484411 66 60 62
0.30385575 -0.14203064 -0.90346783 79 78 84
0.30333713 -0.1406112 -0.90461648 71 65 68
0.30316111 -0.13889782 -0.90540594 66 55 57
0.30390608 -0.14091246 -0.90406007 77 73 78
0.30435485 -0.13960676 -0.90336746 80 75 83
0.30432785 -0.14115557 -0.90334016 82 80 87
0.30328467 -0.1390903 -0.90518934 68 57 60
0.30344662 -0.14632551 -0.90514469 96 90 97
0.30326393 -0.14500998 -0.9045139 86 83 88
0.30466318 -0.14609815 -0.90292335 85 84 89
0.30329964 -0.14605139 -0.90519762 95 89 96
0.30337101 -0.14456001 -0.90401113 81 79 84
0.30420625 -0.14556336 -0.90331447 84 82 87
0.30279717 -0.14557999 -0.90571105 94 88 95
0.30458659 -0.14274068 -0.90277046 87 89 97
0.30471596 -0.14437936 -0.90276647 86 87 94
0.303633 -0.14317948 -0.90325397 77 78 83
0.3039996 -0.15034631 -0.90350711 65 62 74
0.30377212 -0.14970674 -0.90400457 71 67 79
0.30385339 -0.15016811 -0.90368223 66 63 75
0.30366468 -0.14957835 -0.90413177 72 67 79
0.30310991 -0.14844301 -0.90508163 82 76 85
0.3048948 -0.14725798 -0.90305847 86 83 92
0.30522946 -0.14857708 -0.90292072 81 78 92
0.30419219 -0.14654726 -0.90401667 92 88 95
0.3035804 -0.14693987 -0.90517962 96 89 98
0.30394563 -0.1479432 -0.9048875 92 85 98
0.30403927 -0.1475876 -0.90461349 91 86 97
0.3042109 -0.15310012 -0.903234 68 62 72
0.30274364 -0.15194902 -0.90401858 53 51 56
0.30289128 -0.15382989 -0.90392333 51 49 52
0.30437416 -0.15323815 -0.90314662 69 63 74
0.30451965 -0.1509189 -0.90321696 68 64 79
0.30443069 -0.15110534 -0.90324461 68 64 78
0.30425113 -0.15242225 -0.90324199 68 63 74
0.30357116 -0.15148644 -0.90360034 63 59 68
0.30554894 -0.15816766 -0.90282559 71 66 78
0.30356857 -0.15801515 -0.90376443 48 45 51
0.3031736 -0.15631215 -0.90387934 48 46 49
0.30392015 -0.1565783 -0.90353441 56 53 59
0.30464289 -0.15447718 -0.90300989 70 64 74
0.30350134 -0.15479624 -0.90363812 56 53 58
0.30562031 -0.15778641 -0.90276515 73 68 80
0.30442819 -0.095433958 -0.90700227 74 65 68
0.30399457 -0.094799586 -0.9078927 65 53 59
0.30435315 -0.09529797 -0.90715677 72 63 66
0.30387354 -0.094762437 -0.90813917 64 50 58
0.30329457 -0.09905982 -0.9092555 68 55 68
0.30304796 -0.099166356 -0.90974742 70 59 71
0.30368182 -0.097975053 -0.90849996 63 38 63
0.30303213 -0.096925944 -0.90982038 66 33 69
0.30346411 -0.098819688 -0.90892035 66 50 66
0.30312708 -0.097326681 -0.90962285 66 37 68
0.3045136 -0.096382178 -0.90682143 74 64 68
0.30344439 -0.095970832 -0.90899551 69 39 70
0.30336016 -0.095897689 -0.90916699 69 37 71
0.3041707 -0.097114414 -0.90751463 68 50 65
0.30406272 -0.098270886 -0.90772855 62 40 60
0.30431995 -0.098986827 -0.90720266 61 42 56
0.30366537 -0.10270842 -0.90801668 64 52 53
0.30285963 -0.1019363 -0.90928751 61 49 50
0.30391011 -0.10298038 -0.90761572 64 53 53
0.30341393 -0.10109288 -0.90896279 71 63 68
0.30402806 -0.10237417 -0.90770841 68 59 62
0.30429107 -0.10016277 -0.90723604 63 51 57
0.30405512 -0.10135717 -0.90767926 67 56 61
0.3044481 -0.10230264 -0.90686893 65 54 57
0.30337593 -0.10052743 -0.90905982 70 63 68
0.30377135 -0.10147037 -0.90824473 69 60 64
0.30387518 -0.10409816 -0.90703839 64 52 49
0.30419722 -0.10395093 -0.90675622 66 55 53
0.3031857 -0.10583715 -0.90665227 69 59 47
0.29714024 -0.094464496 -0.88172942 93 92 93
0.29773057 -0.093877599 -0.88268131 97 91 93
0.29709697 -0.094185352 -0.88168716 91 90 90
0.29733664 -0.094898976 -0.88199246 97 95 99
0.2975091 -0.094324306 -0.88230491 96 93 95
0.29786712 -0.093219243 -0.88294601 95 88 88
0.29723984 -0.092574768 -0.88200057 87 83 77
0.29746827 -0.092537209 -0.8823874 88 83 78
0.29768932 -0.098979078 -0.88225603 113 105 128
0.29789954 -0.097651266 -0.88266164 112 104 123
0.29776418 -0.098924391 -0.88237697 114 105 129
0.29717287 -0.099036343 -0.88143945 105 98 123
0.29800093 -0.09887962 -0.88275242 118 108 131
0.29783356 -0.097995929 -0.88253832 112 104 124
0.29744595 -0.096857332 -0.88199335 103 97 113
0.29733047 -0.096420839 -0.88185388 101 98 110
0.29709837 -0.097215734 -0.88143212 99 95 111
0.29662362 -0.10249165 -0.88039005 111 97 127
0.29826373 -0.1026132 -0.88311106 126 129 138
0.29788417 -0.10115296 -0.88248628 122 114 136
0.29721218 -0.10349545 -0.88136321 117 113 130
0.29785457 -0.10038144 -0.88243973 121 109 136
0.29761124 -0.10090207 -0.88203424 119 107 134
0.29692516 -0.10022527 -0.88098389 106 97 125
0.29606947 -0.10323373 -0.87947363 106 90 123
0.29727763 -0.10046991 -0.88152581 112 102 130
0.29728183 -0.099943519 -0.88156086 110 101 128
0.29744855 -0.10035346 -0.88180125 114 104 131
0.29666653 -0.10222468 -0.88046855 111 97 127
0.2970376 -0.10686077 -0.88095528 122 118 133
0.29798293 -0.10475359 -0.88260812 126 130 136
0.29719481 -0.10728556 -0.88122392 122 119 134
0.29807895 -0.10697673 -0.88275653 126 127 138
0.29789686 -0.10614602 -0.88244802 126 127 137
0.29822704 -0.1038743 -0.88303757 127 133 137
0.29721871 -0.1070484 -0.88126725 123 119 134
0.29652074 -0.10595631 -0.88009661 118 111 129
0.29732972 -0.10488344 -0.88149142 122 121 133
0.29664299 -0.10372623 -0.88040841 112 103 127
0.296626 -0.10405616 -0.88036418 113 104 127
0.29683614 -0.1035631 -0.88073689 114 106 128
0.29686373 -0.10558925 -0.88068372 120 116 131
0.29878595 -0.11050346 -0.88296562 127 127 138
0.29811117 -0.10972095 -0.88227326 124 126 135
0.29789194 -0.11130571 -0.88154823 122 124 132
0.29821342 -0.10922012 -0.88254702 125 126 136
0.29795089 -0.11072949 -0.88178372 123 124 133
0.29780963 -0.1099973 -0.88179046 123 125 134
0.29800078 -0.10938619 -0.88221437 124 126 135
0.29622659 -0.10950998 -0.87940758 117 115 127
0.29701748 -0.10977858 -0.88075829 120 123 130
0.29698256 -0.10927857 -0.88073134 120 122 131
0.297086 -0.1092354 -0.8809132 121 122 131
0.29628554 -0.10793008 -0.87961525 118 112 129
0.29706591 -0.10759705 -0.88098806 122 118 133
0.29789796 -0.11216304 -0.88162369 118 118 128
0.29798174 -0.11389163 -0.88188887 111 107 120
0.29679042 -0.11156558 -0.8800723 117 120 126
0.29759717 -0.1119879 -0.88120121 118 119 128
0.29657894 -0.1115406 -0.87978387 116 120 125
0.29797292 -0.11419526 -0.88184565 110 106 120
0.2970278 -0.11424529 -0.88022763 108 104 120
0.29734874 -0.11376944 -0.88084376 110 107 121
0.29754621 -0.11479639 -0.8810311 107 101 119
0.2976515 -0.11449408 -0.88125443 108 103 119
0.29708943 -0.11284184 -0.88053662 112 112 122
0.29884222 -0.11486518 -0.88314784 110 103 119
0.29845744 -0.11583418 -0.88243014 107 99 115
0.29826933 -0.11619759 -0.88205481 107 98 114
0.29722607 -0.11558271 -0.88036942 105 97 117
0.29758203 -0.11685656 -0.88078433 104 95 111
0.2984429 -0.11578555 -0.88241267 107 99 115
0.29815674 -0.11712118 -0.88172394 106 95 109
0.29727206 -0.11795051 -0.88034219 108 98 108
0.29658353 -0.11872761 -0.8793813 112 102 108
0.29709831 -0.11848702 -0.8801055 110 100 107
0.29695556 -0.11814699 -0.87989777 109 100 109
0.29788747 -0.1179295 -0.88121265 106 95 106
0.29895699 -0.11695866 -0.88315398 106 97 108
0.2987465 -0.11920626 -0.88244283 106 93 100
0.29802963 -0.1198168 -0.88137436 108 97 102
0.29806983 -0.12089415 -0.8813355 108 97 102
0.29873633 -0.11956134 -0.88239694 106 93 100
0.29864797 -0.12111109 -0.88213426 106 95 101
0.29840052 -0.1193912 -0.88193691 107 95 101
0.2968896 -0.12165335 -0.87964219 108 100 103
0.29729706 -0.12271627 -0.88013297 105 99 102
0.29675853 -0.12261461 -0.87939894 105 100 102
0.2971859 -0.12221538 -0.88001287 106 99 102
0.29768977 -0.12172038 -0.88073838 108 99 103
0.2990216 -0.1215277 -0.88272506 104 94 99
0.29889548 -0.12051866 -0.88257515 105 93 99
0.29777035 -0.12460838 -0.88072312 107 99 105
0.29854879 -0.12381107 -0.88181376 106 97 102
0.29788953 -0.12324864 -0.88092113 105 97 101
0.29864478 -0.12513235 -0.88191265 108 98 105
0.29848936 -0.12445541 -0.88171589 107 98 104
0.29697317 -0.12439814 -0.87962925 103 97 103
0.29679486 -0.12413831 -0.8793903 103 97 102
0.29815316 -0.12669311 -0.88119423 106 97 107
0.29673266 -0.12381373 -0.87931353 103 98 102
0.29700676 -0.12361117 -0.87969786 105 99 103
0.29893294 -0.12648377 -0.88233262 109 99 108
0.29888865 -0.12526827 -0.88227242 108 98 106
0.29899815 -0.1247388 -0.8824864 106 97 104
0.29844531 -0.13005053 -0.88151586 108 106 116
0.29851383 -0.12998845 -0.88161194 108 106 116
0.29830199 -0.12855947 -0.88135374 107 101 112
0.29844204 -0.12775125 -0.88156664 108 100 110
0.29826322 -0.12961602 -0.88127482 107 104 115
0.29675055 -0.12919419 -0.87931752 94 89 105
0.29752955 -0.12880133 -0.88030344 101 97 110
0.29764807 -0.12966165 -0.88047999 102 98 111
0.29712874 -0.12944642 -0.87980896 97 93 108
0.2974751 -0.12951107 -0.88025427 100 96 110
0.29942551 -0.13067901 -0.88305682 108 107 117
0.29918781 -0.12827614 -0.88282669 108 102 111
0.29894739 -0.12806404 -0.88233924 110 102 112
0.29894581 -0.12735535 -0.88235313 110 100 110
0.29873389 -0.13344847 -0.88164872 106 107 121
0.29799867 -0.13213244 -0.88083756 102 101 115
0.29775369 -0.13199453 -0.88053757 100 98 114
0.29772788 -0.13167545 -0.88053608 100 98 113
0.29832259 -0.13312899 -0.88115376 103 103 118
0.29692593 -0.13191533 -0.87942606 93 88 107
0.2971352 -0.13307825 -0.87950605 92 87 107
0.29788813 -0.13308822 -0.88059735 100 99 115
0.29779598 -0.13430604 -0.88022912 96 93 112
0.29947135 -0.13148738 -0.88310283 107 107 118
0.2994135 -0.13167061 -0.88296878 107 107 118
0.29942131 -0.13174526 -0.88298905 107 107 119
0.29899183 -0.13259083 -0.88213319 108 108 120
0.29896563 -0.13298227 -0.88204986 107 108 121
0.29842398 -0.13593155 -0.88093686 99 96 117
0.29870346 -0.13528782 -0.88140643 103 103 121
0.29857844 -0.13681884 -0.8810733 99 95 118
0.2987141 -0.13836248 -0.88111728 97 90 119
0.29753804 -0.13676743 -0.87952858 91 83 107
0.29870829 -0.13863234 -0.88107407 97 90 118
0.29750323 -0.13633943 -0.8795315 91 83 107
0.29936054 -0.13586369 -0.8827973 99 100 121
0.29957679 -0.13847426 -0.88302672 92 87 116
0.29943597 -0.1373135 -0.88282013 96 93 118
0.29892555 -0.13683514 -0.88166648 101 98 121
0.29906431 -0.13666256 -0.88201445 100 98 121
0.29764271 -0.13889657 -0.87941754 91 83 105
0.29788315 -0.13899417 -0.87977612 92 84 107
0.29870296 -0.14128025 -0.88081366 90 86 109
0.29809201 -0.1406696 -0.87993473 89 83 105
0.29780072 -0.14050558 -0.87949997 89 83 103
0.29792729 -0.14184895 -0.87956023 87 83 102
0.29947168 -0.14202566 -0.88239068 87 82 106
0.29911366 -0.14225195 -0.88156086 87 84 107
0.29977793 -0.14241688 -0.88303292 86 80 104
0.29973039 -0.14178923 -0.8829987 87 81 106
0.29891405 -0.13923219 -0.88140041 95 89 117
0.29912212 -0.13988526 -0.88182592 92 87 114
0.29906037 -0.13927765 -0.8817389 94 88 116
0.29854313 -0.14277934 -0.88041973 86 83 104
0.29880872 -0.14413372 -0.88069087 83 80 102
0.29838541 -0.14356165 -0.88009429 84 81 100
0.29863915 -0.14641628 -0.88022608 77 72 93
0.29807758 -0.14604375 -0.87948853 76 69 90
0.29939002 -0.1446752 -0.88189662 81 76 99
0.29985097 -0.1461985 -0.88246727 80 74 95
0.29956448 -0.14460629 -0.88224006 82 76 99
0.29981291 -0.14376487 -0.88287586 84 78 101
0.29908705 -0.14476873 -0.88123631 81 77 99
0.29925713 -0.14367943 -0.88173103 84 79 102
0.29883081 -0.14261566 -0.88088441 87 84 106
0.29862294 -0.14892222 -0.87989748 75 70 92
0.29857627 -0.14700876 -0.88007259 76 71 92
0.2986156 -0.14962956 -0.8797906 75 70 92
0.30012968 -0.14746761 -0.88291883 79 74 93
0.29915273 -0.14966126 -0.88072133 76 72 93
0.29938766 -0.14986429 -0.88128418 76 72 93
0.29987186 -0.14979033 -0.88242084 76 73 92
0.29983896 -0.14922234 -0.88231671 77 73 92
0.29888397 -0.14691159 -0.88052964 77 72 94
0.29921579 -0.14801595 -0.88101953 78 73 94
0.29890174 -0.14765307 -0.88047093 77 72 94
0.29889888 -0.14929341 -0.88026154 76 72 94
0.29965448 -0.14700131 -0.88197505 79 74 94
0.29902473 -0.15148884 -0.88010061 69 68 91
0.29953003 -0.15121803 -0.8813777 70 69 90
0.29943815 -0.15163547 -0.88102818 68 67 89
0.2991344 -0.15274379 -0.87997115 61 63 87
0.29924807 -0.15303826 -0.8801555 60 62 86
0.29965422 -0.1542356 -0.88055354 55 57 84
0.30004755 -0.15304202 -0.88183445 62 62 86
0.30057809 -0.15258083 -0.88309598 66 63 87
0.30035341 -0.1522423 -0.88277835 67 65 88
0.29947442 -0.15410827 -0.8802411 55 58 84
0.30041814 -0.15187199 -0.8830598 69 66 88
0.30118886 -0.1578103 -0.88294697 53 52 77
0.30117914 -0.15653318 -0.88317913 56 54 80
0.29974732 -0.15772803 -0.88001519 44 35 69
0.30108592 -0.1565143 -0.88299221 55 53 79
0.30051604 -0.15593427 -0.88194132 53 47 78
0.30032927 -0.15813324 -0.88112527 47 41 71
0.30002829 -0.15461339 -0.88122112 55 54 83
0.29945552 -0.15782127 -0.87940276 43 33 68
0.29999873 -0.15509257 -0.88106287 53 51 80
0.29997844 -0.15495633 -0.88104975 54 52 81
0.29980755 -0.1545898 -0.88077897 54 55 83
0.29941025 -0.15677218 -0.8795265 46 40 73
0.30100471 -0.16128749 -0.88207251 48 50 66
0.30034423 -0.16209236 -0.88059479 42 42 58
0.30039293 -0.16151272 -0.88077289 43 42 60
0.30077121 -0.16064978 -0.88167262 47 47 65
0.30056226 -0.16024105 -0.8812933 46 44 65
0.30120644 -0.15947308 -0.88273221 51 52 72
0.299898 -0.1607482 -0.87985909 41 36 59
0.29985726 -0.16047862 -0.87981504 41 35 60
0.29975286 -0.15922299 -0.87978429 42 34 64
0.29978791 -0.16081923 -0.87962365 40 34 58
0.29971877 -0.1583878 -0.8798362 43 34 67
0.30005923 -0.15881193 -0.88047063 45 38 67
0.30206856 -0.16498466 -0.88319772 50 58 72
0.30086923 -0.165344 -0.88100505 43 42 56
0.30129814 -0.16468494 -0.88194019 46 49 62
0.30097568 -0.16454501 -0.88141799 45 45 58
0.3006424 -0.16476376 -0.88077486 42 40 54
0.30138928 -0.16354364 -0.88242388 48 53 65
0.30125117 -0.16395308 -0.88206667 47 50 62
0.30031586 -0.16518971 -0.88007712 40 35 49
0.30019972 -0.16300845 -0.88015938 41 38 54
0.30001044 -0.16443096 -0.8795557 39 32 49
0.29982695 -0.16211691 -0.87951779 39 35 53
0.30026191 -0.16347131 -0.88021988 41 38 53
0.30106682 -0.16222453 -0.88207513 47 51 64
0.30214012 -0.16941726 -0.88230592 46 52 68
0.30226296 -0.16696578 -0.8830269 49 57 72
0.3019399 -0.1680253 -0.88232046 47 53 68
0.30229402 -0.16672441 -0.8831256 50 58 73
0.30084249 -0.168956 -0.88050997 41 42 56
0.30111197 -0.16966727 -0.88074702 41 43 58
0.30024767 -0.16759235 -0.87961787 38 33 48
0.30174148 -0.16612552 -0.8823263 48 52 67
0.30097517 -0.1680266 -0.8808549 42 44 58
0.30168596 -0.16685829 -0.88217717 47 52 67
0.30133405 -0.16766126 -0.8815065 44 48 63
0.30020759 -0.1689257 -0.87945276 37 34 49
0.30244231 -0.17297511 -0.88240659 49 52 76
0.30261043 -0.17028821 -0.88285476 47 55 72
0.30150616 -0.17142817 -0.88115394 43 45 64
0.30061385 -0.17026095 -0.8799367 39 38 53
0.30200207 -0.17196739 -0.88183862 46 49 70
0.30228466 -0.17131096 -0.88230127 47 52 71
0.30193806 -0.17289566 -0.88164121 47 48 71
0.30158505 -0.1721575 -0.88120544 44 45 66
0.30102584 -0.17166273 -0.88038129 42 42 60
0.30118215 -0.17380045 -0.88021487 45 47 64
0.30060944 -0.17267089 -0.87949443 42 42 57
0.30276191 -0.17307343 -0.88289171 50 54 79
0.30125287 -0.17485164 -0.88024324 48 50 67
0.30259699 -0.17411838 -0.88251954 51 54 80
0.30131787 -0.17533281 -0.88029802 49 51 68
0.30116212 -0.17525691 -0.88003451 48 49 66
0.30118093 -0.17758457 -0.87974042 52 52 69
0.30115962 -0.17606328 -0.87991679 50 50 67
0.30289289 -0.17433906 -0.88311559 52 54 80
0.30290261 -0.17401224 -0.88316524 51 53 80
0.30295169 -0.091536246 -0.89351332 124 121 111
0.30316815 -0.09129826 -0.89400148 120 115 109
0.30345079 -0.090976484 -0.8946377 116 108 106
0.30291191 -0.090718977 -0.89332229 119 115 103
0.30285144 -0.091289371 -0.89324427 124 121 108
0.30268112 -0.094764672 -0.89285004 135 130 137
0.30265805 -0.093071625 -0.89282721 130 128 122
0.30247527 -0.092609316 -0.89241439 127 126 116
0.30223203 -0.095114186 -0.89199877 131 130 135
0.30236366 -0.095322244 -0.89225471 132 131 139
0.30185199 -0.094566442 -0.89126486 125 129 127
0.30349523 -0.094342798 -0.89459062 127 115 129
0.3033157 -0.093297504 -0.8943482 126 117 125
0.30304307 -0.09429013 -0.89370942 131 124 134
0.30330583 -0.092060357 -0.89438653 122 116 116
0.3031573 -0.093146153 -0.89401215 127 120 125
0.30278233 -0.093035229 -0.89311832 130 127 123
0.30207795 -0.097168446 -0.89157259 131 134 140
0.30229098 -0.097555086 -0.89189982 134 135 142
0.30229256 -0.096947901 -0.89198828 134 134 142
0.30227259 -0.097959131 -0.89180785 134 135 142
0.30227169 -0.099009827 -0.89152122 136 132 143
0.30333287 -0.097613811 -0.89390117 133 124 139
0.30367413 -0.098628893 -0.894714 129 126 135
0.30364758 -0.09905269 -0.89464128 130 129 135
0.30295709 -0.098780081 -0.89296329 138 132 143
0.30274862 -0.098290652 -0.89261866 139 135 145
0.30305737 -0.096499979 -0.89347678 135 126 142
0.30300486 -0.097826429 -0.89318669 137 129 143
0.30245772 -0.099905543 -0.89179748 138 133 144
0.30263555 -0.10091282 -0.89226055 139 135 145
0.30219477 -0.10032583 -0.89123851 136 129 143
0.30239421 -0.10320863 -0.8919313 134 132 142
0.30240995 -0.10282648 -0.89192367 135 132 142
0.30350327 -0.1025386 -0.89440429 131 131 137
0.30319378 -0.10313892 -0.89370179 133 133 140
0.30365923 -0.1027569 -0.89477569 130 130 136
0.30342278 -0.1025653 -0.89421731 131 132 138
0.30340448 -0.10003329 -0.89406407 132 133 137
0.30303904 -0.10168266 -0.89327335 135 134 141
0.30306211 -0.10217024 -0.89335918 134 134 140
0.30303863 -0.10234822 -0.89331275 134 134 141
0.30208191 -0.10378003 -0.89132893 131 128 139
0.30270892 -0.10529717 -0.8925212 134 134 140
0.30197954 -0.10420208 -0.89110303 131 128 138
0.30226421 -0.10608642 -0.89159107 131 131 136
0.30299023 -0.10722977 -0.89309639 129 130 134
0.30356687 -0.10673259 -0.89446783 124 124 130
0.30286366 -0.10739306 -0.89279336 130 132 135
0.30285057 -0.10594144 -0.89281815 133 134 138
0.30292919 -0.10467742 -0.89305133 134 134 140
0.30278549 -0.10396612 -0.89274359 136 135 142
0.303002 -0.10502073 -0.89320779 133 133 139
0.30252719 -0.10857462 -0.89187723 126 127 132
0.30240589 -0.10790848 -0.89173514 129 131 134
0.30220738 -0.10937312 -0.89110953 123 123 130
0.30371347 -0.10848173 -0.89466566 117 115 123
0.30348563 -0.11084028 -0.89383882 109 105 117
0.30327836 -0.1100573 -0.89338696 114 111 123
0.30378398 -0.10821687 -0.89487392 117 115 123
0.30316272 -0.1088145 -0.89327008 121 120 128
0.30289027 -0.10807016 -0.8927505 127 128 133
0.30273935 -0.11067636 -0.89197659 117 114 127
0.30294511 -0.1092355 -0.89269143 121 120 129
0.30235061 -0.11151697 -0.89110154 115 110 126
0.30241537 -0.11336131 -0.8910929 111 104 117
0.30358899 -0.11521365 -0.89442998 102 92 99
0.30336437 -0.11368053 -0.89345002 104 97 106
0.30293602 -0.11499386 -0.89225352 106 97 105
0.30375683 -0.11480331 -0.89491546 102 92 99
0.30308226 -0.11380578 -0.89260721 106 99 108
0.30302244 -0.11161955 -0.89258248 111 107 120
0.30324781 -0.11299528 -0.89308006 106 100 110
0.3029784 -0.1141381 -0.89232105 106 99 108
0.30289385 -0.11215973 -0.89222044 111 106 119
0.30258232 -0.11591336 -0.89129359 107 97 105
0.30256405 -0.11825801 -0.89128327 106 95 100
0.30378312 -0.11708203 -0.89457971 101 91 96
0.30361977 -0.11880157 -0.89377642 102 92 96
0.30343494 -0.11875978 -0.89335024 103 92 96
0.30361965 -0.11781413 -0.89401597 102 92 96
0.30319661 -0.11575542 -0.89314288 104 94 101
0.30293614 -0.11668936 -0.89228231 105 95 101
0.30315146 -0.11540933 -0.89299703 104 95 102
0.30304569 -0.11790348 -0.89263356 105 93 98
0.30313614 -0.11572482 -0.89294475 104 95 102
0.30269805 -0.12223999 -0.89107651 109 97 106
0.30338442 -0.12251666 -0.89268839 105 96 103
0.30375645 -0.12029315 -0.893848 102 93 98
0.30397651 -0.12303304 -0.89410156 102 95 100
0.30338344 -0.12271024 -0.89266533 105 96 104
0.30387202 -0.12187363 -0.89396608 102 94 99
0.30372527 -0.12230719 -0.893556 103 95 101
0.30300599 -0.12189343 -0.89183354 107 96 105
0.30362675 -0.11992992 -0.89359248 103 92 98
0.30288374 -0.12060289 -0.89173794 107 95 101
0.30273452 -0.11925253 -0.89158756 107 94 98
0.30331397 -0.1214071 -0.89263332 105 95 103
0.30364007 -0.12563792 -0.89343679 109 104 110
0.30418655 -0.12522431 -0.89460307 105 100 105
0.3037194 -0.12591679 -0.89359635 110 104 110
0.30371851 -0.12517354 -0.89361578 108 102 108
0.3043355 -0.12674917 -0.8948741 108 103 110
0.30344 -0.12426679 -0.89291519 108 101 107
0.30290684 -0.1246023 -0.89163321 112 103 111
0.30395249 -0.12376954 -0.89412659 103 98 102
0.30329615 -0.12403156 -0.89253044 108 100 107
0.30311447 -0.12475529 -0.89216626 111 103 110
0.30304551 -0.125563 -0.89209163 113 106 113
0.30268967 -0.1286784 -0.89145374 119 114 121
0.30244672 -0.12879874 -0.89104807 117 112 120
0.30363253 -0.12995134 -0.8933422 114 112 120
0.30375764 -0.12934665 -0.89361966 113 111 118
0.30353326 -0.12981355 -0.89316458 114 113 120
0.30356494 -0.13025343 -0.8931939 114 113 121
0.30353445 -0.1302503 -0.89313668 114 113 121
0.30349612 -0.1292215 -0.89313549 115 112 119
0.30384922 -0.12756443 -0.8938567 112 107 114
0.30315346 -0.12923062 -0.89243001 117 114 121
0.30344558 -0.12768951 -0.89300728 114 109 116
0.30294064 -0.13027845 -0.89200753 119 116 123
0.3030754 -0.1276333 -0.89222383 116 111 118
0.30251798 -0.13139358 -0.89115971 118 115 124
0.30303311 -0.13431467 -0.89172024 113 108 127
0.30333692 -0.13471285 -0.89227146 111 108 126
0.30403695 -0.13288206 -0.89381367 108 108 122
0.30442181 -0.13155924 -0.8946929 107 109 120
0.30419853 -0.13320288 -0.89409602 107 108 121
0.3044486 -0.13419482 -0.89448404 105 106 121
0.30342111 -0.13121167 -0.89283663 115 114 123
0.30308226 -0.13113828 -0.89220726 117 116 125
0.30375031 -0.13143937 -0.89342844 112 112 123
0.30288169 -0.13179967 -0.89174592 118 115 126
0.30310968 -0.13342455 -0.89197099 114 110 126
0.30311039 -0.13704456 -0.89103055 107 104 121
0.30361521 -0.13601375 -0.89237291 106 105 121
0.30357251 -0.13526766 -0.89255333 108 107 124
0.30422252 -0.13484861 -0.89396137 106 106 122
0.30415985 -0.13537847 -0.89365298 105 105 120
0.30343494 -0.13515848 -0.8923251 109 107 125
0.30410361 -0.13751562 -0.89300191 101 101 116
0.3047021 -0.13762552 -0.89454603 99 99 115
0.30441883 -0.13862517 -0.89367777 98 98 113
0.30387595 -0.13829717 -0.89230698 101 100 115
0.30420986 -0.13779713 -0.89324182 100 100 115
0.30442485 -0.13568497 -0.8940776 103 104 118
0.30491421 -0.14183593 -0.89440602 91 90 104
0.30493009 -0.1403206 -0.89471871 93 93 108
0.30480927 -0.14078265 -0.89429528 92 92 107
0.30464068 -0.14194264 -0.89361352 90 89 103
0.30473191 -0.14078158 -0.89407665 92 92 107
0.30435455 -0.13891613 -0.89344525 98 97 112
0.30387914 -0.1414707 -0.89158899 91 90 105
0.30352071 -0.13910152 -0.89122903 100 99 113
0.30365548 -0.14134403 -0.89103729 92 91 106
0.30374283 -0.14114821 -0.89131212 92 91 106
0.30449176 -0.13935857 -0.89369535 96 95 111
0.30529273 -0.14563535 -0.89473939 89 85 101
0.30498734 -0.14392015 -0.8942098 89 88 101
0.30505642 -0.14442666 -0.89430594 89 87 101
0.30492079 -0.14529425 -0.89374548 89 86 101
0.30463299 -0.14615579 -0.89275187 89 86 101
0.30441344 -0.14307648 -0.89275533 89 88 101
0.30426717 -0.14366937 -0.89221883 89 87 101
0.30480483 -0.14325018 -0.89382637 89 88 101
0.30451131 -0.14349665 -0.89294505 89 88 101
0.30417338 -0.14304087 -0.89208376 88 87 101
0.30415016 -0.14443639 -0.891729 89 87 101
0.30492082 -0.14978956 -0.89285785 78 80 100
0.305502 -0.149949 -0.89465505 79 80 102
0.30522186 -0.14932875 -0.89387286 80 81 101
0.30489752 -0.15012778 -0.89273238 77 80 100
0.30549452 -0.15034917 -0.89456964 78 80 102
0.30439204 -0.14907514 -0.89140177 80 82 99
0.30437112 -0.14865336 -0.89143914 82 83 99
0.30417556 -0.1472909 -0.8911944 87 86 100
