ply
format ascii 1.0
comment PCL generated
element vertex 807
property float x
property float y
property float z
property uchar red
property uchar green
property uchar blue
element camera 1
property float view_px
property float view_py
property float view_pz
property float x_axisx
property float x_axisy
property float x_axisz
property float y_axisx
property float y_axisy
property float y_axisz
property float z_axisx
property float z_axisy
property float z_axisz
property float focal
property float scalex
property float scaley
property float centerx
property float centery
property int viewportx
property int viewporty
property float k1
property float k2
end_header
0.10731781 0.33530074 -0.83812505 96 91 111
0.10718345 0.33583179 -0.83769625 94 87 108
0.1068315 0.334483 -0.83673531 95 94 111
0.10689151 0.33556715 -0.83684641 93 87 106
0.1069345 0.33614972 -0.8369391 91 83 104
0.10768112 0.33437687 -0.8395977 100 97 117
0.10771228 0.3356159 -0.83946925 99 93 114
0.10772796 0.33679724 -0.83934134 96 86 110
0.10744589 0.33536306 -0.83848113 97 91 112
0.10779943 0.33786583 -0.83946079 94 80 106
0.10723244 0.33214554 -0.83812612 110 107 129
0.10738403 0.33183008 -0.83861345 112 109 132
0.10709148 0.33207795 -0.83769751 109 106 128
0.10705338 0.33274394 -0.83753514 105 103 123
0.10672909 0.33268428 -0.83660287 98 95 114
0.10658071 0.33103263 -0.8363952 94 86 109
0.10675527 0.33253521 -0.836694 99 96 115
0.10677177 0.33114779 -0.83691138 100 93 117
0.10776426 0.33059728 -0.84014112 129 124 151
0.10767475 0.33340338 -0.83969271 104 101 122
0.10752404 0.3316839 -0.83917177 113 109 133
0.10758392 0.33192182 -0.83940893 112 107 132
0.10690687 0.32916445 -0.83736056 102 94 119
0.10732675 0.32871568 -0.8384977 114 108 135
0.10729782 0.33006895 -0.83850366 118 111 139
0.10706998 0.32718548 -0.83769858 104 99 122
0.10707269 0.32711136 -0.83770275 104 99 122
0.10656165 0.32806697 -0.83637291 100 92 115
0.10772408 0.32723412 -0.83973086 115 112 136
0.10765043 0.32812548 -0.83957547 121 118 143
0.10760391 0.32870358 -0.83945543 124 119 145
0.10757919 0.32856914 -0.83935255 122 118 144
0.10730477 0.32354301 -0.83849865 99 90 116
0.10738637 0.32523948 -0.83857995 105 100 124
0.10739626 0.32363862 -0.838736 99 91 117
0.10672904 0.32276753 -0.83692628 96 88 116
0.10655148 0.32324514 -0.83640021 98 91 118
0.10680965 0.32260564 -0.83716255 96 87 115
0.1076911 0.32412124 -0.83965713 100 94 118
0.10759132 0.32337299 -0.8393839 98 90 115
0.10743829 0.32425287 -0.83881021 102 95 120
0.10748057 0.32570264 -0.83883566 107 103 126
0.10722227 0.3222259 -0.83833587 95 84 112
0.10712479 0.32032466 -0.83742613 95 86 111
0.10704754 0.32198697 -0.83776045 95 85 113
0.10697147 0.32213423 -0.83759362 95 86 113
0.10689984 0.32004824 -0.83675724 96 87 112
0.10692478 0.35089195 -0.84498864 79 67 86
0.10448502 0.35004815 -0.84698319 65 57 75
0.10646883 0.35084218 -0.84535861 76 65 84
0.10413308 0.35007423 -0.84726715 63 55 74
0.10451317 0.35126594 -0.84681505 67 58 78
0.10753787 0.35037121 -0.84452945 85 72 91
0.10797089 0.35210168 -0.84418827 85 75 95
0.10347914 0.3473739 -0.84750104 64 58 76
0.10691666 0.34666675 -0.84516287 133 124 147
0.10569578 0.34609461 -0.84587103 114 107 129
0.10544934 0.34621316 -0.84599227 106 98 119
0.10381034 0.34572896 -0.84691668 74 69 88
0.10482837 0.34645092 -0.84630346 85 78 97
0.10583837 0.34794948 -0.8456226 80 70 89
0.1048264 0.34714997 -0.84627688 74 66 84
0.10686465 0.34934437 -0.8450222 83 70 89
0.10360888 0.34681153 -0.84720081 66 60 78
0.10390557 0.34733573 -0.84705496 67 61 79
0.10517694 0.34776488 -0.84610373 75 66 84
0.10429682 0.34712222 -0.84670019 70 63 81
0.10461044 0.34937903 -0.84685159 68 59 78
0.10784625 0.34946641 -0.84437358 92 79 99
0.10820601 0.34888342 -0.84420311 104 92 115
0.10499786 0.34198573 -0.84802306 93 87 106
0.10458349 0.34354177 -0.84740114 86 80 99
0.10528853 0.34092832 -0.84765798 97 90 109
0.10505722 0.34115556 -0.84795207 93 86 105
0.10439114 0.33792481 -0.84802371 78 68 84
0.10493553 0.33515316 -0.84792191 93 85 104
0.10519234 0.33637843 -0.84749067 97 88 108
0.10468962 0.33756664 -0.84778643 85 75 92
0.10521671 0.33493364 -0.84768844 99 92 112
0.10488515 0.33727413 -0.84764546 89 80 98
0.10659575 0.33472192 -0.84639031 111 104 126
0.10597113 0.33483779 -0.84697849 108 101 123
0.10571002 0.33441076 -0.84729165 104 96 117
0.10718364 0.33504692 -0.84577531 117 110 133
0.10810619 0.33460388 -0.84444147 107 102 123
0.10778499 0.33575881 -0.84482533 119 114 137
0.10686924 0.33314285 -0.84661859 104 97 119
0.10678381 0.33221298 -0.84713078 100 94 115
0.10704223 0.33242157 -0.84678429 102 96 118
0.10719006 0.33377826 -0.84601456 108 101 123
0.10588428 0.333967 -0.84719121 102 94 115
0.10740441 0.33362836 -0.84586918 109 102 124
0.10743856 0.33133015 -0.84679562 103 99 120
0.10849129 0.33028218 -0.84443903 118 114 137
0.10793474 0.33083645 -0.84568477 110 106 128
0.10834694 0.33085522 -0.84457695 117 113 136
0.10777002 0.33115849 -0.84598535 108 104 126
0.10808506 0.33347449 -0.84463233 106 100 122
0.10834926 0.33364046 -0.84416026 102 97 118
0.10830716 0.33206886 -0.84443903 112 107 129
0.10893507 0.32694077 -0.84803933 104 100 124
0.10830855 0.32887042 -0.84691429 106 103 125
0.10838908 0.32846665 -0.84733462 105 101 124
0.10836507 0.3298088 -0.84528726 113 110 133
0.10838569 0.32888651 -0.8466832 107 104 127
0.10847735 0.32895085 -0.84633732 109 106 129
0.10903481 0.3276774 -0.84577847 114 111 135
0.10876527 0.32945892 -0.84473586 118 115 138
0.10885689 0.32778445 -0.84465951 117 114 139
0.10883777 0.32859609 -0.84486169 117 114 138
0.10879099 0.32893875 -0.84469426 118 115 138
0.11023315 0.3223314 -0.84725493 112 109 131
0.10977972 0.32458442 -0.84768283 109 106 129
0.10990961 0.32254997 -0.84611088 112 108 129
0.10956899 0.32424936 -0.84643948 110 105 128
0.11000224 0.32361224 -0.84761214 111 107 130
0.10925967 0.32572466 -0.84616321 112 108 134
0.10945596 0.32336488 -0.84492773 111 107 129
0.10907328 0.32540596 -0.84460574 115 112 138
0.10927485 0.32609934 -0.8466621 111 108 133
0.10944086 0.3251946 -0.84678119 109 105 129
0.10931816 0.32424602 -0.84496772 112 109 132
0.11050119 0.3191863 -0.84674078 105 102 122
0.11073929 0.31884265 -0.84777814 102 99 119
0.11028798 0.31868637 -0.8453815 106 103 123
0.11023981 0.31888509 -0.84524047 106 103 124
0.11035861 0.32074967 -0.84684265 110 107 128
0.11030404 0.31996962 -0.84614736 108 105 126
0.10976354 0.32182169 -0.84492254 111 107 128
0.11034011 0.32202321 -0.84749138 112 109 131
0.10993929 0.32161257 -0.84553975 111 107 128
0.10989346 0.32046443 -0.84464115 109 106 126
0.1101706 0.32065603 -0.84593403 110 107 128
0.11081973 0.31559342 -0.84725207 97 95 116
0.11047065 0.31705743 -0.84677732 99 98 116
0.11070649 0.31727466 -0.84742069 99 97 116
0.11081417 0.31454834 -0.8469587 95 95 116
0.11066062 0.31610405 -0.8469938 98 97 116
0.11014788 0.31474689 -0.84535837 97 98 116
0.10974626 0.31490746 -0.84420139 98 100 117
0.11021353 0.31700629 -0.84551954 101 100 119
0.11024506 0.31736678 -0.84549624 102 100 119
0.11027743 0.31710857 -0.84579468 101 100 118
0.11004893 0.3174966 -0.84442431 104 102 121
0.11026393 0.31713027 -0.84571433 101 100 118
0.11103578 0.31359449 -0.84730238 93 90 112
0.10982516 0.31339827 -0.84425843 95 95 112
0.10980336 0.31324598 -0.84417248 94 94 111
0.11069409 0.3132377 -0.84638119 93 90 110
0.11049073 0.3140628 -0.84604901 95 94 114
0.10015441 0.37968469 -0.91306263 34 23 27
0.10038283 0.37997377 -0.91346931 33 22 26
0.10042717 0.37972036 -0.91330385 33 22 26
0.10063263 0.38019693 -0.91425663 33 23 26
0.10040816 0.37949747 -0.91329259 34 23 27
0.10036834 0.37861702 -0.91381562 41 28 27
0.10044305 0.37966564 -0.91338789 34 23 26
0.10044327 0.37851268 -0.91444749 43 31 27
0.10055457 0.38005739 -0.91382629 33 22 26
0.10532642 0.33337313 -0.83231324 82 76 91
0.10443248 0.32689506 -0.83089489 87 78 96
0.1044597 0.32770479 -0.83077967 88 79 96
0.10448048 0.32631984 -0.83115214 88 80 98
0.10459826 0.32693046 -0.8313185 92 83 101
0.10480864 0.32639769 -0.83198893 97 88 107
0.10498543 0.32687107 -0.83236045 97 88 107
0.10447698 0.32565755 -0.83120823 90 81 99
0.10446193 0.32523745 -0.83119446 91 81 99
0.10464744 0.31107309 -0.83066851 83 73 93
0.10407425 0.31082967 -0.82961094 78 68 89
0.10453556 0.31074777 -0.83043194 84 74 94
0.1046708 0.31003299 -0.83064443 84 73 93
0.10465521 0.30961639 -0.83060908 82 71 90
0.10506923 0.3097735 -0.83135659 88 76 95
0.10353711 0.345824 -0.85727942 69 57 76
0.10353563 0.3454251 -0.85756105 71 58 77
0.10370922 0.34402463 -0.85669857 73 62 80
0.10361294 0.34562448 -0.85653609 67 57 74
0.10372292 0.3410306 -0.85612792 75 66 81
0.10352692 0.34165415 -0.85647792 70 59 75
0.10412712 0.33417109 -0.85788989 76 69 84
0.10387633 0.33445895 -0.85821754 75 68 83
0.10379855 0.33520171 -0.85778177 76 70 84
0.10370367 0.33457994 -0.85850656 74 67 83
0.10450145 0.3342025 -0.85702169 79 72 86
0.10355993 0.33696043 -0.85687238 76 72 86
0.10424185 0.33146802 -0.85952675 69 64 79
0.10479762 0.33323765 -0.85705137 79 72 86
0.104395 0.33147225 -0.8591792 70 65 80
0.10457642 0.330432 -0.85949081 69 64 78
0.10422861 0.33170986 -0.85938919 70 65 79
0.10489399 0.33157742 -0.85682267 77 71 86
0.10471074 0.33110207 -0.85865569 72 67 81
0.10467593 0.33078173 -0.85887194 71 66 80
0.10471587 0.330378 -0.85818148 72 67 82
0.1047157 0.33079484 -0.85842246 72 67 81
0.10487548 0.32883808 -0.85874814 67 63 76
0.1054338 0.32666016 -0.85819024 67 62 74
0.10529847 0.3271654 -0.85756367 67 62 74
0.10541175 0.32677552 -0.85919976 67 61 75
0.10554253 0.32618517 -0.85637134 67 62 73
0.10528656 0.32747793 -0.85633922 69 64 76
0.10491262 0.32984757 -0.85618168 75 69 86
0.10505308 0.32818562 -0.85769182 68 63 76
0.10510913 0.32861796 -0.85623503 72 67 81
0.10499966 0.32839668 -0.8579089 68 63 76
0.10502447 0.32832092 -0.85776627 68 63 76
0.10569731 0.32485029 -0.85912544 66 60 74
0.10562889 0.32547617 -0.85968041 66 60 74
0.1058606 0.32308626 -0.85838008 66 60 73
0.10587447 0.32340792 -0.85730654 68 60 75
0.1058877 0.32301223 -0.85778773 67 60 73
0.10571073 0.324826 -0.85660678 68 61 74
0.10573867 0.32467487 -0.85786057 67 61 75
0.10569514 0.32494178 -0.85640097 68 62 74
0.10574546 0.32452798 -0.85642862 68 61 74
0.10564471 0.32544589 -0.85778427 67 61 74
0.10617784 0.31894895 -0.85965633 61 55 68
0.10621542 0.31891334 -0.85811394 65 59 71
0.10622648 0.31896794 -0.85739428 67 61 73
0.10609068 0.32025424 -0.85824418 66 60 72
0.10615681 0.31971446 -0.85747713 67 62 73
0.10620318 0.31865111 -0.85973352 61 55 68
0.10622287 0.31948745 -0.85603058 69 63 75
0.10617291 0.31978595 -0.85677767 68 63 74
0.10607642 0.32100224 -0.85685498 68 61 74
0.10601953 0.32210779 -0.85607082 68 61 75
0.10598 0.32161775 -0.85821265 66 60 72
0.1060315 0.32115236 -0.85777926 67 61 73
0.10666735 0.31527433 -0.85786653 67 59 71
0.10650457 0.3161847 -0.85886371 64 57 69
0.10644277 0.31621751 -0.85963053 61 55 67
0.10640714 0.31680071 -0.85937232 62 56 68
0.10632741 0.31735483 -0.85972649 61 55 67
0.10655453 0.31653398 -0.85738009 67 61 72
0.10637408 0.31759274 -0.85838652 64 58 70
0.10629822 0.31827322 -0.85723233 66 61 73
0.10648397 0.31698948 -0.85749525 67 60 72
0.1065689 0.3165769 -0.85644674 70 63 74
0.10742011 0.31054866 -0.85947526 79 72 85
0.10735217 0.31103101 -0.8591674 78 71 84
0.10729819 0.31170511 -0.85710627 74 66 77
0.10702351 0.31357911 -0.85635304 73 65 76
0.10733283 0.31129986 -0.85825801 77 69 81
0.10705118 0.31343174 -0.85617012 73 64 75
0.10685711 0.31402877 -0.85756022 70 62 73
0.10683022 0.31406611 -0.85780996 69 61 72
0.10696905 0.31367388 -0.8570627 73 65 76
0.1067535 0.31375173 -0.8596676 65 58 70
0.10709374 0.31292623 -0.85746676 75 67 79
0.1066994 0.31440604 -0.85859501 65 58 69
0.10745458 0.31064168 -0.85808074 77 68 79
0.10725255 0.30838561 -0.85687912 74 67 80
0.10728244 0.30889454 -0.85785818 76 69 83
0.10737036 0.30925739 -0.85600883 72 63 74
0.10736883 0.30976176 -0.85817027 77 69 82
0.1071985 0.30756876 -0.85796398 76 70 85
0.10738761 0.31010869 -0.85972416 79 73 86
0.10716804 0.30751878 -0.8569622 74 68 82
0.10729165 0.3089737 -0.85852331 77 71 84
0.10725748 0.30805454 -0.85912597 77 72 87
0.10742313 0.31034264 -0.85853338 78 69 82
0.10739253 0.30576056 -0.85789412 76 72 88
0.10731768 0.3059583 -0.85602117 74 68 84
0.10729394 0.30608943 -0.85672021 75 69 85
0.10768649 0.30492342 -0.8562547 79 73 90
0.10748485 0.30537736 -0.85616231 75 69 86
0.10366655 0.33234498 -0.86028552 71 65 80
0.10392936 0.33062211 -0.86120647 73 65 82
0.10410446 0.33008114 -0.86120456 72 65 81
0.1040201 0.3310501 -0.8604871 71 64 80
0.10360447 0.32978383 -0.86329967 78 66 86
0.10438792 0.32897997 -0.86209071 71 63 80
0.10380942 0.32978079 -0.86261564 76 66 84
0.103942 0.32921892 -0.86310667 76 65 83
0.10497008 0.32711527 -0.8632732 69 61 76
0.10434386 0.32923833 -0.86181176 71 64 80
0.10512334 0.3275367 -0.86130494 67 61 75
0.10497955 0.32799202 -0.86172372 67 61 75
0.10494961 0.32817802 -0.86143392 67 62 76
0.10510974 0.32768652 -0.86090314 67 61 75
0.10500138 0.32829115 -0.86013752 67 62 76
0.10535101 0.3267796 -0.86079103 67 61 75
0.10579905 0.32237425 -0.86352527 68 59 71
0.10565957 0.32362244 -0.86263752 67 59 72
0.10550859 0.32476977 -0.86321145 67 59 73
0.10580869 0.32267618 -0.86066335 65 59 70
0.10550033 0.32491234 -0.86264169 66 59 72
0.105651 0.32421342 -0.8609255 65 59 72
0.10542939 0.32546493 -0.86292404 66 59 73
0.10564646 0.32453918 -0.86059499 66 59 72
0.10533736 0.32611537 -0.86359239 66 59 73
0.10555546 0.32559705 -0.86074239 66 60 74
0.10602949 0.32025644 -0.86184573 65 57 70
0.10602451 0.32055366 -0.86337852 70 61 74
0.10600522 0.32068032 -0.8632431 69 60 74
0.1061119 0.31974885 -0.86262369 69 60 74
0.10598236 0.32069793 -0.86229718 66 58 71
0.10599208 0.32081214 -0.86342084 70 61 74
0.1058797 0.32187858 -0.86156684 66 59 70
0.10615199 0.31920198 -0.85979104 61 55 68
0.10587117 0.32179117 -0.86257213 67 59 71
0.10593234 0.3215881 -0.85996509 64 58 69
0.10602492 0.32043013 -0.86073601 64 57 69
0.10656013 0.31571347 -0.86136836 67 59 72
0.10666402 0.31553012 -0.86177492 68 60 73
0.10667021 0.31532905 -0.86151814 67 60 73
0.1068975 0.31553665 -0.863307 73 65 79
0.10656311 0.31539842 -0.86092222 65 58 71
0.10648524 0.31591254 -0.86086291 65 57 71
0.10633592 0.31788459 -0.86260891 71 62 77
0.1064717 0.31596023 -0.86044866 64 56 69
0.10649953 0.31553972 -0.85989225 62 55 67
0.10641308 0.31695938 -0.86211574 69 61 75
0.10635278 0.31772006 -0.862665 71 62 77
0.10714579 0.31089839 -0.86092049 78 70 83
0.10710283 0.31102398 -0.8611629 77 70 83
0.10683217 0.31078273 -0.86184114 76 68 81
0.10670467 0.31224218 -0.86345452 73 66 78
0.10664637 0.31129712 -0.86286598 74 67 79
0.10671484 0.31208947 -0.86329597 74 66 79
0.10702854 0.31278378 -0.86029482 71 64 76
0.10722114 0.3134276 -0.86242467 74 68 80
0.10668297 0.31406674 -0.85978276 63 56 68
0.10682867 0.31436539 -0.86113828 66 59 71
0.10670988 0.31425694 -0.86021632 64 57 69
0.10692046 0.31352997 -0.86060286 68 62 74
0.10621278 0.33874059 -0.83418941 99 91 112
0.10604278 0.33808768 -0.8338806 89 80 100
0.10610192 0.33812064 -0.83406031 89 80 101
0.10627218 0.33952063 -0.83409178 112 105 126
0.10615461 0.34134576 -0.83392787 110 102 126
0.10599167 0.33997443 -0.83348286 103 96 117
0.10597707 0.34149075 -0.83354193 103 96 120
0.10571241 0.34126371 -0.83293986 93 87 110
0.10595884 0.33910701 -0.83335757 101 94 114
0.10577382 0.34117508 -0.83307105 95 89 112
0.10646557 0.33501142 -0.83559173 91 86 104
0.10565383 0.33428574 -0.83320081 85 79 95
0.10612221 0.33512095 -0.83455282 87 80 98
0.1066445 0.33612883 -0.83605546 89 81 101
0.10656322 0.33446792 -0.83592111 93 91 108
0.10623261 0.33732197 -0.83465677 85 74 96
0.10581259 0.33630851 -0.83344704 85 77 95
0.10613784 0.33686188 -0.83441901 85 75 95
0.10591818 0.3366136 -0.83374351 85 76 95
0.10653476 0.33765602 -0.83558697 85 72 96
0.10663489 0.33783716 -0.83588457 85 72 96
0.10631774 0.33283919 -0.83533907 91 89 105
0.10572046 0.3301996 -0.83385319 84 75 94
0.10596545 0.33132848 -0.83445632 87 81 99
0.10573646 0.33110249 -0.8337782 84 78 95
0.1058622 0.33020017 -0.83429217 85 76 96
0.10655274 0.33132231 -0.83627635 93 86 108
0.10631441 0.33393061 -0.83521104 92 91 106
0.10553666 0.33370528 -0.83289766 85 79 94
0.10549648 0.33182648 -0.83297205 82 76 92
0.10571008 0.33370766 -0.83341843 86 82 97
0.10551117 0.33294374 -0.83290011 84 78 93
0.10569783 0.33280456 -0.83347541 85 81 96
0.10572296 0.32653058 -0.83428806 103 94 115
0.10653826 0.32716298 -0.8362785 103 96 118
0.10538279 0.32699177 -0.83348447 100 90 111
0.10587411 0.32817185 -0.83471358 97 87 110
0.10614466 0.32812899 -0.83536476 98 89 112
0.10585971 0.32658628 -0.83462006 103 95 116
0.1054102 0.32902715 -0.83315724 87 78 97
0.10518218 0.32833421 -0.83261472 89 80 99
0.10568578 0.32975635 -0.83383858 85 76 96
0.10561659 0.32946497 -0.83369315 87 77 97
0.1060208 0.32890651 -0.83507717 95 84 108
0.10591924 0.32394359 -0.83470076 90 83 104
0.10585915 0.32246622 -0.83460629 85 77 101
0.10560933 0.32323232 -0.83391571 83 75 96
0.10632258 0.32513121 -0.83571118 100 94 115
0.10564134 0.32346371 -0.83398998 84 76 97
0.10655679 0.32517484 -0.83632576 103 98 121
0.10512858 0.32451439 -0.83276808 89 80 99
0.10541973 0.32587317 -0.83353013 101 92 112
0.10583211 0.32432348 -0.8344571 90 83 103
0.10567943 0.32513347 -0.83412421 96 88 108
0.10641692 0.32587004 -0.83593583 104 98 119
0.10634942 0.31981593 -0.83534878 91 81 106
0.10634582 0.32102126 -0.8356232 91 83 110
0.10567471 0.31901661 -0.83346707 81 68 94
0.10674121 0.3197189 -0.83630949 96 87 112
0.10661855 0.32022458 -0.83612043 95 86 112
0.10631106 0.32086614 -0.83549947 91 82 109
0.10587107 0.3201735 -0.83423185 84 73 100
0.10557934 0.32004586 -0.83343875 80 68 93
0.10543895 0.32214695 -0.83348536 78 69 90
0.1057424 0.32193044 -0.83424115 83 74 98
0.10540096 0.32189569 -0.83333564 77 67 89
0.10569093 0.32059199 -0.83384061 82 71 96
0.10622572 0.3147833 -0.8344211 79 72 90
0.10636415 0.3159883 -0.83486694 84 76 96
0.10651946 0.31541741 -0.83519429 84 77 96
0.10575995 0.31612566 -0.83338577 77 67 88
0.10628405 0.31824204 -0.83483469 89 77 100
0.10606909 0.31635073 -0.83417594 82 73 93
0.1059268 0.31330231 -0.83349305 82 74 92
0.10634166 0.31330377 -0.83450478 87 80 98
0.10626635 0.31376079 -0.83438849 83 76 94
0.1027737 0.34995648 -0.85148448 65 58 75
0.10329781 0.35068884 -0.84914017 62 55 74
0.10315637 0.35145596 -0.85000181 64 57 76
0.10311913 0.3504521 -0.84994245 63 56 74
0.10286709 0.35074827 -0.85122365 66 58 76
0.1030018 0.35122722 -0.85069013 65 58 76
0.10343976 0.35016432 -0.84814161 62 54 73
0.10334589 0.35169461 -0.84844404 67 56 81
0.10338525 0.35150278 -0.84817874 67 56 81
0.10305385 0.34678316 -0.85117781 65 59 74
0.10306151 0.34679678 -0.85001379 65 60 75
0.10308888 0.3465499 -0.85081685 65 60 74
0.10281098 0.34856266 -0.85096061 65 59 75
0.1028671 0.34816808 -0.85073167 65 59 75
0.10299033 0.34942332 -0.8503055 63 56 73
0.10328656 0.34700093 -0.8481552 64 58 75
0.10305684 0.34889486 -0.84982729 63 57 74
0.10276352 0.34936956 -0.85137904 65 58 74
0.1032204 0.34911427 -0.84910738 62 55 72
0.10318659 0.34696397 -0.84862447 64 59 76
0.10341317 0.34507996 -0.85134661 65 60 73
0.1034136 0.34499472 -0.84844631 65 60 77
0.10338451 0.3451066 -0.84835601 65 60 77
0.10376258 0.34399262 -0.84868419 70 65 81
0.10421131 0.34266418 -0.85046113 78 72 87
0.104677 0.34204841 -0.84970713 86 80 97
0.10399338 0.34372863 -0.84817028 74 69 86
0.10448559 0.34204209 -0.85090047 82 77 92
0.10366297 0.34419686 -0.84900653 68 63 79
0.10426036 0.34241262 -0.85193813 78 72 86
0.1043008 0.34226495 -0.85163587 79 73 87
0.10394727 0.34331992 -0.84988469 73 67 83
0.10374553 0.34400141 -0.85036284 69 64 79
0.10428524 0.33954266 -0.85141289 77 69 83
0.10420728 0.33857763 -0.85129297 76 66 81
0.10431392 0.33857131 -0.84968859 77 68 83
0.10433783 0.33864373 -0.84942734 78 68 84
0.10428105 0.3392359 -0.85106659 77 68 83
0.10435791 0.33966467 -0.85048807 79 70 85
0.10484824 0.34064209 -0.84820253 89 82 100
0.10476375 0.34072798 -0.84881741 87 80 97
0.10445409 0.33888376 -0.84861743 80 71 87
0.10445242 0.34002554 -0.84992516 81 73 88
0.10491826 0.34156594 -0.84882361 91 85 103
0.10499598 0.34178266 -0.84859413 93 87 105
0.10435803 0.33583534 -0.85153633 81 72 88
0.1044117 0.33601817 -0.85098332 82 72 89
0.10470808 0.33458701 -0.84978122 89 81 100
0.10440933 0.33487675 -0.85186756 82 74 91
0.10448939 0.33523089 -0.85098088 84 75 93
0.10457264 0.33658656 -0.84805256 84 75 92
0.10457473 0.33595946 -0.84953201 85 76 94
0.10470328 0.33536869 -0.84903163 89 80 98
0.10443217 0.33729869 -0.84843892 80 70 87
0.10487655 0.33461767 -0.84824818 93 85 104
0.10577306 0.33125496 -0.85006249 88 83 102
0.10621841 0.33031484 -0.84940678 89 85 105
0.10497028 0.33211216 -0.85156238 85 78 97
0.10515723 0.3317166 -0.85128742 85 79 99
0.10529426 0.33196571 -0.85088134 86 81 99
0.10553631 0.33118868 -0.85062593 87 81 101
0.10609641 0.33157676 -0.84838939 93 88 107
0.10608603 0.33144957 -0.84893811 91 87 105
0.10477852 0.3339217 -0.84992439 91 83 102
0.10533582 0.33326077 -0.84805709 96 89 108
0.10564459 0.33210653 -0.84992564 89 84 102
0.10486141 0.33396304 -0.84913224 93 85 105
0.10734801 0.32659432 -0.84888893 89 81 102
0.10716389 0.32791117 -0.84890139 90 84 104
0.10663742 0.32710695 -0.85021824 85 77 97
0.10647708 0.32816273 -0.84986514 86 80 98
0.10633893 0.3275775 -0.85044903 84 77 95
0.10570213 0.32860082 -0.85134882 83 75 96
0.10651127 0.33000547 -0.84886408 91 87 106
0.10618755 0.32858601 -0.85025197 86 79 98
0.10670997 0.33003846 -0.8483972 92 88 107
0.10618135 0.32779929 -0.85062742 84 76 95
0.10555561 0.32988492 -0.85109222 85 79 100
0.10774858 0.32738367 -0.84838587 94 88 110
0.10780386 0.3270022 -0.84847111 94 88 109
0.10774881 0.32639718 -0.84866244 92 85 107
0.10615239 0.3245452 -0.85172755 75 66 83
0.10681558 0.3252438 -0.85024899 81 73 92
0.10643961 0.32360414 -0.85127205 73 67 83
0.10640804 0.32363564 -0.85133278 73 66 82
0.10668811 0.32537556 -0.85049361 81 73 91
0.10682336 0.32307756 -0.85059386 75 69 85
0.1074186 0.32557702 -0.84896898 87 80 99
0.10740174 0.32534173 -0.84904498 86 79 99
0.10797745 0.32362285 -0.8490383 88 83 101
0.1084941 0.32252556 -0.8489778 91 87 105
0.10948251 0.32248816 -0.84848678 102 99 119
0.10880227 0.3238976 -0.84857285 98 93 114
0.10857596 0.3236497 -0.84873194 95 90 110
0.11010811 0.32302278 -0.84810269 110 107 129
0.1098044 0.32400915 -0.84812671 108 105 127
0.11002273 0.32301718 -0.84813684 109 106 128
0.10637833 0.31973657 -0.85173845 68 63 73
0.10647545 0.32015228 -0.85152745 69 64 75
0.10691571 0.32098979 -0.8506217 74 69 81
0.10717555 0.31987026 -0.85024184 75 70 82
0.10701182 0.31988144 -0.85053396 74 69 80
0.10734433 0.31875697 -0.85004902 75 70 82
0.11026994 0.31879699 -0.84832209 97 93 111
0.11058059 0.31840709 -0.84818769 99 95 114
0.10809265 0.31954208 -0.84945977 81 77 91
0.10785548 0.32051891 -0.84949565 80 76 90
0.10863888 0.31998807 -0.84911215 86 82 97
0.10943519 0.3206574 -0.84863526 94 91 109
0.10855965 0.32218084 -0.84899652 91 87 104
0.10970176 0.31968173 -0.84855205 93 90 107
0.11026662 0.32075098 -0.84821165 104 101 121
0.10895273 0.32124963 -0.84884727 91 88 105
0.10694744 0.31813028 -0.85089338 72 67 77
0.10671671 0.31713015 -0.8517198 68 63 73
0.10669618 0.31813869 -0.85133988 70 65 74
0.10683031 0.31818801 -0.85107929 71 66 76
0.10738153 0.31612474 -0.85095084 72 67 79
0.10921506 0.31812763 -0.8489657 88 84 100
0.11101519 0.31620657 -0.84807974 97 94 115
0.10896796 0.31769297 -0.84912914 85 81 97
0.10951573 0.31670058 -0.84888399 87 83 101
0.110717 0.31781453 -0.84814918 98 95 115
0.10899568 0.31666747 -0.84920782 83 79 96
0.10881511 0.3162308 -0.84955609 81 77 94
0.10855588 0.31555679 -0.85007572 79 74 90
0.10892808 0.31572491 -0.84966332 81 77 94
0.10759381 0.31816635 -0.8498714 76 71 84
0.1077977 0.31705269 -0.85014868 76 71 85
0.10870488 0.31472254 -0.85028684 78 74 91
0.10797931 0.31463093 -0.85099232 73 69 83
0.1112265 0.31473929 -0.84979701 97 93 114
0.11086906 0.31469327 -0.85040063 95 91 110
0.11007725 0.31461707 -0.85180748 91 86 102
0.11135775 0.31475055 -0.85045397 99 95 115
0.11137636 0.31463581 -0.85066491 100 95 115
0.1096361 0.31417421 -0.84957433 83 79 97
0.10792913 0.31298137 -0.85144144 70 64 79
0.10747976 0.3137711 -0.85168111 69 63 76
0.10927448 0.3134833 -0.85006815 80 75 92
0.11113902 0.31439355 -0.84911501 95 92 113
0.10855778 0.31321362 -0.85099888 75 69 85
0.10912924 0.31330529 -0.8502571 78 73 91
0.10774093 0.31291646 -0.85165238 69 63 77
0.11019003 0.31383911 -0.84977049 87 82 102
0.11139205 0.31425285 -0.85032058 99 94 114
0.1114139 0.31356183 -0.84995008 97 89 110
0.11135986 0.31336686 -0.848153 92 86 109
0.11138393 0.31332168 -0.84876549 93 86 109
0.11133492 0.3138209 -0.84809887 93 89 112
0.11134873 0.31372502 -0.84835076 94 89 111
0.11145484 0.31209964 -0.8516736 95 85 110
0.11145296 0.31247184 -0.8516708 96 87 110
0.1114585 0.31319648 -0.85074508 97 88 108
0.11060459 0.30700713 -0.84964389 76 65 85
0.10931438 0.30730304 -0.85148621 70 59 78
0.10860282 0.30685177 -0.85181522 65 55 71
0.10901222 0.30701351 -0.85151643 67 57 74
0.10898296 0.30646238 -0.85134161 67 57 74
0.10867497 0.30639279 -0.85178316 66 56 72
0.10952167 0.30553311 -0.85178918 75 66 85
0.11051612 0.30626673 -0.84977257 76 66 85
0.10367014 0.34567761 -0.90527809 0 0 0
0.1082074 0.35036084 -0.84250164 89 77 100
0.10821702 0.35024053 -0.84246469 90 78 100
0.10809486 0.35185137 -0.84274131 86 75 96
0.10800474 0.35278121 -0.8435505 84 74 94
0.10808238 0.35161904 -0.84369814 87 76 97
0.10826468 0.35089299 -0.84082425 88 78 102
0.10822695 0.35065791 -0.84124327 88 76 99
0.10826373 0.3512651 -0.8408069 88 79 102
0.10811479 0.3524892 -0.8423025 86 77 98
0.10799071 0.33493263 -0.84185326 110 106 127
0.10818869 0.33506674 -0.84337491 111 106 128
0.10825784 0.33403599 -0.84358639 101 96 116
0.10794812 0.33440593 -0.84137809 105 101 122
0.10800878 0.33602294 -0.84231228 120 116 139
0.10805226 0.33751458 -0.84170085 113 104 129
0.1078629 0.33484319 -0.84042001 102 97 118
0.10800616 0.33738762 -0.84080213 103 93 118
0.10798667 0.33671203 -0.84111965 107 99 123
0.10791965 0.33562303 -0.84082717 105 99 122
0.10805009 0.33777449 -0.84136039 109 98 124
0.10853972 0.33064818 -0.8439014 118 114 137
0.10834522 0.33329523 -0.84394801 105 100 121
0.10848024 0.33185902 -0.8440581 111 107 129
0.10843582 0.33110422 -0.84358621 117 113 136
0.10831694 0.33139843 -0.84314489 117 113 136
0.10780296 0.33025458 -0.84035933 133 128 156
0.10784379 0.33311757 -0.84051675 108 104 126
0.10813009 0.33398116 -0.84261495 101 96 116
0.1078154 0.33340561 -0.84028935 106 102 123
0.10791045 0.33190602 -0.84107834 119 114 138
0.10779863 0.33107582 -0.84028435 126 121 147
0.10823731 0.32643163 -0.84163153 111 109 133
0.10852762 0.32710809 -0.84296763 115 113 137
0.10833349 0.32824475 -0.84246868 114 112 134
0.10866731 0.32711396 -0.84353113 116 114 139
0.10841649 0.32749155 -0.84261566 114 112 136
0.10819376 0.32830304 -0.84185821 116 113 136
0.10795815 0.3298592 -0.84099782 130 126 152
0.1081697 0.32811511 -0.84172106 115 112 136
0.10819468 0.32980737 -0.84207636 125 122 147
0.10795817 0.32821208 -0.84076363 119 116 141
0.10855065 0.3245661 -0.84274203 109 103 128
0.10888283 0.32308924 -0.84295821 108 101 124
0.10905794 0.32302219 -0.84334832 109 103 126
0.10891286 0.3238025 -0.84330642 110 105 129
0.10898364 0.32261753 -0.84301466 107 100 123
0.10846408 0.32295981 -0.84191275 103 94 118
0.10821536 0.32496944 -0.8415221 106 101 126
0.10811187 0.32509547 -0.84110117 106 101 125
0.10810988 0.32405567 -0.84113061 103 95 119
0.10798385 0.32358783 -0.84064037 100 91 115
0.10814578 0.32531816 -0.84122956 107 103 127
0.10892463 0.31996873 -0.84206343 99 94 111
0.10953341 0.31923512 -0.84319544 103 99 118
0.10977181 0.31970951 -0.84388679 107 103 123
0.10924982 0.3193495 -0.84259409 101 96 114
0.10917043 0.31974512 -0.84254414 101 96 114
0.10962276 0.31944451 -0.84346485 105 101 120
0.1091228 0.32225329 -0.84320521 107 101 122
0.10849252 0.31975999 -0.84098852 94 88 104
0.10869483 0.32003921 -0.84154981 97 91 108
0.10921261 0.32150868 -0.84320402 106 101 120
0.1095756 0.31472504 -0.84373277 97 98 115
0.10924733 0.31600296 -0.8424086 97 93 111
0.1093713 0.31627679 -0.84268892 98 95 113
0.10959335 0.31621942 -0.84335011 100 98 116
0.10911351 0.31759274 -0.84196544 96 92 109
0.10897037 0.31777516 -0.84164292 95 90 107
0.10936829 0.31796539 -0.84253877 99 95 113
0.10972413 0.31810665 -0.84333992 103 99 118
0.10949301 0.31372789 -0.8433916 95 96 114
0.10244446 0.3496514 -0.85215771 65 57 73
0.10020269 0.35081503 -0.85471016 54 41 52
0.10028864 0.34988949 -0.85410607 57 46 55
0.1006604 0.35167155 -0.85494792 53 41 53
0.10186423 0.35187045 -0.85432535 58 47 64
0.10128702 0.35248315 -0.85520422 55 42 58
0.10040417 0.35181072 -0.8552292 52 39 51
0.10145091 0.3528437 -0.85539281 55 42 58
0.10235889 0.35125399 -0.85312504 63 53 71
0.10217033 0.35247678 -0.85389012 61 50 68
0.10200873 0.35223556 -0.85435015 59 48 65
0.10203455 0.35199872 -0.85423481 59 48 65
0.10219363 0.35172006 -0.85370362 61 51 68
0.1027815 0.35240421 -0.85200089 68 60 79
0.10290226 0.34826446 -0.85244608 65 58 73
0.10311823 0.3473188 -0.85317165 64 58 73
0.10323396 0.34693009 -0.8536973 64 57 72
0.10313109 0.347009 -0.85292059 64 58 73
0.10241756 0.34856036 -0.85311526 63 55 69
0.10290543 0.34829009 -0.85290486 65 58 73
0.1005835 0.34798938 -0.85532659 53 41 50
0.10233924 0.34652171 -0.8550123 59 50 62
0.10298499 0.34769773 -0.85336119 64 57 72
0.10277997 0.34804374 -0.85324162 64 56 71
0.10315424 0.34620303 -0.8545419 63 55 69
0.10133498 0.34773326 -0.85570753 56 45 56
0.10311176 0.34744355 -0.85584378 64 54 71
0.10272996 0.34751633 -0.85582215 62 52 68
0.10144069 0.34934944 -0.85326606 60 51 63
0.10098741 0.34952936 -0.85344648 60 50 61
0.10090784 0.34913555 -0.85395223 57 47 57
0.10354497 0.34582019 -0.85497856 64 56 72
0.10345636 0.34505332 -0.85213357 65 60 73
0.10371694 0.34488425 -0.85399938 67 60 75
0.10422456 0.34271178 -0.85248154 77 71 85
0.10386536 0.34419748 -0.85340577 70 63 78
0.10371371 0.3448081 -0.85374773 67 60 75
0.1038361 0.34468952 -0.85507315 69 60 77
0.10398808 0.34245586 -0.8550784 77 68 83
0.10374682 0.34450796 -0.8558355 69 60 76
0.10437541 0.34190735 -0.85245562 81 74 89
0.10397903 0.34387866 -0.85441715 72 64 80
0.10384647 0.34326851 -0.85572362 73 64 80
0.10385458 0.33903494 -0.85531169 78 72 86
0.10389566 0.33890876 -0.85478598 77 71 84
0.10390882 0.33915687 -0.85476232 77 70 84
0.10403492 0.33796558 -0.85274541 75 65 80
0.10393052 0.33910659 -0.85449278 77 69 83
0.10396118 0.3400026 -0.85459685 77 68 83
0.10435858 0.34082466 -0.85198897 79 72 86
0.10433902 0.34081593 -0.85212976 79 72 86
0.10429768 0.34034079 -0.85212231 78 70 85
0.10425904 0.33966163 -0.85195833 77 68 83
0.10429478 0.34062794 -0.85233587 79 71 85
0.10456641 0.33514953 -0.85502321 82 76 90
0.10430769 0.33581251 -0.85482651 81 76 90
0.10404234 0.33658296 -0.85482317 80 77 90
0.10448503 0.33504313 -0.8542704 83 77 91
0.10435539 0.33477584 -0.85285658 83 77 93
0.10490705 0.33446056 -0.85568583 83 76 90
0.10423943 0.33627638 -0.85219252 78 70 85
0.10435455 0.33501121 -0.85229623 82 75 91
0.10424778 0.33592147 -0.85249108 80 72 88
0.10435709 0.33525762 -0.85199511 81 73 89
0.10422684 0.33619583 -0.85242319 79 71 86
0.10508185 0.33315924 -0.85544306 83 75 90
0.10505222 0.33066854 -0.85386884 81 74 93
0.10512052 0.33084813 -0.85288256 83 76 96
0.10503564 0.33150399 -0.85483754 81 74 91
0.10509517 0.33052197 -0.8530333 82 75 96
0.10479746 0.33364558 -0.8535803 84 77 93
0.10473972 0.33290911 -0.85242724 84 77 95
0.10511294 0.33163181 -0.85344845 84 76 95
0.10502508 0.33346087 -0.85483629 84 76 91
0.10496079 0.33199751 -0.85286701 84 77 95
0.10492375 0.33364794 -0.85438883 84 76 92
0.10549304 0.32663652 -0.85558468 69 64 75
0.10542428 0.32714829 -0.85543281 71 65 78
0.10558709 0.32657507 -0.85473257 72 65 78
0.10505453 0.32935709 -0.85551804 76 70 86
0.1053607 0.32830358 -0.85416043 77 69 87
0.1050997 0.32928765 -0.85517514 77 70 87
0.10556412 0.32759696 -0.85320038 78 70 87
0.10501073 0.32991555 -0.85461378 79 72 91
0.10532378 0.32847378 -0.85425103 77 70 87
0.10521102 0.32948932 -0.85271567 81 74 95
0.10550237 0.32786652 -0.85332167 78 70 88
0.10585843 0.32371059 -0.85548538 68 61 74
0.10578585 0.32417318 -0.85582221 68 61 74
0.10585379 0.3239761 -0.85492575 68 62 74
0.10583068 0.32408422 -0.8551293 68 62 74
0.10580456 0.32430038 -0.85512847 68 62 74
0.10594353 0.32373554 -0.85369277 68 62 74
0.10595239 0.32490304 -0.85261834 73 65 81
0.10601643 0.32443169 -0.85231149 73 65 80
0.10577063 0.32539442 -0.85410488 70 64 77
0.10598693 0.32419148 -0.85278547 71 64 78
0.10577713 0.32543555 -0.85400903 71 64 77
0.10565342 0.32575154 -0.85503435 69 63 74
0.10624668 0.31921616 -0.85487103 69 63 74
0.1062383 0.3192763 -0.85374618 68 62 73
0.10627985 0.31880471 -0.85531598 69 64 75
0.10619965 0.31978777 -0.85397428 68 62 73
0.10624882 0.31919214 -0.85495877 69 63 74
0.10623398 0.32037464 -0.85234946 68 62 73
0.10611267 0.32109961 -0.85445493 68 61 74
0.10619803 0.32125926 -0.85263878 68 62 74
0.10609163 0.32195053 -0.8544578 68 61 75
0.10614887 0.32209691 -0.85322005 68 61 75
0.10617945 0.32166129 -0.85281581 68 61 75
0.10688759 0.31489125 -0.85516727 71 64 75
0.1069648 0.31448266 -0.85495967 71 64 75
0.10685858 0.31523389 -0.85488391 70 64 75
0.1065883 0.31705219 -0.85486966 69 64 75
0.10674524 0.31582043 -0.8552143 70 64 75
0.10655698 0.31726903 -0.8527233 68 63 73
0.10635907 0.3181549 -0.85465741 69 64 74
0.10652463 0.3174029 -0.85227889 67 62 72
0.1064043 0.31792867 -0.8525663 68 63 72
0.10683552 0.31605154 -0.85203141 67 62 73
0.1072451 0.31227982 -0.85577565 72 62 73
0.10717286 0.31302088 -0.85513437 71 63 73
0.10739391 0.31248069 -0.8531388 68 61 73
0.10711695 0.31334239 -0.85521555 71 63 74
0.10736144 0.31275946 -0.85297507 68 61 73
0.10700767 0.3144125 -0.85453653 70 63 74
0.10709258 0.31411764 -0.85395283 70 63 74
0.10709158 0.31397399 -0.85421127 70 63 74
0.10756339 0.31077054 -0.85547602 71 61 71
0.10979225 0.31371081 -0.85224789 88 81 97
0.10751972 0.31206822 -0.85327822 69 61 73
0.11018783 0.31364936 -0.85264778 92 85 100
0.10833231 0.3127844 -0.85269499 75 68 82
0.10796989 0.3125346 -0.85283905 72 65 78
0.11046684 0.31361517 -0.85291451 95 87 103
0.10919122 0.31345195 -0.85222775 83 76 91
0.11063349 0.31229138 -0.85283202 91 82 103
0.11117163 0.3116633 -0.85228747 92 82 107
0.10950541 0.31125709 -0.8539452 83 73 90
0.10878644 0.31083661 -0.85465765 78 68 83
0.10891058 0.31105405 -0.85453635 79 69 84
0.10868712 0.31368911 -0.85195374 79 73 87
0.10740665 0.3074218 -0.85386688 65 57 69
0.10741195 0.30672821 -0.85317355 63 55 68
0.10727443 0.30729344 -0.8548798 69 62 74
0.10971981 0.30838811 -0.85200894 74 64 85
0.10817118 0.30707976 -0.85252708 65 56 72
0.10912 0.30833599 -0.85261697 74 64 84
0.10869159 0.30897623 -0.85353845 73 64 81
0.10769035 0.31031588 -0.85556978 72 62 71
0.10747171 0.30692911 -0.85317838 63 55 68
0.10856949 0.30841362 -0.85322678 71 62 79
0.10916625 0.3098394 -0.8537299 77 67 85
0.10892458 0.30877408 -0.85315025 74 64 83
0.10747615 0.30932727 -0.855241 70 60 71
0.10736666 0.30588832 -0.85559779 73 67 82
0.10839958 0.30623585 -0.85230225 67 58 74
0.10840053 0.3058354 -0.85275304 71 63 79
0.10803689 0.30518603 -0.85524303 79 73 90
0.10755093 0.30583242 -0.85489172 72 65 81
0.10801865 0.30551189 -0.85438126 75 68 85
0.10413453 0.32831743 -0.86376119 72 62 80
0.10373964 0.3289018 -0.86383951 73 61 80
0.10366037 0.32876593 -0.86395359 69 58 76
0.10510121 0.32322821 -0.8640933 58 50 61
0.10413569 0.32280505 -0.86458504 44 35 46
0.10459319 0.32426989 -0.86441195 50 43 53
0.10362317 0.32607925 -0.864999 36 30 39
0.10393747 0.32547736 -0.86481345 41 34 44
0.1052233 0.32449654 -0.86391282 62 54 66
0 0 0 1 0 0 0 1 0 0 0 1 0 0 0 0 0 807 1 0 0
