ply
format ascii 1.0
comment PCL generated
element vertex 779
property float x
property float y
property float z
property uchar red
property uchar green
property uchar blue
element camera 1
property float view_px
property float view_py
property float view_pz
property float x_axisx
property float x_axisy
property float x_axisz
property float y_axisx
property float y_axisy
property float y_axisz
property float z_axisx
property float z_axisy
property float z_axisz
property float focal
property float scalex
property float scaley
property float centerx
property float centery
property int viewportx
property int viewporty
property float k1
property float k2
end_header
0.18182015 -0.33366108 -0.91056764 36 31 42
0.1829676 -0.33756185 -0.91121215 34 31 39
0.18218733 -0.33760944 -0.91178006 30 26 34
0.18273935 -0.33730659 -0.91126305 34 30 38
0.1819974 -0.33785695 -0.91201931 28 25 32
0.18204902 -0.33450127 -0.91059643 36 32 42
0.18367618 -0.3407267 -0.91142058 31 25 31
0.18213022 -0.33857656 -0.91207719 28 23 30
0.18243337 -0.34035215 -0.91219348 26 20 28
0.18315484 -0.34018165 -0.91167462 29 24 30
0.18332228 -0.34121844 -0.91174901 29 22 29
0.18348154 -0.34171665 -0.91173142 29 21 29
0.18295084 -0.33913004 -0.91161811 30 26 32
0.18351036 -0.33969527 -0.91134095 32 27 33
0.18493402 -0.34083709 -0.91057533 36 31 37
0.18480557 -0.34065908 -0.91062903 36 31 37
0.18213518 -0.34292954 -0.91281945 24 15 24
0.18258448 -0.34482703 -0.91296935 27 18 24
0.18182167 -0.34463131 -0.91378152 24 14 21
0.18272053 -0.34520298 -0.91294479 28 19 25
0.18333596 -0.34538838 -0.91229928 30 22 28
0.18242858 -0.34409302 -0.91289073 26 17 24
0.18170017 -0.34553689 -0.91424108 25 14 19
0.18492526 -0.34531605 -0.9105835 36 30 35
0.18404098 -0.34213892 -0.91134948 31 24 31
0.18319593 -0.34349683 -0.91184938 28 21 29
0.1831231 -0.34321854 -0.91191334 28 20 28
0.1844939 -0.34376708 -0.9109571 34 27 33
0.18283738 -0.34238911 -0.91215044 26 18 27
0.18238553 -0.34830564 -0.91182446 28 21 26
0.18202324 -0.34857374 -0.91191739 28 21 25
0.18379124 -0.3475185 -0.91071069 33 27 32
0.18288954 -0.34708425 -0.9120329 30 22 27
0.18234518 -0.3464739 -0.91305625 27 18 23
0.18294337 -0.34878796 -0.91086942 31 25 29
0.18322766 -0.34684923 -0.9117943 31 23 28
0.1830316 -0.34661826 -0.91217005 30 22 27
0.18288051 -0.34582525 -0.91285723 29 20 25
0.18212768 -0.34644338 -0.91332722 27 17 22
0.18354526 -0.35343084 -0.91091889 28 18 18
0.18255728 -0.35309932 -0.9116441 31 20 19
0.18209447 -0.35235387 -0.91182387 32 21 21
0.18200614 -0.35311735 -0.91210371 33 21 20
0.18269292 -0.3509149 -0.9109444 28 22 24
0.18333218 -0.35175851 -0.91064775 28 21 22
0.18244912 -0.35656175 -0.91432881 31 19 17
0.18262878 -0.35687369 -0.91437143 31 19 17
0.18276553 -0.3542178 -0.91212636 31 20 18
0.1825881 -0.35425982 -0.91230518 32 20 19
0.18219252 -0.35515651 -0.91332293 33 21 19
0.18236557 -0.35414362 -0.91239917 33 20 19
0.18292439 -0.35452881 -0.91223514 31 19 18
0.18195477 -0.35600001 -0.91164237 32 20 16
0.18216875 -0.35516706 -0.91083181 31 20 16
0.18310687 -0.35530302 -0.9119221 29 19 17
0.18198469 -0.35571504 -0.91134852 32 20 16
0.18216047 -0.3552421 -0.91091913 31 20 16
0.18314184 -0.35506082 -0.91164839 29 19 17
0.20505586 -0.3594296 -0.91103649 31 10 7
0.20349836 -0.3609004 -0.91080928 28 10 6
0.20463833 -0.36036807 -0.91128075 31 10 6
0.18577255 -0.36340281 -0.91056079 29 23 26
0.20497864 -0.36335149 -0.91372705 23 7 5
0.2031063 -0.36142668 -0.91086614 27 10 6
0.20434599 -0.36284852 -0.91288263 24 8 5
0.20410497 -0.36391085 -0.91350299 22 8 6
0.20495702 -0.36418137 -0.9143818 20 7 5
0.20401722 -0.36381909 -0.91336614 22 8 6
0.2028168 -0.36244398 -0.91120774 24 10 7
0.20216531 -0.36370304 -0.91092765 21 10 7
0.20239404 -0.36420316 -0.91150951 21 10 7
0.20253378 -0.3642565 -0.91173559 21 10 7
0.20264055 -0.36291534 -0.91119903 23 10 7
0.20273514 -0.36489615 -0.9123503 20 9 7
0.18364049 -0.366548 -0.91056794 39 27 31
0.18458268 -0.36554188 -0.91070837 35 24 28
0.18413888 -0.36619648 -0.91078973 37 26 30
0.18412918 -0.36750564 -0.91064554 38 27 31
0.1834453 -0.36773133 -0.9107762 41 28 34
0.18502559 -0.36700204 -0.91059965 34 25 28
0.18590748 -0.36559859 -0.91079891 31 24 28
0.20176665 -0.36879379 -0.91115719 25 12 11
0.20243263 -0.36898834 -0.91186166 20 9 9
0.20365882 -0.36883295 -0.91313428 10 4 4
0.20212786 -0.3685613 -0.9115231 21 10 9
0.20287247 -0.36734912 -0.91224253 12 6 5
0.20154071 -0.36874646 -0.91091907 26 13 12
0.20159043 -0.36659327 -0.91086817 20 11 8
0.20273639 -0.36528856 -0.91250926 19 9 7
0.20391929 -0.36704361 -0.91367006 11 4 3
0.20365596 -0.36585954 -0.91364723 17 7 6
0.20355572 -0.36543888 -0.91362965 19 8 6
0.20318867 -0.36649051 -0.91279542 13 6 5
0.20372733 -0.36665717 -0.91351187 12 5 4
0.2005565 -0.3711578 -0.91063273 32 17 16
0.20034513 -0.37171653 -0.91060448 32 18 17
0.20019507 -0.37233236 -0.91067219 33 19 18
0.1932248 -0.39236972 -0.91122806 5 3 2
0.18241458 -0.37665042 -0.90194029 39 30 31
0.18217343 -0.37689617 -0.90146804 37 28 30
0.18322444 -0.37868562 -0.90219229 42 31 31
0.18243462 -0.37987798 -0.90143096 44 33 30
0.18237241 -0.37970433 -0.90143394 44 33 31
0.18399975 -0.37845835 -0.90271789 40 30 30
0.18295048 -0.37846151 -0.90207815 43 32 31
0.18291306 -0.37993613 -0.90170866 43 32 30
0.18187249 -0.37864557 -0.90104073 40 31 30
0.18255234 -0.37774289 -0.90177923 40 31 31
0.18268859 -0.37701693 -0.90194792 39 30 31
0.18337229 -0.38191527 -0.90242487 42 31 27
0.18200241 -0.38328284 -0.90243673 47 34 27
0.18283653 -0.38106337 -0.90157157 43 32 28
0.18210003 -0.38107291 -0.90112895 45 33 30
0.18180116 -0.38271824 -0.90196484 47 35 28
0.20882544 -0.35813311 -0.91912585 27 13 10
0.20887321 -0.3592819 -0.91882116 25 13 14
0.2088578 -0.36182988 -0.91845506 21 13 19
0.20808524 -0.36365223 -0.91847456 22 12 13
0.20896982 -0.36514705 -0.92063785 8 5 4
0.20876195 -0.36516029 -0.92035192 10 6 4
0.19979465 -0.34949845 -0.9060061 43 30 31
0.20261854 -0.34603038 -0.90660036 42 31 27
0.20134944 -0.34847695 -0.90613151 42 29 28
0.20182686 -0.34705284 -0.90627694 43 31 28
0.19230364 -0.35322115 -0.90659428 35 25 31
0.19352362 -0.35314074 -0.90644288 34 25 31
0.19387445 -0.35261706 -0.90639818 36 26 32
0.19434781 -0.35084179 -0.90641052 39 29 35
0.19618282 -0.3500382 -0.9060455 43 32 37
0.19494493 -0.35318071 -0.90629643 37 29 33
0.19479871 -0.35262746 -0.90626603 37 28 33
0.19623713 -0.35273495 -0.90615392 40 32 35
0.19699515 -0.35005426 -0.90588397 44 34 38
0.19430415 -0.35280821 -0.90632135 36 27 32
0.20061095 -0.3505446 -0.90616161 41 28 27
0.20058934 -0.35166082 -0.90629506 39 27 25
0.20056638 -0.35058099 -0.90616077 41 28 27
0.19883405 -0.35280704 -0.90622711 40 31 31
0.20033023 -0.35328853 -0.90646273 37 25 23
0.19871381 -0.34993756 -0.90595871 44 32 34
0.19833046 -0.35118529 -0.90602666 43 33 34
0.20067886 -0.34986636 -0.90609759 42 28 28
0.19771264 -0.35101038 -0.90596777 44 34 36
0.19750631 -0.34971032 -0.9058525 45 34 38
0.20141162 -0.35126117 -0.90647256 39 25 23
0.19421536 -0.35499346 -0.906578 35 25 30
0.19575495 -0.35538778 -0.90649694 38 27 30
0.19639355 -0.35426286 -0.90629774 40 31 34
0.1953418 -0.35425302 -0.90638453 37 28 32
0.19638146 -0.35354048 -0.90620518 40 32 35
0.19519654 -0.35380691 -0.90633887 37 29 33
0.1952845 -0.35474133 -0.90645254 37 27 31
0.19998619 -0.35440663 -0.90656507 37 24 22
0.19816683 -0.35565716 -0.9065119 40 27 28
0.19753882 -0.35437608 -0.90627164 41 32 33
0.19791749 -0.3551816 -0.90642083 40 29 30
0.19872417 -0.35579276 -0.90659541 39 25 25
0.19964965 -0.35352591 -0.90641123 38 27 25
0.18879646 -0.36756214 -0.90648377 28 21 24
0.18844548 -0.36801893 -0.90658849 29 22 24
0.19244151 -0.36605072 -0.90656126 32 23 27
0.19317618 -0.36636567 -0.90654045 33 23 27
0.19083899 -0.36603266 -0.90649152 31 22 25
0.19039607 -0.36550716 -0.90656447 30 22 25
0.19062808 -0.36770645 -0.90616679 29 21 25
0.1919702 -0.36842391 -0.90610993 30 22 26
0.19068995 -0.3668806 -0.90632969 30 21 25
0.19019826 -0.36677873 -0.9063195 29 21 24
0.18966155 -0.36649093 -0.90634239 29 20 24
0.19406375 -0.36815289 -0.9064157 32 23 25
0.19426985 -0.36780304 -0.90653175 32 22 25
0.19353725 -0.36622041 -0.90662158 33 23 27
0.18701164 -0.37083617 -0.9065758 27 21 22
0.1892398 -0.36914739 -0.90593386 26 20 24
0.1883872 -0.37270898 -0.90580142 25 20 23
0.18675607 -0.37256211 -0.90628415 25 20 20
0.18895389 -0.37114504 -0.90578049 25 20 24
0.18841588 -0.3714385 -0.90590864 25 20 23
0.18919566 -0.37003252 -0.90581203 25 20 24
0.18857177 -0.37188894 -0.90582287 25 20 23
0.19333154 -0.3727107 -0.90568179 27 19 19
0.19044882 -0.37243068 -0.90557528 26 21 24
0.19091561 -0.37168586 -0.90567505 27 21 25
0.19130021 -0.37144217 -0.90571862 28 22 25
0.1909751 -0.37176377 -0.90566975 27 21 25
0.1931503 -0.37219021 -0.90572762 27 20 21
0.19240798 -0.36952075 -0.90596378 30 23 27
0.19040494 -0.37054104 -0.90574956 27 21 25
0.19151291 -0.36967915 -0.90589505 29 22 26
0.19051445 -0.37192079 -0.90563077 26 21 25
0.18986583 -0.37212703 -0.90557265 25 21 25
0.19571389 -0.37276468 -0.90652013 31 20 17
0.19527324 -0.37008843 -0.90647984 31 20 20
0.19548903 -0.37187994 -0.90647787 31 20 18
0.19533436 -0.37127587 -0.90644866 31 20 19
0.19376223 -0.37041309 -0.90602851 30 21 23
0.19353011 -0.37005517 -0.9060052 30 22 25
0.19353393 -0.37094256 -0.90591353 29 21 23
0.19429676 -0.37075424 -0.90613252 29 20 21
0.18221778 -0.37663028 -0.90661633 42 34 35
0.18537745 -0.37502643 -0.90572137 32 24 23
0.18343396 -0.37647417 -0.90604901 40 31 32
0.18354511 -0.37553984 -0.90644163 37 29 29
0.18512386 -0.37370518 -0.90649366 28 23 21
0.18400607 -0.37626219 -0.9058491 38 30 30
0.18286818 -0.37692899 -0.90385485 42 33 34
0.18209079 -0.37638992 -0.90447295 42 34 35
0.18301812 -0.37659442 -0.90296316 42 32 33
0.18844323 -0.37542731 -0.90500361 29 22 26
0.18870434 -0.37494284 -0.90509748 28 21 25
0.18710716 -0.3758454 -0.90491885 33 24 26
0.18874255 -0.37443763 -0.90519458 27 21 25
0.18716665 -0.3753497 -0.90501422 33 25 26
0.18723859 -0.37335092 -0.90595442 26 21 22
0.18555646 -0.37592301 -0.90519589 35 26 25
0.18583621 -0.37328932 -0.90638775 26 21 20
0.186583 -0.37513086 -0.90528315 32 24 25
0.18774569 -0.37373686 -0.90562207 27 22 23
0.18658878 -0.37314078 -0.90624291 26 21 20
0.19234312 -0.37663028 -0.90518951 27 19 22
0.19325863 -0.37409994 -0.90554404 27 19 19
0.19115569 -0.37527755 -0.90511882 27 19 22
0.19060081 -0.37647673 -0.90493208 27 19 24
0.19297905 -0.37690419 -0.90526515 27 19 22
0.19283356 -0.37602031 -0.90531677 27 19 21
0.19075163 -0.37493584 -0.90516251 26 19 23
0.19148558 -0.37414271 -0.90534931 26 19 22
0.19181164 -0.37319461 -0.90554672 26 19 21
0.19125718 -0.37354481 -0.90545338 26 19 22
0.1905867 -0.37319636 -0.90548873 25 20 23
0.19168609 -0.37394479 -0.90539682 26 19 21
0.19710681 -0.37608415 -0.90554732 30 19 17
0.19682892 -0.37364727 -0.9065969 34 22 17
0.19600908 -0.37340036 -0.90644491 31 20 17
0.1946429 -0.3735283 -0.90588462 28 19 18
0.19601454 -0.37478012 -0.90578216 30 19 17
0.19410713 -0.37371111 -0.90560108 27 19 18
0.19536431 -0.37424296 -0.90580368 29 19 17
0.19428279 -0.37655112 -0.90532345 28 19 20
0.19620501 -0.37653476 -0.90526187 29 19 18
0.19367012 -0.37349689 -0.90560001 27 19 18
0.19384636 -0.37534025 -0.9054395 27 19 20
0.19578767 -0.37648869 -0.90527946 29 19 18
0.18445042 -0.37995079 -0.90303886 39 28 27
0.18303736 -0.3787736 -0.90496218 42 32 32
0.18338479 -0.37894237 -0.90439582 41 31 31
0.18429025 -0.37947139 -0.90298891 39 29 28
0.18351306 -0.37792948 -0.90335381 41 31 31
0.18365262 -0.37896749 -0.90387791 40 30 30
0.18262227 -0.37830374 -0.90566427 43 33 33
0.18487285 -0.38049155 -0.90358257 38 27 27
0.18269435 -0.37832779 -0.90572065 43 33 33
0.18221208 -0.37708265 -0.90641999 43 35 35
0.18531203 -0.38004211 -0.90405458 38 27 26
0.18552117 -0.37793764 -0.90446943 38 27 27
0.18210907 -0.37762028 -0.90632379 44 34 35
0.18384504 -0.37725699 -0.90551084 41 31 31
0.18549427 -0.37985164 -0.90400708 38 27 26
0.1850533 -0.38014263 -0.90416414 38 28 27
0.18898769 -0.38000709 -0.90461981 27 18 22
0.18865728 -0.37818199 -0.90451723 29 20 25
0.18825585 -0.38084149 -0.90443617 29 20 21
0.1879288 -0.37857419 -0.90433055 31 22 25
0.18768676 -0.37898141 -0.90427095 31 22 25
0.18573424 -0.37904409 -0.90418124 37 27 26
0.18600683 -0.3787542 -0.90425426 37 26 26
0.18559133 -0.37982413 -0.90398669 38 27 26
0.18630517 -0.37705734 -0.90467757 36 26 27
0.18757711 -0.37754852 -0.90455955 32 23 26
0.18644308 -0.37702969 -0.9046849 36 25 27
0.19103846 -0.38060555 -0.90588605 23 14 16
0.19122578 -0.37993041 -0.90562785 24 16 18
0.19228186 -0.37889758 -0.90580374 25 16 19
0.19236611 -0.37922478 -0.90612024 23 15 17
0.19067964 -0.38002619 -0.90521944 25 16 19
0.18999094 -0.37995252 -0.90482432 26 17 20
0.19107418 -0.37736946 -0.90496927 27 19 23
0.19122879 -0.37893641 -0.90500724 26 18 21
0.19077858 -0.37927619 -0.90494043 26 18 21
0.19188114 -0.37793478 -0.90509951 27 19 22
0.19076695 -0.37869039 -0.90493339 26 18 21
0.19361934 -0.37768048 -0.90562922 27 19 20
0.19686459 -0.38064668 -0.90495533 40 24 23
0.19433017 -0.37875777 -0.90579998 29 19 20
0.19475459 -0.37993634 -0.90629971 29 18 19
0.1966871 -0.3807734 -0.9052071 38 23 22
0.19532853 -0.37918454 -0.90523136 34 21 22
0.19630449 -0.37724838 -0.90519059 30 19 18
0.19638006 -0.37934145 -0.90495509 36 22 22
0.19557974 -0.37852058 -0.90507263 33 21 21
0.19489819 -0.37802196 -0.90515053 32 21 21
0.1955443 -0.37803042 -0.90512842 32 21 21
0.19491239 -0.37723073 -0.90523821 29 20 20
0.18309128 -0.38304076 -0.90347779 44 32 27
0.18363746 -0.38232535 -0.90309924 42 30 26
0.18332547 -0.38249251 -0.9028011 43 31 26
0.18497975 -0.38098714 -0.90300596 38 27 26
0.18448426 -0.38184381 -0.90369457 41 29 26
0.18293557 -0.38371274 -0.90404367 46 33 27
0.1851926 -0.38339674 -0.90429294 40 30 25
0.18383726 -0.3843531 -0.904329 44 32 25
0.1843493 -0.3844192 -0.904419 42 32 25
0.18213604 -0.38437471 -0.90408862 48 34 27
0.18692513 -0.38357702 -0.90479499 35 26 22
0.18874116 -0.38235703 -0.90512234 28 19 19
0.18797989 -0.38332218 -0.90520835 31 22 20
0.18942931 -0.38463268 -0.90659332 25 16 15
0.18845345 -0.38373846 -0.90565503 29 20 18
0.18919548 -0.38116753 -0.90476924 26 17 20
0.18884097 -0.38369253 -0.90583032 27 18 17
0.18568461 -0.38141617 -0.90389997 37 27 25
0.18633294 -0.38323614 -0.90451044 36 27 23
0.18879914 -0.38106969 -0.90462929 28 18 20
0.18743961 -0.38133553 -0.90433878 32 22 22
0.18795785 -0.38212848 -0.90466624 31 22 21
0.18617056 -0.38384521 -0.90461564 37 28 23
0.19064721 -0.38255763 -0.90655726 22 14 14
0.18971214 -0.38242805 -0.90573192 25 16 17
0.1904484 -0.38256964 -0.90640128 23 14 15
0.19070758 -0.38173032 -0.90619946 23 14 15
0.1838385 -0.38686898 -0.90412676 45 34 29
0.18544646 -0.3862316 -0.90494323 43 33 26
0.18337287 -0.38798916 -0.90409923 48 36 32
0.18550445 -0.38700631 -0.90515077 45 35 27
0.18319458 -0.38816148 -0.90403134 49 36 32
0.1840028 -0.38757044 -0.90438128 47 35 30
0.18217099 -0.38545892 -0.90403008 48 35 28
0.18280943 -0.38538817 -0.90413845 47 34 28
0.18308808 -0.38502079 -0.90426266 46 34 27
0.18179828 -0.38779858 -0.90344137 50 36 34
0.18394414 -0.38580394 -0.90420729 44 33 27
0.18735337 -0.38630077 -0.90520996 39 29 22
0.18845876 -0.38666856 -0.90568125 36 26 21
0.18747334 -0.38533142 -0.90551645 35 25 20
0.18832304 -0.38583222 -0.90582353 33 23 19
0.18935195 -0.38651684 -0.90617561 32 22 18
0.18850212 -0.38765469 -0.90545392 39 29 23
0.18728931 -0.38769692 -0.90539014 42 32 25
0.18562385 -0.3881017 -0.90542328 47 36 28
0.18654229 -0.3866238 -0.9051249 41 32 25
0.18756205 -0.38751677 -0.90535927 41 31 24
0.18651423 -0.38838384 -0.9055168 46 35 27
0.18602057 -0.38848424 -0.90552229 47 36 28
0.19038783 -0.38857642 -0.90641117 33 24 19
0.18962918 -0.38851768 -0.90585417 38 27 22
0.17631432 -0.32222059 -0.91033447 29 18 26
0.17558841 -0.32527065 -0.91035831 34 24 23
0.17556141 -0.32362685 -0.9105196 33 22 25
0.17532891 -0.32475978 -0.9105168 34 24 24
0.17741884 -0.32581788 -0.90863031 29 18 22
0.17659119 -0.32402584 -0.90999603 29 19 24
0.17651907 -0.32465279 -0.9098199 30 20 23
0.17713501 -0.32327899 -0.90982389 27 16 25
0.17798544 -0.32446316 -0.90885788 28 18 25
0.1796045 -0.3298268 -0.90926355 29 20 26
0.18047866 -0.32937092 -0.90925723 31 24 29
0.17987254 -0.32809678 -0.90936905 34 27 33
0.17964585 -0.32849741 -0.90935159 33 25 31
0.17824222 -0.32709783 -0.90864766 30 20 24
0.17789176 -0.32893062 -0.90905327 27 16 22
0.17912148 -0.32857597 -0.9093287 32 23 30
0.17860897 -0.32721105 -0.90879101 31 21 27
0.17955308 -0.32774201 -0.90922695 34 26 32
0.18212907 -0.33270308 -0.91032416 37 31 41
0.20486997 -0.3356261 -0.90979695 57 35 39
0.20437877 -0.33624998 -0.90967721 58 39 42
0.20479231 -0.33640751 -0.90974575 55 35 39
0.18486929 -0.33910063 -0.91025233 41 38 45
0.18478076 -0.33874312 -0.91024083 41 38 46
0.18578179 -0.34057572 -0.91009718 39 35 40
0.20399903 -0.34034756 -0.90917629 54 40 39
0.2036947 -0.33940649 -0.90913284 54 40 40
0.20427567 -0.33883312 -0.90937847 53 36 38
0.20459911 -0.33798271 -0.90961796 53 35 38
0.18536966 -0.34306937 -0.91039342 37 31 36
0.18550885 -0.34492511 -0.91008419 37 32 38
0.18637449 -0.3453483 -0.90960395 37 32 38
0.18650575 -0.34514555 -0.90958172 37 31 37
0.18745132 -0.34311876 -0.9094578 34 28 32
0.18586618 -0.34409755 -0.90999848 37 31 37
0.18577717 -0.34492251 -0.90995598 37 32 37
0.18711892 -0.34266025 -0.90963405 35 29 33
0.20316198 -0.34548104 -0.9071039 42 31 26
0.20201334 -0.34417975 -0.90729922 51 40 36
0.20283583 -0.3444469 -0.90758407 47 36 31
0.20257728 -0.3442646 -0.90754414 49 38 33
0.20183623 -0.34384891 -0.90737587 52 42 38
0.20366226 -0.34521899 -0.90761596 42 30 24
0.20372917 -0.34238806 -0.90877432 52 41 37
0.20422158 -0.34376711 -0.90846694 46 34 28
0.20364949 -0.34241802 -0.90873557 52 41 37
0.20370765 -0.34345269 -0.90839434 48 37 32
0.20373337 -0.34351167 -0.90838289 48 37 31
0.20316364 -0.34364745 -0.90813309 49 38 33
0.1830795 -0.34910014 -0.91051662 31 26 30
0.18504402 -0.34796306 -0.90937233 33 29 34
0.18514369 -0.34862128 -0.90898979 32 28 34
0.18468159 -0.34960395 -0.90893322 31 27 32
0.18323503 -0.34955999 -0.91017163 31 26 30
0.1840869 -0.34820908 -0.91006696 33 28 33
0.18745393 -0.34890202 -0.90785944 32 28 34
0.18611616 -0.34935716 -0.9081049 31 28 33
0.18738323 -0.34647787 -0.90860516 36 31 38
0.1870057 -0.34675664 -0.90868783 35 30 37
0.18572661 -0.34703311 -0.90927106 35 31 37
0.18581402 -0.34906489 -0.90830088 31 28 33
0.18617614 -0.34821063 -0.90848786 33 29 35
0.18682259 -0.34657505 -0.90887165 36 31 37
0.19036432 -0.34950757 -0.9071852 34 27 34
0.2047126 -0.34605679 -0.90786886 37 23 17
0.2032786 -0.3462044 -0.90697682 40 29 25
0.20489942 -0.34620368 -0.90798622 36 22 17
0.20411867 -0.34573665 -0.90749675 39 26 20
0.20332453 -0.34949031 -0.90727353 37 22 22
0.20220777 -0.34900829 -0.90669554 40 26 25
0.20339772 -0.34782773 -0.90715212 38 25 23
0.20248106 -0.3480843 -0.906739 41 27 26
0.20284586 -0.34784901 -0.90689087 40 27 25
0.18417457 -0.35241529 -0.91012096 28 20 21
0.18438476 -0.35086083 -0.90952128 29 24 27
0.18320648 -0.35073319 -0.91047907 29 23 26
0.18479443 -0.35025713 -0.90901208 30 25 29
0.1841618 -0.35008469 -0.9094981 30 25 29
0.1851235 -0.35184139 -0.90915179 27 21 24
0.18511564 -0.353003 -0.90946043 25 18 20
0.18453948 -0.35284993 -0.90992385 27 19 20
0.18757036 -0.35241753 -0.90812695 28 22 26
0.18578468 -0.35328606 -0.90910053 23 17 19
0.18774749 -0.3522298 -0.90804207 28 23 27
0.18712875 -0.35202295 -0.90843779 27 21 25
0.1886963 -0.35341248 -0.90733582 31 25 30
0.18780696 -0.35213485 -0.90801722 29 23 27
0.18584715 -0.35233545 -0.90884238 25 20 23
0.18815373 -0.3497805 -0.90765661 31 27 33
0.18704674 -0.35082132 -0.9081775 29 24 29
0.18656038 -0.35038722 -0.90817481 29 25 30
0.18759637 -0.35009259 -0.9078638 31 26 31
0.18822245 -0.34987405 -0.90766531 31 27 32
0.19335669 -0.35051295 -0.90666026 38 28 35
0.19225515 -0.35184905 -0.90669298 36 27 33
0.19022816 -0.35280609 -0.90683621 34 28 33
0.19235112 -0.35196057 -0.90667617 36 27 33
0.18956661 -0.35255876 -0.9069618 33 28 33
0.19021346 -0.35270414 -0.90684688 34 28 33
0.18963377 -0.35303313 -0.90689701 34 28 33
0.18948872 -0.35065943 -0.90719187 33 28 33
0.19102235 -0.35166714 -0.90684319 35 28 34
0.20372824 -0.3515608 -0.90746975 31 16 15
0.20462714 -0.35131469 -0.90789944 29 14 13
0.20414622 -0.3499766 -0.90767515 33 18 18
0.20398337 -0.34986421 -0.9075979 34 19 19
0.20201172 -0.35314777 -0.90689856 34 20 17
0.20261514 -0.35103738 -0.90698606 36 21 20
0.20284329 -0.35102564 -0.9070732 35 20 19
0.20259428 -0.35298032 -0.90711164 32 18 15
0.20224561 -0.35160941 -0.90688294 36 21 20
0.20245229 -0.35272893 -0.90703958 33 19 16
0.1822371 -0.35499048 -0.91043347 31 20 16
0.18398552 -0.3545393 -0.90955025 26 18 17
0.18287939 -0.35522357 -0.90981406 28 19 16
0.18337503 -0.35494986 -0.90967333 27 18 16
0.18197358 -0.35695058 -0.90923315 27 18 13
0.18425354 -0.35548183 -0.90931934 25 18 17
0.18275845 -0.35686636 -0.90926492 27 19 15
0.18536262 -0.35682046 -0.90982002 26 20 21
0.18259266 -0.35725608 -0.9093048 27 19 15
0.18466586 -0.3561427 -0.90953726 25 19 19
0.1822558 -0.35699993 -0.90918201 27 18 14
0.18883216 -0.35437384 -0.9074052 32 26 31
0.18781362 -0.35680756 -0.90846783 28 22 26
0.1893706 -0.35445833 -0.9070878 32 26 31
0.18916298 -0.35478181 -0.90727365 32 26 31
0.18913177 -0.35694301 -0.90767801 29 23 28
0.18718326 -0.35641551 -0.90878725 29 23 26
0.18613668 -0.35623822 -0.90939224 27 21 23
0.18839349 -0.35399655 -0.90759939 31 25 29
0.18616828 -0.35507554 -0.90914696 26 20 22
0.1881941 -0.35361475 -0.90764499 30 24 28
0.1864209 -0.3557643 -0.90912914 27 21 24
0.185765 -0.3570618 -0.90977591 27 21 23
0.19081341 -0.35397574 -0.90678722 34 26 32
0.19266012 -0.35497588 -0.90672708 34 25 31
0.19103287 -0.35490274 -0.90689063 34 26 31
0.19171382 -0.35517228 -0.90685499 34 26 31
0.19301389 -0.35683399 -0.90694422 34 25 30
0.19172639 -0.35600907 -0.90697742 33 25 30
0.19075865 -0.35690522 -0.90728009 31 24 29
0.18990329 -0.35737664 -0.90749043 29 23 28
0.19124414 -0.35572648 -0.90699828 33 26 31
0.19199161 -0.35682335 -0.90708333 33 25 30
0.19058542 -0.35665566 -0.90726113 31 24 29
0.19418995 -0.35679701 -0.90682679 35 25 30
0.19391528 -0.35638103 -0.90679473 35 25 30
0.19410729 -0.35737723 -0.90691388 35 25 30
0.1958624 -0.3566851 -0.90665942 38 26 30
0.19994277 -0.35633096 -0.90686882 31 19 18
0.20032425 -0.35594594 -0.90686369 31 18 17
0.19894592 -0.35614905 -0.90668207 37 24 24
0.20032614 -0.35735869 -0.90710187 25 13 13
0.19982383 -0.35634607 -0.90685272 32 19 18
0.20142563 -0.35434014 -0.90683401 32 19 16
0.20325582 -0.35446092 -0.90755951 26 11 9
0.20286608 -0.35447088 -0.90741086 27 13 11
0.20262574 -0.35481104 -0.90737444 26 13 10
0.20469967 -0.35364589 -0.90798163 24 9 6
0.20140141 -0.35596624 -0.90709305 25 14 12
0.20394082 -0.3552613 -0.90818816 23 8 7
0.20281193 -0.35731158 -0.90844369 23 9 8
0.20235816 -0.35713661 -0.90799952 22 9 8
0.20400387 -0.35728973 -0.90934688 24 9 8
0.20371547 -0.35706809 -0.90900415 24 9 8
0.20409647 -0.35667169 -0.90907967 24 9 7
0.20440829 -0.35572582 -0.90880138 24 9 7
0.18505494 -0.35855556 -0.90996319 28 21 23
0.18239483 -0.36066985 -0.90985274 32 24 24
0.18211681 -0.36092287 -0.90984148 33 24 24
0.18358284 -0.3607688 -0.90991145 30 23 24
0.184793 -0.36008433 -0.9099642 28 22 24
0.18388882 -0.36038718 -0.90992296 30 23 24
0.18299747 -0.35767332 -0.90946925 28 20 17
0.18298493 -0.35818914 -0.90955782 28 20 18
0.18219049 -0.35936198 -0.90959322 30 22 20
0.18217289 -0.36079082 -0.90984213 33 24 24
0.18276857 -0.35936868 -0.90971959 30 22 21
0.1862812 -0.36066258 -0.90955132 28 22 25
0.18890654 -0.36020356 -0.90788442 27 21 28
0.18700536 -0.35995924 -0.90909743 28 22 26
0.18755747 -0.36063904 -0.90873891 27 22 26
0.18703152 -0.36109766 -0.90906918 27 22 26
0.1881419 -0.36076385 -0.90836561 27 21 27
0.18777838 -0.35817495 -0.90860581 28 22 26
0.18566506 -0.35780779 -0.90990758 27 21 23
0.18730094 -0.35822561 -0.9089011 28 22 25
0.18617193 -0.35886034 -0.90960401 27 22 24
0.18613 -0.35931093 -0.90963387 27 22 24
0.18793608 -0.35764655 -0.90850377 28 22 26
0.19298032 -0.35950395 -0.9071129 32 24 28
0.19259815 -0.36009753 -0.90717447 31 24 28
0.19081652 -0.36022493 -0.90734869 29 22 29
0.19285265 -0.36094841 -0.90718675 31 24 27
0.19039787 -0.36092836 -0.90741837 28 21 28
0.19046307 -0.35993743 -0.90739 29 22 29
0.18956928 -0.36050156 -0.9075163 27 21 28
0.1906316 -0.35863227 -0.90737855 29 22 28
0.190823 -0.35930568 -0.90734333 29 22 29
0.18978983 -0.35897538 -0.90749931 28 22 28
0.19078256 -0.35837018 -0.90735888 30 23 28
0.19688457 -0.36041874 -0.90740502 31 22 22
0.19661611 -0.36031395 -0.90740359 31 22 23
0.19502775 -0.3589175 -0.90720433 32 23 26
0.19559036 -0.35899511 -0.90717238 33 23 26
0.19545266 -0.35752031 -0.90682214 37 25 29
0.19614869 -0.35974559 -0.90730625 32 22 24
0.19482943 -0.35925376 -0.90723157 32 23 26
0.1936703 -0.35774767 -0.90703696 33 24 29
0.19603583 -0.36049995 -0.9074204 31 22 23
0.19382265 -0.35977584 -0.90714073 32 24 27
0.19560373 -0.36129674 -0.90740591 30 22 23
0.19776782 -0.35946554 -0.90721452 32 21 22
0.19835889 -0.35836843 -0.90703726 32 20 21
0.20050168 -0.35807148 -0.90729976 22 11 11
0.20110722 -0.35746455 -0.90724528 21 10 9
0.19871159 -0.35950214 -0.90737134 27 17 17
0.20011462 -0.35959473 -0.90765244 22 13 11
0.20003086 -0.35866946 -0.90737683 23 13 12
0.20049472 -0.35928923 -0.90763938 21 12 10
0.20058431 -0.36033317 -0.90794945 21 12 10
0.20058091 -0.35922158 -0.90763688 21 11 10
0.20331162 -0.36001071 -0.90979856 26 10 7
0.20235214 -0.36060855 -0.90915322 22 10 7
0.20318799 -0.36054218 -0.91024119 27 10 7
0.20266305 -0.36006117 -0.90912873 22 10 8
0.20484608 -0.35810989 -0.91025573 27 10 7
0.20174015 -0.3605749 -0.90856594 20 10 8
0.20370841 -0.35838813 -0.90946352 23 10 8
0.20203465 -0.36029112 -0.90871239 20 10 8
0.20232834 -0.3584967 -0.90843439 21 10 8
0.20183869 -0.36034822 -0.90857798 20 10 8
0.20312466 -0.35843498 -0.90902841 22 10 8
0.20322813 -0.35808533 -0.90900981 23 10 8
0.18266122 -0.36511555 -0.90852344 39 23 22
0.18478973 -0.36348566 -0.91010064 31 23 25
0.18370315 -0.36480755 -0.90945256 36 23 24
0.18397933 -0.36470905 -0.90969342 35 23 25
0.18467034 -0.36220777 -0.90946192 31 23 24
0.18264487 -0.36430049 -0.90821731 38 23 22
0.18228824 -0.36329415 -0.90871233 37 23 22
0.18315633 -0.36311471 -0.90885872 35 23 23
0.18413791 -0.36158276 -0.90979558 30 23 24
0.18223627 -0.36239892 -0.9092294 35 24 23
0.18313462 -0.363552 -0.90860385 36 23 22
0.18171342 -0.36250556 -0.90914208 36 24 23
0.1866186 -0.36448735 -0.9098717 30 23 26
0.18635577 -0.36408871 -0.91006428 30 23 26
0.18624192 -0.36455286 -0.91037059 30 23 27
0.18811564 -0.36517143 -0.9082194 30 22 26
0.18728431 -0.36505434 -0.90922892 30 23 26
0.18871516 -0.36299211 -0.9077493 28 21 26
0.18727122 -0.36351058 -0.90885007 29 22 25
0.1892295 -0.36339107 -0.90721601 28 21 26
0.18773164 -0.36261734 -0.90867507 28 22 26
0.18897752 -0.36212873 -0.90773523 27 21 27
0.18919481 -0.3625409 -0.90745103 27 21 27
0.18812627 -0.36380222 -0.90805346 29 22 25
0.18731259 -0.36195961 -0.90916479 28 22 27
0.18761939 -0.36179733 -0.90889829 27 21 27
0.18614283 -0.36136228 -0.9096477 27 22 25
0.19198924 -0.3638818 -0.9070136 32 23 28
0.19212073 -0.36435407 -0.90690416 32 23 27
0.19101696 -0.36479366 -0.90674829 31 23 26
0.18987714 -0.36209863 -0.90735567 28 21 28
0.19148356 -0.36473671 -0.90678275 32 23 26
0.19095401 -0.36241445 -0.90726846 29 22 28
0.19166128 -0.36281767 -0.90715909 30 23 28
0.18951838 -0.36134666 -0.90751684 27 21 28
0.19288185 -0.36399716 -0.90691936 33 24 27
0.19245706 -0.36419007 -0.90693927 33 24 28
0.19486262 -0.36441323 -0.90705228 32 22 24
0.1934766 -0.36512712 -0.90676934 34 24 27
0.19405341 -0.36456677 -0.90689439 34 24 26
0.19605263 -0.36330673 -0.90730888 30 21 22
0.19486377 -0.36469033 -0.90704483 32 22 24
0.19697264 -0.36224443 -0.90751296 29 20 21
0.19524378 -0.3628684 -0.90720475 32 23 24
0.19395883 -0.36386076 -0.9069559 33 24 26
0.19339187 -0.36204499 -0.90708321 32 24 27
0.19365506 -0.36265165 -0.907049 32 24 26
0.19640157 -0.36152154 -0.90747654 30 21 22
0.19808675 -0.36449182 -0.90769452 25 14 15
0.19948073 -0.36309114 -0.90799719 22 13 12
0.20068404 -0.36390096 -0.90900069 19 11 9
0.19981009 -0.364234 -0.90861052 21 12 11
0.20075215 -0.36467436 -0.909325 19 11 9
0.20089965 -0.36501524 -0.90953684 19 11 8
0.20082405 -0.36488214 -0.90944356 19 11 8
0.19797184 -0.36246392 -0.90769762 27 17 17
0.19785666 -0.3620916 -0.90768588 27 18 18
0.19755061 -0.36277115 -0.90760851 28 18 18
0.1982519 -0.36222833 -0.9077577 26 17 17
0.19754359 -0.36201772 -0.907628 28 19 19
0.18500473 -0.36889306 -0.90910077 35 25 25
0.18353844 -0.36901593 -0.90981776 41 28 31
0.18251474 -0.3690753 -0.91033995 45 31 36
0.18421231 -0.36847571 -0.90988332 38 27 29
0.18314826 -0.36548832 -0.90924692 38 24 25
0.18285136 -0.36557639 -0.90902507 39 24 25
0.18187429 -0.36559778 -0.90807843 42 24 23
0.1823971 -0.3678149 -0.91038173 44 30 35
0.18168882 -0.36737961 -0.9093321 45 28 31
0.18361515 -0.36566499 -0.90985 37 24 26
0.18583956 -0.36840683 -0.90895814 32 24 24
0.18567364 -0.36817142 -0.90928501 32 24 24
0.1857058 -0.36721846 -0.91003716 31 24 26
0.18666841 -0.36630294 -0.9095636 30 23 27
0.18621215 -0.36685434 -0.90976655 31 23 26
0.1863756 -0.36568105 -0.91021562 30 23 27
0.18783627 -0.36787093 -0.90737808 29 23 25
0.18896085 -0.36586121 -0.90688396 29 22 25
0.18906319 -0.36595657 -0.90671057 29 22 25
0.1869363 -0.36661983 -0.90909243 30 23 26
0.18684748 -0.36604393 -0.90947026 30 23 27
0.18765305 -0.36551854 -0.90869457 30 23 26
0.18710759 -0.36578131 -0.90926266 30 23 27
0.19560233 -0.36793777 -0.90684175 32 20 21
0.19486988 -0.3679198 -0.90666598 32 21 23
0.19584255 -0.36792764 -0.90690202 32 20 20
0.19454788 -0.36552712 -0.90693694 32 22 24
0.19416918 -0.36559668 -0.90685719 33 23 25
0.19481368 -0.36604503 -0.90692937 32 22 23
0.19709444 -0.36891115 -0.90704119 31 18 16
0.19600792 -0.36545029 -0.90722281 29 19 21
0.1995424 -0.36898482 -0.90906328 30 15 14
0.20077763 -0.36809939 -0.90999645 27 13 12
0.19961889 -0.3668052 -0.9086954 23 13 11
0.20112306 -0.36748475 -0.91018391 26 12 10
0.20008413 -0.36906445 -0.90956622 30 15 13
0.19987631 -0.3684864 -0.90926367 29 14 13
0.20002556 -0.3686218 -0.90942496 29 14 13
0.19773413 -0.36819685 -0.90742838 29 16 15
0.1979059 -0.36736664 -0.90762222 27 16 15
0.197835 -0.36693189 -0.90762937 27 16 15
0.19843228 -0.36779329 -0.90788311 27 15 13
0.19739905 -0.36703408 -0.90736228 28 16 16
0.19727741 -0.36867461 -0.907107 30 17 16
0.18376669 -0.37120557 -0.90906596 34 26 27
0.18512806 -0.37208292 -0.90747035 28 22 20
0.18385795 -0.37103263 -0.90907562 34 26 27
0.18496081 -0.37046868 -0.90842462 32 24 23
0.18519463 -0.36976492 -0.90858066 32 25 23
0.18513793 -0.37212268 -0.90744197 28 22 20
0.1841668 -0.37113509 -0.90876222 33 25 25
0.18452556 -0.37044191 -0.90880704 33 25 25
0.18178472 -0.37266731 -0.90994179 37 29 33
0.18204287 -0.37200806 -0.9099384 38 29 33
0.18258628 -0.36969709 -0.91012788 43 30 34
0.18310317 -0.36997893 -0.90977973 40 29 32
0.18350346 -0.37081507 -0.90937841 36 27 28
0.18687175 -0.36969295 -0.90723997 29 23 23
0.18756498 -0.36963511 -0.90670687 28 22 24
0.18571413 -0.37031078 -0.90786499 30 23 21
0.18610846 -0.37189972 -0.90673625 27 21 20
0.18562278 -0.37117547 -0.90749896 29 22 20
0.19624327 -0.37063614 -0.90678316 33 21 19
0.19690581 -0.36925501 -0.90695894 31 18 17
0.19650055 -0.37163684 -0.90682501 34 22 18
0.19722398 -0.37298527 -0.90699732 35 22 17
0.19983596 -0.37189975 -0.91000003 33 18 17
0.1996232 -0.3728936 -0.91016585 34 20 18
0.19897297 -0.37213096 -0.9089244 34 20 16
0.1997405 -0.37228924 -0.91004843 33 19 17
0.19989681 -0.37250128 -0.9103601 33 19 18
0.19908784 -0.37163097 -0.90885174 33 19 16
0.19859628 -0.37045723 -0.90822929 32 18 15
0.19766554 -0.37219581 -0.90737551 34 21 16
0.1990733 -0.36970103 -0.90866542 31 17 15
0.19782253 -0.37034643 -0.90753549 32 19 16
0.19827959 -0.37042496 -0.90794516 32 18 15
0.19766161 -0.36992472 -0.90739524 32 18 15
0.19727246 -0.37287277 -0.90701556 35 22 16
0.18178116 -0.37584195 -0.90771067 42 34 36
0.18171211 -0.37430161 -0.90890151 39 31 34
0.18227413 -0.37450543 -0.90824652 37 30 32
0.1820451 -0.37392488 -0.90890157 37 30 32
0.1837486 -0.37394083 -0.90744489 32 26 26
0.18216154 -0.37518102 -0.90780568 39 32 33
0.18475541 -0.37331086 -0.90709156 27 22 21
0.18372351 -0.3745386 -0.9069916 33 27 26
0.18319723 -0.37354496 -0.90822649 33 26 27
0.18343642 -0.37372297 -0.90788245 32 26 26
0.19689879 -0.37309149 -0.906874 34 22 17
0.19246659 -0.3802354 -0.90676421 21 13 15
0.19297634 -0.38016748 -0.90701598 21 13 15
0.19426312 -0.37992278 -0.90668565 26 16 17
0.19345421 -0.3798393 -0.90704501 21 13 16
0.19193999 -0.38226235 -0.90719783 22 13 14
0.19172049 -0.38097864 -0.90665036 21 13 14
0.19064139 -0.38315374 -0.90678227 23 14 14
0.1918098 -0.38275805 -0.90725684 22 13 15
0.19182938 -0.3824434 -0.90719199 22 13 15
0.19285007 -0.38375378 -0.90795738 22 13 15
0.19152947 -0.3843258 -0.90749753 23 14 15
0.19067454 -0.38397571 -0.9070313 24 14 15
0.19331549 -0.38387409 -0.90819484 21 12 15
0.19502339 -0.38408282 -0.90681285 33 16 17
0.193793 -0.38301823 -0.90763593 24 13 15
0.19486538 -0.38448659 -0.90704501 32 15 17
0.19468534 -0.38204834 -0.90690237 29 15 17
0.19514562 -0.38302046 -0.90670997 33 16 17
0.19477251 -0.38257059 -0.90687692 30 15 17
0.1898039 -0.3857623 -0.90667844 26 17 15
0.19044743 -0.38588732 -0.9070375 21 14 13
0.19118099 -0.38822061 -0.90700448 25 19 16
0.19033735 -0.38617042 -0.90691459 23 15 14
0.19202292 -0.38703334 -0.90770102 15 11 11
0.19172521 -0.38669556 -0.9075852 17 11 12
0.19208978 -0.3857494 -0.90779978 20 12 13
0.19327384 -0.38809758 -0.9082064 10 8 10
0.19121261 -0.38646409 -0.90736717 18 12 12
0.1779526 -0.33369693 -0.91496098 34 20 26
0.20896631 -0.34288752 -0.91541034 37 18 15
0.20860377 -0.34233651 -0.91593534 37 19 16
0.2083863 -0.34182695 -0.91671413 38 20 18
0.18212727 -0.35622716 -0.91447419 32 19 17
0.18181467 -0.35650185 -0.91520673 32 18 16
0.20768742 -0.36014295 -0.91566652 25 12 12
0.20833972 -0.35922515 -0.91757476 25 13 12
0.2080774 -0.35955399 -0.91682249 25 12 12
0.20801213 -0.35993946 -0.91652119 25 12 13
0.20847075 -0.35969901 -0.91771066 25 13 14
0.20828988 -0.36074162 -0.91688508 24 13 16
0.2078312 -0.35938323 -0.91623694 25 12 11
0.20744213 -0.36031055 -0.91474658 21 10 12
0.20761564 -0.35754722 -0.91542733 14 6 4
0.20782115 -0.35761309 -0.91621077 18 8 5
0.20778933 -0.35930261 -0.91607779 24 11 10
0.20741954 -0.35939366 -0.91466665 18 8 9
0.20470013 -0.36657301 -0.91495383 14 4 3
0.20506315 -0.36745432 -0.91522437 10 2 1
0.20448741 -0.36695203 -0.91449821 12 4 3
0 0 0 1 0 0 0 1 0 0 0 1 0 0 0 0 0 779 1 0 0
