ply
format ascii 1.0
comment PCL generated
element vertex 1017
property float x
property float y
property float z
property uchar red
property uchar green
property uchar blue
element camera 0
property float view_px
property float view_py
property float view_pz
property float x_axisx
property float x_axisy
property float x_axisz
property float y_axisx
property float y_axisy
property float y_axisz
property float z_axisx
property float z_axisy
property float z_axisz
property float focal
property float scalex
property float scaley
property float centerx
property float centery
property int viewportx
property int viewporty
property float k1
property float k2
end_header
-0.25367945 0.64928579 -0.87889785 187 158 155
-0.25260898 0.64685118 -0.87704128 185 159 155
-0.25240403 0.64798349 -0.87675494 182 156 152
-0.2530461 0.64806926 -0.87789947 182 155 151
-0.25235108 0.64786434 -0.87665296 183 157 152
-0.25281164 0.64693701 -0.87740654 185 158 154
-0.25283989 0.64656746 -0.87743151 185 159 155
-0.25195113 0.64970684 -0.87607074 179 152 148
-0.25130486 0.64960009 -0.87544572 179 153 149
-0.25289363 0.64570391 -0.87776947 184 157 154
-0.25314507 0.64373815 -0.87884092 180 150 150
-0.25232616 0.64622152 -0.8765983 185 160 155
-0.25266245 0.64524698 -0.87750483 183 156 153
-0.25255281 0.64593303 -0.87709206 184 158 155
-0.25281823 0.64613914 -0.87749714 185 159 155
-0.25214434 0.64533961 -0.87651604 182 154 152
-0.25226074 0.64475906 -0.8768912 180 150 150
-0.25261888 0.64399493 -0.87779665 179 149 149
-0.25226805 0.64421034 -0.87703943 178 145 146
-0.25193548 0.64475435 -0.87625891 178 145 146
-0.25125378 0.643888 -0.87587816 175 140 142
-0.25066882 0.64285177 -0.87562275 172 133 137
-0.25080124 0.64394027 -0.87546939 176 142 143
-0.25229686 0.64201123 -0.87759334 172 132 138
-0.25280967 0.64160627 -0.87869388 177 142 145
-0.2526916 0.64137393 -0.87849706 176 141 145
-0.25273073 0.64087945 -0.87866163 177 143 146
-0.2520569 0.64183873 -0.87714446 171 129 136
-0.25200155 0.64137244 -0.87712234 171 132 137
-0.25266397 0.63936675 -0.87879205 180 147 150
-0.25120032 0.64018738 -0.87656498 169 134 138
-0.2501564 0.63913721 -0.87581414 167 132 137
-0.25115976 0.64104658 -0.87636918 168 128 135
-0.25171191 0.64209104 -0.87667578 168 126 133
-0.25074697 0.63945776 -0.87628949 169 135 139
-0.25123733 0.64222687 -0.8762399 169 128 134
-0.25034717 0.64205062 -0.87549591 170 132 135
-0.25047499 0.64153868 -0.87568998 169 130 135
-0.25229231 0.63623595 -0.87916887 174 145 145
-0.2520853 0.63600463 -0.87885588 172 144 143
-0.25253004 0.6374945 -0.87913024 178 148 149
-0.25196239 0.63797575 -0.87782073 174 148 146
-0.25121635 0.63630223 -0.87752467 168 140 141
-0.25064614 0.6366235 -0.876683 165 136 139
-0.25118673 0.63703334 -0.87720263 168 141 142
-0.25121585 0.63667524 -0.8773787 168 140 141
-0.25155711 0.63549167 -0.87826872 168 140 141
-0.24962965 0.63516337 -0.8759746 158 126 134
-0.24982941 0.63800085 -0.87569004 165 132 137
-0.25067303 0.63748235 -0.87652022 167 138 140
-0.25015846 0.6372413 -0.87608516 164 133 138
-0.25057548 0.63824481 -0.87633437 168 138 140
-0.25206116 0.63279223 -0.87916136 167 135 138
-0.25134152 0.63308495 -0.87811667 166 136 139
-0.25191298 0.63095123 -0.8786732 166 131 137
-0.25133434 0.63336182 -0.87813091 167 136 139
-0.24982332 0.6311506 -0.87599206 161 127 134
-0.25090942 0.63119841 -0.87739843 163 129 136
-0.25021315 0.63473481 -0.87685931 161 130 136
-0.24952802 0.63375431 -0.87589276 158 125 133
-0.25036114 0.63348037 -0.87691015 162 131 136
-0.24927948 0.63335919 -0.87553781 157 124 133
-0.25053725 0.63382989 -0.87716907 163 132 137
-0.25138983 0.63407576 -0.87826693 167 138 140
-0.25220296 0.62927222 -0.87920755 164 129 134
-0.25211495 0.62773341 -0.87894541 163 128 133
-0.25071788 0.62699056 -0.87741965 164 130 134
-0.24991658 0.62783098 -0.87663281 166 132 138
-0.25065109 0.62798476 -0.87736917 165 131 136
-0.25187042 0.6289354 -0.87860298 164 129 134
-0.25191954 0.62753367 -0.87862909 162 127 131
-0.25033289 0.62872362 -0.87706339 166 132 138
-0.24929479 0.62901324 -0.87570524 164 130 137
-0.24984695 0.62972879 -0.87625521 163 129 136
-0.25101507 0.63066733 -0.87754965 164 129 136
-0.25062606 0.62927353 -0.87736481 166 132 138
-0.24940988 0.6301471 -0.87559557 161 127 135
-0.25015754 0.63056827 -0.87646502 162 128 135
-0.25052613 0.62694001 -0.87723345 164 130 135
-0.25178435 0.62650889 -0.87868887 162 127 131
-0.25049421 0.62386763 -0.87861496 164 133 134
-0.25043648 0.62611431 -0.87752372 164 131 135
-0.24993259 0.62605053 -0.87704968 165 132 136
-0.25027552 0.62450868 -0.87810159 165 133 135
-0.24912065 0.62626958 -0.87613767 167 134 139
-0.24994241 0.62319982 -0.87774909 164 134 133
-0.24868567 0.6237573 -0.87546939 164 134 134
-0.24900812 0.62596172 -0.87599361 166 134 138
-0.250121 0.62330449 -0.87806827 164 134 133
-0.25035927 0.62325996 -0.87849891 164 134 133
-0.24869086 0.62682348 -0.87539953 167 134 140
-0.25062266 0.62177193 -0.87894046 164 135 133
-0.25083923 0.62215436 -0.87926728 164 134 133
-0.2495995 0.62084734 -0.87747937 166 136 135
-0.25023127 0.62138641 -0.87837857 165 135 134
-0.25014767 0.62167883 -0.87829375 165 135 134
-0.25029942 0.619717 -0.87831342 166 136 135
-0.24900253 0.62077916 -0.87654871 166 137 135
-0.24931102 0.62301558 -0.87662172 164 134 133
-0.24900141 0.62134117 -0.87642527 165 136 134
-0.24941984 0.62304217 -0.8768121 164 134 133
-0.24929205 0.62257618 -0.8766824 164 135 133
-0.24962154 0.62233043 -0.87732947 164 135 133
-0.24936333 0.61589175 -0.8771472 171 131 134
-0.24961483 0.61635721 -0.87746865 170 131 134
-0.25055856 0.61719239 -0.87903339 169 135 133
-0.24880707 0.61560345 -0.87614465 171 128 135
-0.24867041 0.61556029 -0.87588745 171 128 135
-0.24922261 0.61602682 -0.87681174 170 130 135
-0.24866995 0.61737937 -0.87595248 169 133 136
-0.2503067 0.61824393 -0.87820894 167 134 135
-0.24866188 0.61723483 -0.87593198 169 133 136
-0.24853271 0.61688828 -0.87573522 170 132 136
-0.24954012 0.61887366 -0.87722147 167 137 135
-0.24934931 0.61737174 -0.87686455 169 132 135
-0.24986801 0.61164975 -0.87843823 166 129 129
-0.24903831 0.6114375 -0.87731403 154 117 116
-0.2485932 0.61239141 -0.87634891 156 115 118
-0.24892414 0.61289793 -0.8767339 163 122 126
-0.24858315 0.61359584 -0.87606901 163 121 127
-0.25003305 0.61199945 -0.87861615 170 133 134
-0.24839288 0.61460483 -0.87557143 168 124 131
-0.25022823 0.6125719 -0.87902886 170 134 133
-0.25019133 0.61511189 -0.87906182 172 135 132
-0.24932547 0.61359096 -0.87726074 171 130 134
-0.24932791 0.61385161 -0.8772766 171 130 134
-0.25021616 0.6139816 -0.87906396 171 135 132
-0.2485406 0.61505795 -0.87574792 171 127 135
-0.24961007 0.61071545 -0.8784638 156 121 120
-0.2482938 0.61123341 -0.87632233 144 105 105
-0.24911961 0.61046559 -0.87787426 149 113 112
-0.24891898 0.60940272 -0.8780852 140 106 104
-0.24887566 0.61110365 -0.8772223 150 113 112
-0.24979302 0.60976988 -0.8791725 153 119 117
-0.2483201 0.60757673 -0.87770212 133 102 100
-0.24835733 0.60783732 -0.87768787 134 102 100
-0.2485861 0.60897022 -0.87775612 135 101 99
-0.24702393 0.60802174 -0.87552142 144 111 111
-0.24779548 0.60937244 -0.87620384 140 105 104
-0.24769861 0.61020803 -0.87578362 142 105 106
-0.24772242 0.61088133 -0.87566179 141 104 103
-0.24870443 0.60629165 -0.87862062 137 109 107
-0.24900071 0.60634875 -0.87919128 135 108 105
-0.24890804 0.60595989 -0.8790518 138 111 109
-0.24863108 0.60720205 -0.87838209 133 103 100
-0.24811739 0.60628593 -0.87735403 133 102 103
-0.24842271 0.60492736 -0.87809682 139 112 113
-0.24854754 0.60457611 -0.87841016 141 117 117
-0.24764472 0.60406572 -0.87655079 125 91 96
-0.24799791 0.60712141 -0.87714529 134 101 101
-0.24803016 0.60515791 -0.87709278 127 95 98
-0.24698779 0.60652852 -0.87568343 139 105 107
-0.24774455 0.60663021 -0.87679195 133 100 100
-0.24716868 0.6049931 -0.87597531 129 93 98
-0.24826182 0.60209709 -0.87797958 135 97 105
-0.24871245 0.60304552 -0.87892026 145 120 122
-0.24874191 0.60278052 -0.87906832 147 120 123
-0.24811766 0.60285318 -0.87740123 127 92 99
-0.24659303 0.60067511 -0.87623197 148 117 110
-0.24776195 0.60300112 -0.87686539 126 96 98
-0.24659461 0.60014349 -0.87639791 152 119 113
-0.2469655 0.60216194 -0.87617749 135 105 103
-0.2457009 0.5999788 -0.87540239 155 129 114
-0.25996068 0.67812461 -0.89880782 143 111 97
-0.25989339 0.67470115 -0.89864278 137 108 106
-0.25610244 0.67421389 -0.89670885 144 123 112
-0.25765061 0.67546767 -0.89764571 101 80 79
-0.25649431 0.67442775 -0.89693415 136 115 106
-0.25706801 0.67456067 -0.8972435 129 107 101
-0.25810948 0.67542911 -0.89787656 100 78 78
-0.25634903 0.6769833 -0.89715153 69 53 49
-0.25751093 0.67749649 -0.89771348 89 67 61
-0.25920784 0.67671984 -0.89843464 127 97 89
-0.2573725 0.67629093 -0.89759254 83 64 63
-0.2583608 0.6771819 -0.89807832 108 82 75
-0.25886184 0.67604107 -0.89824671 117 90 86
-0.25890937 0.67639858 -0.89828545 119 91 86
-0.26369101 0.67090482 -0.89633834 209 179 176
-0.26328233 0.67023706 -0.89587033 200 170 167
-0.26333675 0.67005599 -0.89613885 201 171 168
-0.2631222 0.67039466 -0.89536953 196 168 163
-0.25935122 0.67292207 -0.8985061 143 114 115
-0.25859982 0.67178023 -0.89830112 156 127 124
-0.25757617 0.67019653 -0.89802969 175 145 138
-0.25898677 0.67196637 -0.89851791 153 124 122
-0.25916898 0.67305219 -0.89834374 142 115 114
-0.25779229 0.67329669 -0.89758211 148 123 118
-0.25751069 0.67220491 -0.89754266 157 131 125
-0.25701767 0.67297775 -0.89721566 155 131 122
-0.25629675 0.6705603 -0.89707816 176 150 139
-0.25632119 0.67243326 -0.89691085 163 139 128
-0.25718302 0.67321044 -0.89727807 152 128 120
-0.26376992 0.66956937 -0.89744169 210 179 176
-0.26390001 0.66783154 -0.89830673 212 185 175
-0.26384309 0.66801095 -0.89807761 211 184 174
-0.26367229 0.66807336 -0.89767259 210 183 173
-0.26197863 0.66605455 -0.89496821 189 159 158
-0.26357573 0.66691375 -0.89787793 210 185 171
-0.26331314 0.66741681 -0.89717776 206 178 169
-0.26334229 0.66776282 -0.8971172 206 178 170
-0.26329634 0.66807657 -0.89691705 205 176 170
-0.2632477 0.66907346 -0.89645839 203 172 170
-0.26256755 0.66775179 -0.89551318 194 164 162
-0.26339212 0.66957378 -0.89654863 204 173 170
-0.25715819 0.66895181 -0.8978048 180 151 145
-0.25670096 0.66936082 -0.89749247 181 153 144
-0.25773385 0.6687389 -0.89820153 178 148 144
-0.25782341 0.6677348 -0.89825225 179 149 147
-0.25680736 0.66605121 -0.89740771 179 155 151
-0.25665498 0.66680104 -0.89733601 180 156 150
-0.25624612 0.66756022 -0.89707029 180 157 149
-0.25792927 0.66639465 -0.89827907 179 150 151
-0.256457 0.66804957 -0.897259 181 155 148
-0.26047066 0.66216278 -0.89611983 176 159 149
-0.26102349 0.66242141 -0.8957029 184 166 157
-0.26161247 0.66354573 -0.89523637 190 168 162
-0.26083848 0.66295195 -0.89582622 180 160 152
-0.26135805 0.66407347 -0.89641446 183 160 152
-0.26180276 0.66528463 -0.89558208 187 160 156
-0.2623477 0.66517794 -0.89640713 195 168 161
-0.2620768 0.66541851 -0.89577943 191 163 158
-0.26109052 0.66359985 -0.89661944 180 159 150
-0.26181144 0.66364777 -0.89749163 189 168 156
-0.26132664 0.66320413 -0.89738226 184 164 152
-0.26124057 0.66354668 -0.89783758 182 161 151
-0.26154661 0.66361684 -0.89792091 186 165 153
-0.26020199 0.66315413 -0.89744353 169 149 142
-0.26021194 0.66385782 -0.89795142 169 145 141
-0.26071858 0.66339755 -0.8976742 176 155 146
-0.26259574 0.66558808 -0.8963517 197 170 163
-0.26315445 0.66599828 -0.89734674 205 180 167
-0.25850791 0.66564512 -0.89834732 171 144 145
-0.25697255 0.66509777 -0.89681476 174 155 148
-0.2564325 0.66563898 -0.89682138 176 157 149
-0.25918049 0.66431528 -0.89781773 165 142 139
-0.25769567 0.66447377 -0.89687836 172 153 145
-0.25919369 0.66388184 -0.89751494 165 144 140
-0.2591618 0.66489691 -0.89822346 165 139 139
-0.25656608 0.66385329 -0.89682966 182 160 152
-0.25800452 0.66339201 -0.89671272 173 154 145
-0.25757939 0.66237444 -0.89686716 181 159 150
-0.25751293 0.66389066 -0.89671719 175 156 147
-0.2565234 0.66310406 -0.89691246 186 162 154
-0.26103881 0.6606344 -0.89591599 195 177 167
-0.26107457 0.66193521 -0.89569861 187 169 160
-0.26092371 0.66022521 -0.89606142 196 178 167
-0.26117182 0.66154349 -0.89568394 191 173 163
-0.26088408 0.65897608 -0.89606583 198 179 167
-0.26100564 0.65834248 -0.8959111 199 181 167
-0.26178026 0.65962803 -0.8951444 203 185 172
-0.2613295 0.65968299 -0.89562362 200 181 169
-0.26102245 0.6601162 -0.89596635 197 179 168
-0.25680789 0.66004771 -0.89702523 180 150 149
-0.25840679 0.65870303 -0.89709848 181 156 152
-0.2570354 0.65925282 -0.89698297 173 140 144
-0.25694349 0.65875775 -0.89692879 166 130 139
-0.25723323 0.65863526 -0.89695263 167 133 140
-0.25661403 0.65848321 -0.89686549 159 119 133
-0.25815612 0.66067648 -0.89703876 187 165 155
-0.25710398 0.66135496 -0.89705986 191 166 157
-0.25971642 0.66060281 -0.89687061 175 158 147
-0.25955611 0.66036665 -0.89692366 178 160 149
-0.25945938 0.66083515 -0.89686602 175 158 147
-0.26038596 0.65753722 -0.89644903 191 170 160
-0.26054591 0.65787178 -0.89633608 194 175 163
-0.26049832 0.65806246 -0.89641851 195 176 163
-0.26022592 0.65759307 -0.89662778 190 170 160
-0.26089376 0.65485895 -0.8956899 184 158 159
-0.26120728 0.6565991 -0.89546788 192 169 162
-0.26151463 0.6551891 -0.89521116 195 171 169
-0.25632709 0.65748489 -0.8966884 146 104 123
-0.25828719 0.65547085 -0.89658397 155 121 131
-0.25628155 0.65756023 -0.89669538 146 103 123
-0.25835827 0.65535921 -0.89657402 155 121 131
-0.25594929 0.65606999 -0.89642233 123 92 103
-0.25970799 0.65443194 -0.89657581 166 136 141
-0.25942433 0.65750384 -0.89705861 182 160 154
-0.25913876 0.65546793 -0.89668214 166 135 141
-0.25750855 0.65810192 -0.89693069 164 130 139
-0.25849625 0.65572 -0.89664787 160 126 136
-0.25923231 0.65796745 -0.89711374 183 160 154
-0.26141316 0.65421128 -0.89528382 192 166 169
-0.26092738 0.65297264 -0.89573336 187 162 159
-0.25990766 0.65330553 -0.8965072 170 142 142
-0.25994959 0.65299016 -0.89649284 171 144 142
-0.26146963 0.65353942 -0.89527655 194 170 169
-0.26124671 0.65194273 -0.89530486 191 168 163
-0.2609697 0.65234762 -0.8956812 188 165 159
-0.25633714 0.65088826 -0.89606786 116 100 97
-0.25905767 0.65058088 -0.89664191 162 141 127
-0.25594127 0.65141052 -0.89600766 108 93 91
-0.25626853 0.65289009 -0.89615089 111 93 91
-0.25699201 0.65234751 -0.896281 124 106 100
-0.2576142 0.65139717 -0.89636922 136 117 109
-0.25861841 0.65372872 -0.89646685 148 123 123
-0.25875616 0.65177947 -0.89659476 155 132 123
-0.25860083 0.65194666 -0.89656806 152 130 120
-0.25808409 0.65264028 -0.89647114 142 120 114
-0.25931698 0.65289658 -0.89659172 161 135 132
-0.26121718 0.65000558 -0.89508343 190 168 160
-0.26059309 0.65019852 -0.89581805 183 161 150
-0.26056963 0.65009922 -0.89583629 183 161 149
-0.26089486 0.64951128 -0.89541066 186 164 155
-0.26123086 0.64950585 -0.89506 190 168 161
-0.26017818 0.64689291 -0.89604646 176 153 146
-0.26107699 0.64901519 -0.89520234 188 166 158
-0.25873247 0.64685488 -0.89636248 155 135 128
-0.25621411 0.64770448 -0.89617068 118 101 98
-0.25757319 0.64774853 -0.89623439 137 119 114
-0.25632545 0.64760852 -0.89618385 120 103 99
-0.25644207 0.64655453 -0.8962732 124 105 101
-0.25773349 0.64793956 -0.89622712 139 121 116
-0.25871301 0.6501348 -0.89653552 156 136 124
-0.25859344 0.65000385 -0.89649808 154 134 123
-0.25799742 0.65017343 -0.89638394 144 126 116
-0.25876912 0.64783895 -0.89634609 155 135 128
-0.25939277 0.65014637 -0.89668369 168 146 132
-0.25975031 0.64819384 -0.8965897 172 150 138
-0.26089093 0.6455242 -0.89535332 186 158 158
-0.26004291 0.64500117 -0.89618951 175 147 146
-0.26013193 0.64556128 -0.89609575 176 149 147
-0.26042175 0.64399242 -0.89573175 181 148 153
-0.25997147 0.64271671 -0.89612675 177 140 148
-0.25852761 0.64355439 -0.89646029 158 126 132
-0.25810832 0.64295876 -0.896617 162 132 139
-0.25616342 0.64480978 -0.89651483 134 114 115
-0.25753337 0.64471829 -0.89636892 141 115 117
-0.25602701 0.64344215 -0.89677674 148 129 131
-0.25900966 0.64341432 -0.89644182 162 128 136
-0.25949126 0.643794 -0.89646113 169 136 141
-0.25940731 0.64327979 -0.89646304 168 133 140
-0.25815254 0.64646494 -0.89636356 148 127 122
-0.25835061 0.64506084 -0.89638984 152 125 126
-0.25607622 0.64634305 -0.89626241 119 100 97
-0.2602402 0.64189613 -0.89501143 182 145 149
-0.26002693 0.64190578 -0.89545381 178 141 147
-0.25899553 0.63945049 -0.89493436 165 129 137
-0.25892445 0.63990486 -0.89508355 161 126 134
-0.25929153 0.64058387 -0.89528161 166 130 137
-0.25785428 0.63990378 -0.89563352 143 112 120
-0.2596485 0.64102542 -0.89539808 172 134 142
-0.25961491 0.64122564 -0.89556795 171 134 142
-0.25706744 0.64066195 -0.8962962 140 112 120
-0.25826445 0.64228028 -0.89658731 164 132 140
-0.25769073 0.64155275 -0.89646065 153 123 131
-0.25775802 0.64161885 -0.89647031 154 124 132
-0.25716901 0.64098412 -0.89637029 144 116 124
-0.25676781 0.63748974 -0.89549208 136 108 115
-0.25757346 0.63752794 -0.89519072 151 119 126
-0.25708672 0.63677168 -0.89532793 147 117 123
-0.25591078 0.63657469 -0.89575917 126 101 107
-0.25670356 0.63597637 -0.89541793 145 117 121
-0.25723076 0.63533843 -0.8950218 164 133 137
-0.25354061 0.63865286 -0.89524692 146 121 119
-0.25226378 0.63782054 -0.89506555 158 134 127
-0.25267816 0.63570178 -0.89567506 133 112 108
-0.25200799 0.63544047 -0.89554191 141 121 113
-0.25351492 0.63701957 -0.89561206 132 110 109
-0.25292659 0.63529295 -0.89571071 132 112 108
-0.25497776 0.63670737 -0.89578992 124 100 104
-0.25493449 0.63742936 -0.89583427 119 96 101
-0.25306389 0.63549358 -0.89572251 131 111 107
-0.25565279 0.63735855 -0.89582741 120 95 102
-0.25612062 0.63240308 -0.89515883 151 125 125
-0.25666854 0.63360691 -0.89504838 160 131 133
-0.25610563 0.63232839 -0.89515537 151 125 125
-0.25201008 0.63113266 -0.89803576 159 136 139
-0.25402424 0.63233268 -0.89510453 154 131 125
-0.25208637 0.63448566 -0.89555985 140 121 112
-0.25488079 0.63330436 -0.89544445 141 118 116
-0.25564766 0.63109106 -0.89509785 149 124 123
-0.25268921 0.63446373 -0.89563239 137 117 110
-0.25488496 0.63368201 -0.8955031 140 117 116
-0.25514629 0.63162249 -0.89518219 147 123 121
-0.25290576 0.63457388 -0.89564872 137 116 110
-0.25422257 0.63202381 -0.89499599 158 135 128
-0.25591093 0.63078392 -0.89506406 151 126 125
-0.25607467 0.62838137 -0.89604396 160 134 131
-0.25696161 0.62721395 -0.89545161 161 133 130
-0.25666365 0.62701023 -0.89592069 162 134 131
-0.25634992 0.62775987 -0.89597762 161 134 131
-0.25244796 0.6306451 -0.89857662 142 120 127
-0.2550621 0.63030058 -0.89497519 155 130 129
-0.2521069 0.62755221 -0.89516717 157 133 132
-0.25481403 0.62996435 -0.8950631 152 128 127
-0.25473097 0.62778252 -0.89613158 155 129 128
-0.25357875 0.62822747 -0.89547735 147 123 124
-0.25403723 0.62824512 -0.89564282 150 125 125
-0.25471219 0.62719768 -0.89640939 157 131 130
-0.253961 0.62729388 -0.89607728 153 128 127
-0.25484189 0.62942135 -0.89537525 149 125 124
-0.25716081 0.62645251 -0.89526725 163 133 132
-0.25663415 0.62647521 -0.89593548 164 135 133
-0.25595352 0.62491304 -0.89663762 171 140 140
-0.25711894 0.62364471 -0.89535689 164 130 131
-0.257269 0.62322479 -0.89522731 162 128 129
-0.2570152 0.62344694 -0.89546108 165 131 132
-0.25267184 0.62544823 -0.89562207 155 130 129
-0.25459641 0.62382007 -0.89617991 170 139 140
-0.25267658 0.62596542 -0.89566255 151 126 128
-0.25391465 0.62477356 -0.89601058 162 133 135
-0.25226623 0.62478507 -0.89542902 158 134 130
-0.25384271 0.62422234 -0.89594376 165 137 136
-0.25449768 0.62573493 -0.89632368 161 133 134
-0.25500244 0.62643301 -0.89658606 161 134 133
-0.25440562 0.62613666 -0.8963294 159 132 132
-0.25218967 0.62684369 -0.89555979 145 122 124
-0.25493464 0.62514973 -0.89643019 165 136 137
-0.25588861 0.61977494 -0.89676613 156 123 129
-0.25676927 0.62262028 -0.89573538 165 130 133
-0.25670555 0.62155706 -0.89586926 159 125 128
-0.25714171 0.61976761 -0.89553761 173 138 138
-0.25640193 0.61971414 -0.89627206 159 125 130
-0.25759774 0.62259883 -0.89494383 162 127 127
-0.25711167 0.62170804 -0.89546955 159 124 126
-0.25235358 0.62237298 -0.8953613 165 140 132
-0.25331193 0.62001175 -0.89578736 156 125 126
-0.2528348 0.62147462 -0.89557093 161 134 130
-0.25345919 0.62099719 -0.89583248 160 131 129
-0.25236896 0.62180597 -0.89537621 163 137 130
-0.25438863 0.62185252 -0.8961311 166 137 135
-0.25388789 0.62237877 -0.89591777 168 140 137
-0.25436983 0.62278682 -0.89605987 172 142 140
-0.25272179 0.62230283 -0.89551103 165 140 132
-0.25460681 0.62137806 -0.89624095 164 134 134
-0.25470367 0.62074316 -0.89631909 160 130 131
-0.25602916 0.6180765 -0.89658469 161 128 130
-0.25679868 0.61857802 -0.89586353 174 140 138
-0.25724685 0.61895192 -0.89545012 181 146 143
-0.2563884 0.61665094 -0.89611548 174 142 136
-0.25736722 0.61565042 -0.89496303 189 157 150
-0.25737655 0.61711591 -0.89512831 188 154 148
-0.25720212 0.61673522 -0.89526933 186 153 146
-0.25319389 0.6152789 -0.89580154 158 123 124
-0.25499329 0.61609101 -0.89624304 167 136 129
-0.25207272 0.61800599 -0.8953436 153 119 122
-0.25296199 0.61586142 -0.89570582 157 122 124
-0.25291914 0.61654222 -0.89565563 157 123 124
-0.25208023 0.61908782 -0.89529455 153 120 122
-0.2535764 0.61772484 -0.89579511 159 127 125
-0.25439218 0.61717606 -0.89608359 162 130 127
-0.25534227 0.6157521 -0.89635688 168 138 130
-0.25565669 0.61625111 -0.89652485 166 135 130
-0.2564455 0.61331975 -0.8957876 154 121 116
-0.25604847 0.61193562 -0.89613169 132 97 95
-0.25703263 0.61511409 -0.89526403 184 152 145
-0.25640342 0.61202532 -0.89579803 141 108 103
-0.25647527 0.61152065 -0.89573091 139 108 101
-0.25722888 0.61338174 -0.89503896 172 143 133
-0.2523317 0.61326116 -0.89543021 134 100 102
-0.25219536 0.61141652 -0.89525414 117 85 84
-0.25280032 0.61392182 -0.89561379 141 105 108
-0.25418225 0.61186457 -0.89585763 124 90 89
-0.25233769 0.6145702 -0.89552909 146 110 114
-0.25217775 0.61196584 -0.89528984 122 90 89
-0.25459608 0.61437058 -0.89613372 154 120 118
-0.25554761 0.61491644 -0.89642322 165 134 127
-0.25557405 0.61391234 -0.89637202 153 120 115
-0.25361669 0.61518514 -0.89591575 159 125 125
-0.2558386 0.61313367 -0.89639837 144 111 107
-0.24900097 0.61364782 -0.8967613 85 69 65
-0.24864249 0.61299288 -0.89503711 181 152 142
-0.24811168 0.61503994 -0.89859563 10 8 8
-0.24940632 0.61339641 -0.8967014 80 62 60
-0.24908796 0.61402786 -0.89762765 39 29 28
-0.24928135 0.61315715 -0.89607811 114 92 87
-0.25009516 0.61364049 -0.89671713 75 55 55
-0.25112206 0.61335289 -0.89576739 114 85 85
-0.25067359 0.61295575 -0.89606613 95 70 70
-0.2500245 0.61368454 -0.89678782 72 53 53
-0.25090888 0.6151889 -0.89635873 111 84 88
-0.25052065 0.61322838 -0.89625853 90 67 66
-0.24954742 0.6140666 -0.89728427 55 40 40
-0.25192165 0.61355305 -0.89532167 137 102 105
-0.25690499 0.61124724 -0.89532781 150 124 110
-0.25587648 0.60980612 -0.89616013 153 125 113
-0.2569426 0.60946685 -0.89505982 183 163 139
-0.25273168 0.60949159 -0.89497614 140 112 105
-0.25562552 0.60755217 -0.89590168 197 178 151
-0.25268081 0.6105603 -0.89531499 132 103 96
-0.25330949 0.60860783 -0.89500755 155 131 119
-0.25365391 0.6097793 -0.89554125 150 124 111
-0.25315046 0.61021435 -0.89543182 140 113 103
-0.25308821 0.61050957 -0.89543784 134 105 98
-0.25424084 0.61073869 -0.89578706 131 100 95
-0.25341499 0.61070102 -0.89554703 131 101 95
-0.24812515 0.60781324 -0.89705968 96 83 69
-0.24857801 0.60791439 -0.89591855 150 128 110
-0.24897166 0.60742813 -0.89657086 106 89 78
-0.25630239 0.6058315 -0.89550936 201 179 154
-0.25596145 0.60583955 -0.89592469 197 174 150
-0.25664619 0.60633075 -0.8950001 206 188 160
-0.25639391 0.60461271 -0.89532208 197 175 152
-0.25527766 0.60724497 -0.89574778 192 172 148
-0.25330448 0.60604703 -0.89520144 159 127 121
-0.2530106 0.60538107 -0.8953402 152 116 115
-0.25255075 0.60519964 -0.89516687 144 106 109
-0.25383866 0.60555005 -0.89572656 164 131 124
-0.2537494 0.60502273 -0.89579993 161 125 121
-0.25576943 0.60478896 -0.89608121 191 164 145
-0.25500908 0.60488462 -0.89597499 180 150 136
-0.25382069 0.6041823 -0.8958444 159 121 119
-0.25416982 0.60393083 -0.8959018 163 127 123
-0.25112626 0.60425895 -0.89507169 130 88 98
-0.25159898 0.60397786 -0.89531827 130 85 97
-0.24868849 0.60686409 -0.89651108 101 83 75
-0.24862154 0.60725164 -0.89706051 82 68 60
-0.24859853 0.60537851 -0.89505631 147 115 111
-0.24902782 0.6063332 -0.8952927 148 120 111
-0.25609571 0.60308504 -0.89549363 188 163 143
-0.25504839 0.60087407 -0.89502269 172 148 124
-0.25440297 0.6009562 -0.89538491 160 137 117
-0.25520244 0.60174531 -0.89542967 173 148 127
-0.25483921 0.60188228 -0.89570922 169 143 125
-0.25417748 0.60109222 -0.89558929 158 133 116
-0.25325379 0.60304046 -0.89582932 148 108 110
-0.25450927 0.60287178 -0.89600992 166 134 125
-0.25251228 0.60337061 -0.89570642 137 91 101
-0.25201023 0.60023892 -0.89585936 126 99 92
-0.25208256 0.60291183 -0.8956809 130 85 95
-0.2515713 0.60137111 -0.89533818 149 111 110
-0.25171533 0.60112017 -0.89551955 140 105 103
-0.2498506 0.60302508 -0.89504921 131 91 98
-0.25081864 0.60312063 -0.8952961 132 88 98
-0.25143954 0.60148168 -0.89524072 153 114 113
-0.25081444 0.60131741 -0.89506841 154 118 115
-0.25573567 0.5962404 -0.89494115 170 145 120
-0.25417709 0.59863687 -0.89510012 162 135 115
-0.25497547 0.59740072 -0.89502859 167 142 118
-0.25392371 0.59920889 -0.89507943 161 135 114
-0.25398901 0.5971927 -0.89540124 151 127 108
-0.25276455 0.5963915 -0.89544487 153 124 112
-0.25211528 0.59648919 -0.89552683 149 120 110
-0.25250232 0.59823573 -0.89568126 137 112 100
-0.25206956 0.59587616 -0.89546281 154 123 114
-0.25178248 0.59679008 -0.89546996 149 121 111
-0.25178304 0.59641647 -0.89542824 152 123 114
-0.25146186 0.59849787 -0.89533198 152 126 114
-0.25191933 0.59954649 -0.89585739 126 103 92
-0.25510302 0.59231925 -0.89495146 164 139 120
-0.25297359 0.59233612 -0.89556456 116 91 84
-0.25510058 0.59366435 -0.89504647 159 135 114
-0.25479504 0.59415507 -0.89517117 150 126 107
-0.25279722 0.59542441 -0.89538974 154 125 113
-0.25258669 0.59414631 -0.89553183 133 106 98
-0.25319675 0.59472764 -0.89541095 145 117 105
-0.25451431 0.59532106 -0.89521164 159 133 114
-0.25216672 0.59362906 -0.89562589 124 96 91
-0.25335342 0.59438741 -0.89542556 140 114 101
-0.25092062 0.59186029 -0.89504349 141 110 108
-0.25167081 0.59214526 -0.89557689 112 85 84
-0.25459245 0.59178609 -0.89506179 155 130 114
-0.25362715 0.59155732 -0.89534473 136 110 99
-0.25191781 0.59160662 -0.89579934 97 72 71
-0.25083616 0.59044755 -0.89503247 143 110 106
-0.25122809 0.59095109 -0.89530784 126 96 93
-0.22273906 0.63521695 -0.85957259 135 99 78
-0.22121641 0.63525331 -0.8594268 125 87 64
-0.22462206 0.63335288 -0.85966498 155 122 105
-0.22200151 0.63343424 -0.8593871 138 103 80
-0.22334737 0.63100761 -0.85939783 161 129 109
-0.22139414 0.63366473 -0.85932159 135 98 73
-0.22370148 0.63160819 -0.85948759 157 125 108
-0.22090957 0.63305408 -0.85921371 138 101 74
-0.22365597 0.63240522 -0.85952049 153 120 102
-0.22269064 0.63301528 -0.8594436 144 110 89
-0.22376151 0.63411945 -0.85960317 147 112 92
-0.22397678 0.63325572 -0.85958993 152 118 100
-0.22375527 0.63252628 -0.85953605 153 120 102
-0.22366334 0.63314807 -0.8595522 150 116 97
-0.21810468 0.63154238 -0.85920864 132 89 65
-0.21832931 0.63173646 -0.85923243 131 88 65
-0.21852618 0.63286746 -0.85940158 120 77 60
-0.21738003 0.63185388 -0.85927659 125 79 57
-0.21850297 0.63201886 -0.85927129 129 86 65
-0.21729878 0.63230205 -0.85934794 120 73 54
-0.21981141 0.63341522 -0.85931075 127 87 64
-0.21850251 0.63340729 -0.85945636 115 71 56
-0.21859425 0.6345607 -0.85952699 108 63 48
-0.22562645 0.6296311 -0.85975587 164 135 123
-0.22542512 0.6282509 -0.85956514 164 137 125
-0.22523874 0.62876862 -0.85955566 165 137 124
-0.22502847 0.62765032 -0.85937893 166 142 125
-0.22213528 0.62717891 -0.85889715 163 131 110
-0.2232461 0.62801892 -0.85910094 163 137 114
-0.22327121 0.6272254 -0.8590377 165 138 116
-0.22288887 0.62889218 -0.8591339 161 133 109
-0.22369675 0.63040185 -0.85938978 163 133 114
-0.22449456 0.63065654 -0.85952181 165 136 120
-0.22386388 0.63077879 -0.85944897 163 132 115
-0.21703401 0.63004589 -0.8590489 136 93 65
-0.21738359 0.62977034 -0.85901833 138 95 69
-0.21793695 0.63026232 -0.85905802 140 96 69
-0.21750532 0.63066477 -0.85910344 137 92 65
-0.2186864 0.62952131 -0.85897559 145 103 78
-0.21847147 0.63071907 -0.85908151 142 100 72
-0.21640235 0.62995744 -0.85911179 134 89 62
-0.21655767 0.62926549 -0.85900646 136 95 68
-0.22540313 0.62652355 -0.85938919 165 141 126
-0.22622184 0.62536997 -0.85953903 162 135 128
-0.22692131 0.62500364 -0.85972804 160 130 128
-0.22493377 0.62434644 -0.85913789 164 139 127
-0.22505897 0.62389696 -0.85914898 163 137 127
-0.22622229 0.62391549 -0.85944587 161 132 128
-0.22543369 0.6258291 -0.85933381 165 140 127
-0.22073551 0.62408942 -0.85843444 160 127 108
-0.22087845 0.62493926 -0.85854107 160 126 107
-0.22127923 0.62418097 -0.85853612 160 128 110
-0.22128408 0.62417644 -0.85853654 160 128 110
-0.22415701 0.62345928 -0.85895771 163 135 125
-0.22453959 0.62633806 -0.85913914 167 144 125
-0.22361608 0.62542462 -0.85898566 164 136 120
-0.22431242 0.62420648 -0.85901308 164 138 125
-0.22308102 0.62608427 -0.85895187 164 135 117
-0.22409977 0.62637126 -0.85908777 166 142 123
-0.22057089 0.62359738 -0.85838121 159 127 109
-0.22855608 0.61924863 -0.85966867 146 116 123
-0.22627346 0.62303942 -0.85941797 160 130 129
-0.22698586 0.62179273 -0.85948354 156 125 127
-0.22819807 0.61996871 -0.85963148 148 118 124
-0.22674403 0.62165898 -0.85941023 156 126 126
-0.2256275 0.62157923 -0.85910809 157 129 125
-0.22500992 0.62246221 -0.85903865 161 134 127
-0.22797546 0.61955589 -0.85953701 148 118 123
-0.22637759 0.62098771 -0.85925192 154 126 125
-0.22578722 0.62158805 -0.85915536 157 129 125
-0.22502749 0.61937678 -0.85866219 149 123 120
-0.22093627 0.62193865 -0.858244 157 127 110
-0.22078329 0.62224269 -0.85825318 158 127 110
-0.2218477 0.62152302 -0.85834074 156 126 113
-0.22326209 0.62158805 -0.85858458 157 129 119
-0.22272772 0.62232536 -0.85858452 159 130 118
-0.22347927 0.62267435 -0.85875601 161 133 122
-0.22160026 0.62286937 -0.85845923 160 130 114
-0.22372738 0.62075782 -0.85856134 154 126 119
-0.22064726 0.62203741 -0.85821718 157 126 109
-0.22064646 0.62211889 -0.858226 158 127 109
-0.22520666 0.61779547 -0.85858172 143 118 114
-0.22749758 0.61843216 -0.85931915 144 117 119
-0.2273747 0.61901063 -0.85930675 146 117 121
-0.22690167 0.61799526 -0.85912937 143 118 117
-0.22654313 0.6188221 -0.85905862 146 119 120
-0.22595394 0.61872131 -0.85888422 146 120 119
-0.22774585 0.61709583 -0.85933763 140 116 115
-0.22404683 0.61862278 -0.85836959 147 120 115
-0.22314288 0.61836213 -0.85820127 146 119 110
-0.23538662 0.64699084 -0.86355442 143 119 110
-0.23527396 0.64342541 -0.86357021 146 112 111
-0.23535164 0.6462059 -0.86352772 145 119 110
-0.23558502 0.64579296 -0.86364245 145 119 111
-0.23346171 0.64614397 -0.86269271 140 108 104
-0.23392788 0.64458179 -0.86294228 141 108 106
-0.23379549 0.64404553 -0.86288095 141 108 107
-0.2330572 0.64397269 -0.86252904 139 107 105
-0.23421653 0.6430167 -0.86308295 142 110 109
-0.23335728 0.64464635 -0.86267126 140 107 105
-0.23394187 0.64348835 -0.8629514 142 109 108
-0.23199756 0.6427027 -0.86210167 136 107 105
-0.23161212 0.64273858 -0.86198682 135 106 103
-0.23356557 0.64238662 -0.86278063 140 110 109
-0.23464589 0.63948476 -0.8634094 146 118 115
-0.2336788 0.64086497 -0.86289424 142 114 111
-0.23433472 0.64213407 -0.86315727 143 111 110
-0.23311642 0.64240801 -0.8625657 139 110 108
-0.23274443 0.63990194 -0.86241806 142 116 112
-0.23279482 0.63868433 -0.8624543 145 119 115
-0.23372433 0.6387043 -0.86293882 146 119 116
-0.23482524 0.63898885 -0.86351049 147 119 117
-0.23125143 0.63909465 -0.86190498 142 115 109
-0.23038767 0.64028162 -0.86163908 138 109 104
-0.23007566 0.63890529 -0.86155128 140 113 103
-0.23167855 0.64053822 -0.86202317 139 112 108
-0.2317851 0.64250594 -0.86203873 136 107 105
-0.23114055 0.64188242 -0.86185181 136 107 104
-0.2324219 0.64077687 -0.86224276 140 113 110
-0.23210594 0.64186025 -0.86213964 137 110 107
-0.23137383 0.64067501 -0.86193126 139 111 107
-0.23454261 0.63852745 -0.86335826 148 120 117
-0.23524633 0.63604945 -0.86359721 150 122 119
-0.23291245 0.63841969 -0.86250269 145 119 115
-0.23502539 0.63542068 -0.86344951 150 122 120
-0.23249498 0.63823372 -0.86228383 145 119 115
-0.23243921 0.63668311 -0.86221397 148 121 115
-0.23364967 0.63653463 -0.862804 148 121 117
-0.23300353 0.63689667 -0.86249679 147 120 116
-0.22924803 0.6356163 -0.86116016 151 120 109
-0.22948435 0.63607681 -0.86126173 148 119 108
-0.22924739 0.6364522 -0.86120409 147 118 106
-0.23054159 0.63591301 -0.86159873 148 119 109
-0.22921334 0.63609374 -0.86117405 148 119 107
-0.23237731 0.63726741 -0.86220801 147 120 115
-0.23232625 0.6371026 -0.86218816 147 120 114
-0.23161085 0.63852865 -0.86201143 143 117 111
-0.23095404 0.63690525 -0.8617689 145 117 108
-0.23138054 0.63654339 -0.86188757 146 119 110
-0.22810078 0.6358304 -0.86082643 150 119 107
-0.23541321 0.63216895 -0.86357343 159 134 125
-0.23492211 0.63408822 -0.86336762 153 125 121
-0.23402525 0.63349891 -0.86291665 155 128 121
-0.2350374 0.63274926 -0.86339962 157 131 124
-0.23274146 0.63108158 -0.86218202 159 131 125
-0.23307218 0.6311726 -0.86235493 159 132 125
-0.2333217 0.63176322 -0.86250448 158 131 124
-0.23339175 0.63218415 -0.8625558 157 130 123
-0.23314086 0.6338681 -0.86248881 153 126 118
-0.23084687 0.63100928 -0.86149073 158 132 126
-0.23039176 0.63277608 -0.86141562 157 127 119
-0.23028268 0.6311571 -0.86130875 158 133 126
-0.22898151 0.63320434 -0.86096346 157 128 119
-0.22866058 0.63344759 -0.8608669 157 128 118
-0.23164159 0.63415843 -0.86187565 153 124 116
-0.23219873 0.63424265 -0.8620609 152 124 117
-0.232115 0.63148093 -0.8619324 158 129 124
-0.22985293 0.63361108 -0.86127084 156 126 116
-0.23052599 0.63436764 -0.86151856 154 124 115
-0.22811484 0.63368165 -0.86071151 157 127 116
-0.22800177 0.633982 -0.86069155 157 126 115
-0.2270669 0.63291204 -0.86037165 160 129 117
-0.22771253 0.63146371 -0.86049742 160 134 124
-0.22537376 0.63380963 -0.85990828 155 121 105
-0.22742131 0.63423139 -0.86053061 156 124 111
-0.22548081 0.63241702 -0.85988289 159 128 114
-0.22640218 0.63460594 -0.86024475 153 120 105
-0.22747605 0.63381302 -0.86052966 157 126 114
-0.23488325 0.6291216 -0.86317474 164 138 131
-0.23384221 0.63067347 -0.86272788 161 135 127
-0.23498477 0.63033372 -0.86329478 163 138 129
-0.23522362 0.62867177 -0.86332411 165 139 132
-0.23393899 0.63008326 -0.86274445 162 135 128
-0.23276852 0.63028419 -0.86215782 160 132 126
-0.23310776 0.62859482 -0.86225241 162 133 127
-0.23444557 0.62835813 -0.86291146 164 137 131
-0.23392236 0.62874466 -0.86266685 163 136 129
-0.23247595 0.6297918 -0.86198944 160 131 125
-0.23000005 0.62705201 -0.86093313 159 126 128
-0.23091412 0.62736058 -0.86130399 160 129 127
-0.23084672 0.62710851 -0.86125666 160 128 127
-0.22923025 0.62754422 -0.86068624 158 126 129
-0.22953367 0.62855881 -0.86088878 159 130 128
-0.23059341 0.62994313 -0.8613587 159 134 127
-0.2321558 0.63064992 -0.86191183 159 131 126
-0.22956149 0.63063693 -0.86104512 159 135 128
-0.23061976 0.62882775 -0.86131781 161 134 126
-0.22997557 0.63047826 -0.86117631 159 134 127
-0.2270204 0.62770182 -0.85999835 160 133 128
-0.22748676 0.62791812 -0.86015207 159 131 129
-0.22759944 0.62761629 -0.86015838 159 129 129
-0.22643611 0.62803453 -0.85985643 162 134 127
-0.2265742 0.62828153 -0.85991794 162 134 127
-0.22653227 0.62815398 -0.85989475 162 134 127
-0.22601838 0.62984377 -0.85988897 163 135 124
-0.23456235 0.6257472 -0.86284649 162 134 130
-0.23426448 0.62654185 -0.86273754 164 136 130
-0.23536417 0.62637812 -0.8632797 166 138 133
-0.23545621 0.62546366 -0.86327964 163 136 133
-0.23484133 0.62541741 -0.86296964 162 134 131
-0.23523772 0.62418169 -0.86310762 158 131 131
-0.23251504 0.62600458 -0.8617965 161 130 126
-0.23319533 0.6236698 -0.86194563 157 127 129
-0.23558447 0.62335849 -0.86322063 157 130 132
-0.23460954 0.62335515 -0.86268795 157 129 131
-0.23513816 0.62387806 -0.86302638 158 130 131
-0.23275673 0.62535596 -0.86186671 160 129 127
-0.2292674 0.62336934 -0.86028498 156 122 129
-0.22863448 0.62587315 -0.86030012 156 122 130
-0.22929247 0.62591064 -0.86055684 156 122 130
-0.22935385 0.62593246 -0.86058265 156 122 130
-0.23129374 0.62375939 -0.86110395 156 124 129
-0.23144126 0.62607509 -0.86138332 159 128 127
-0.23092885 0.62482989 -0.86107188 156 124 129
-0.23238568 0.62673306 -0.86180145 162 131 125
-0.23221014 0.6255855 -0.86162609 160 129 126
-0.23238572 0.62521428 -0.86165679 159 129 126
-0.23134032 0.62474382 -0.86121851 157 125 128
-0.22807063 0.6231432 -0.859873 157 123 130
-0.22744031 0.62548584 -0.85992473 159 127 129
-0.22760718 0.6243279 -0.85987049 158 125 129
-0.22766314 0.62508625 -0.85995388 158 125 129
-0.23271677 0.6215983 -0.86158401 151 124 122
-0.23348901 0.62079257 -0.86200625 146 121 120
-0.23303452 0.62151438 -0.8617667 150 123 122
-0.23381987 0.62041229 -0.86218596 144 120 119
-0.23382334 0.62286377 -0.8622297 155 126 130
-0.23355551 0.62222886 -0.86208493 151 123 127
-0.23568648 0.6221844 -0.86324865 151 125 129
-0.23435144 0.62269336 -0.86251843 154 126 130
-0.232926 0.62296933 -0.86173946 155 126 129
-0.23005983 0.62138754 -0.86049116 152 122 121
-0.22995816 0.62005174 -0.86033905 148 120 119
-0.22875431 0.62228638 -0.86000353 154 121 127
-0.22944683 0.61964238 -0.8600862 147 118 120
-0.22889538 0.62074244 -0.85993874 150 118 124
-0.23024571 0.62267047 -0.86061412 155 123 127
-0.22961846 0.62295771 -0.86038345 156 123 129
-0.22902817 0.62300354 -0.86015826 156 122 129
-0.23083647 0.62131411 -0.86079216 152 123 120
-0.22830476 0.62253517 -0.85987371 155 121 129
-0.23010829 0.61902606 -0.86032683 145 119 117
-0.22915295 0.6181168 -0.85989577 141 114 117
-0.26026356 0.67177683 -0.88710374 195 169 163
-0.26022574 0.6715014 -0.88695502 196 168 163
-0.26003122 0.67103058 -0.88623184 200 171 168
-0.26013926 0.67011851 -0.88670951 196 162 165
-0.25819173 0.67048478 -0.88347131 192 167 165
-0.25812083 0.66994137 -0.88345462 190 164 165
-0.25869569 0.67096472 -0.88403356 197 173 168
-0.25940168 0.67001355 -0.88503402 200 173 172
-0.26000834 0.66731411 -0.88680589 206 176 177
-0.25978976 0.6698702 -0.8855868 202 174 173
-0.2598637 0.66926903 -0.88594818 203 174 174
-0.2598241 0.66801405 -0.88615721 206 177 177
-0.25885385 0.66787946 -0.8850134 192 163 163
-0.25846887 0.66623944 -0.88503307 189 160 160
-0.25957957 0.66939104 -0.88543165 200 172 172
-0.25761181 0.66608554 -0.88406891 176 147 148
-0.25710413 0.6660279 -0.88348806 168 140 140
-0.25940663 0.66922534 -0.8852759 198 170 169
-0.257485 0.66694707 -0.88366705 173 145 145
-0.25715455 0.66642284 -0.8834331 168 140 140
-0.25746748 0.6680249 -0.8832835 177 150 151
-0.25823888 0.66881502 -0.88397515 186 159 159
-0.25845209 0.66489273 -0.88540226 179 146 144
-0.25718507 0.6657517 -0.88366312 167 138 137
-0.25916561 0.66514206 -0.88616991 192 160 158
-0.2580224 0.66586316 -0.88461626 181 152 151
-0.25790602 0.6648351 -0.88477629 170 138 135
-0.25892398 0.66458583 -0.88604629 184 149 146
-0.25821349 0.66518199 -0.88503796 178 146 144
-0.25825584 0.6633628 -0.88554573 167 129 124
-0.25763109 0.66330689 -0.88461041 169 131 132
-0.25698221 0.66569602 -0.88341743 165 136 136
-0.25724116 0.66326165 -0.8840276 170 132 136
-0.2568489 0.66397756 -0.88337237 169 134 140
-0.25832278 0.66214591 -0.88575667 169 127 125
-0.2587707 0.6604833 -0.88643646 180 144 137
-0.25903925 0.66053855 -0.88687605 181 144 138
-0.25833505 0.66054273 -0.88571727 179 142 134
-0.25740856 0.65899557 -0.88425481 189 159 153
-0.25884014 0.66131079 -0.88651758 173 134 125
-0.25900429 0.66046071 -0.88682169 181 145 139
-0.25691685 0.65972757 -0.88352823 186 153 153
-0.2571561 0.66036236 -0.88391912 182 147 147
-0.25669852 0.66012716 -0.88321894 184 150 153
-0.25769243 0.66000259 -0.884709 183 148 142
-0.25727084 0.66076022 -0.88411111 179 143 144
-0.25755411 0.66077894 -0.88453847 179 142 140
-0.25783315 0.66068596 -0.88495392 178 142 137
-0.25835252 0.65464628 -0.88702816 194 166 158
-0.25674477 0.65433234 -0.88344997 190 167 158
-0.25758225 0.65546614 -0.88484776 194 169 162
-0.25829998 0.65660846 -0.88596368 197 171 167
-0.25821072 0.65524524 -0.88641155 195 168 161
-0.25719464 0.65458506 -0.884372 191 167 158
-0.25720346 0.65644616 -0.8840372 194 169 162
-0.25666082 0.65468383 -0.88323277 190 167 158
-0.25745237 0.65751934 -0.88439292 196 169 164
-0.25752845 0.65787739 -0.88450021 196 170 165
-0.25736195 0.6564815 -0.88429618 194 169 163
-0.2584489 0.65738881 -0.88603902 199 172 169
-0.25684667 0.65071243 -0.88418031 178 148 150
-0.25776678 0.65084523 -0.88566673 187 165 156
-0.25832072 0.65402353 -0.88707298 193 166 157
-0.2584911 0.65164572 -0.88695174 195 176 160
-0.25695655 0.6507917 -0.88436824 179 150 151
-0.25764292 0.65112901 -0.88551641 186 162 155
-0.25803974 0.65055752 -0.88605368 190 171 158
-0.25703716 0.65290791 -0.8844462 184 156 153
-0.25641462 0.65131748 -0.88334692 176 145 149
-0.25661337 0.65354079 -0.88332611 186 161 155
-0.25749764 0.65375715 -0.88533026 189 162 155
-0.25668123 0.65206474 -0.88380337 180 150 151
-0.25717083 0.65408492 -0.8845011 190 165 157
-0.25828472 0.64961529 -0.88651484 193 176 159
-0.25740439 0.64820892 -0.88522333 188 164 153
-0.25714529 0.64730942 -0.88511163 183 154 149
-0.25796533 0.64867508 -0.88628393 189 166 155
-0.25718114 0.64654773 -0.88561702 179 143 146
-0.25651994 0.64655137 -0.88406104 181 148 146
-0.25635192 0.65030688 -0.88334417 173 140 147
-0.25784472 0.64907348 -0.88578391 191 172 157
-0.25691688 0.64937538 -0.88429159 181 154 151
-0.25622928 0.64856547 -0.88323903 176 145 146
-0.25705281 0.6491214 -0.88452107 183 158 152
-0.25748166 0.64902246 -0.88520873 188 166 154
-0.25663066 0.64848727 -0.88388193 181 152 149
-0.25697199 0.64414304 -0.88569456 177 146 146
-0.25763437 0.64581949 -0.88693166 176 139 145
-0.25721914 0.64375478 -0.88671511 176 148 144
-0.25710875 0.64288819 -0.88683265 175 152 142
-0.25688517 0.64282632 -0.88613725 176 152 144
-0.25673372 0.64391899 -0.88504052 178 147 148
-0.25625747 0.64570343 -0.883573 181 150 146
-0.25733814 0.64617276 -0.88605773 178 140 146
-0.25651744 0.64647752 -0.88409323 180 147 146
-0.257348 0.64648086 -0.88604474 178 140 146
-0.25655684 0.64588124 -0.88425577 180 147 146
-0.25634038 0.64613569 -0.88371718 181 149 146
-0.25608954 0.64012879 -0.88527328 177 146 147
-0.2558625 0.63969404 -0.88436896 179 146 148
-0.25602978 0.63969296 -0.88520592 178 145 147
-0.25594264 0.64161003 -0.88374108 180 150 150
-0.25613198 0.64140803 -0.8846364 178 150 148
-0.25657889 0.64030272 -0.88686955 175 147 143
-0.2560721 0.64126074 -0.88454431 178 149 148
-0.25620443 0.64230865 -0.88424158 179 152 148
-0.25633451 0.64014947 -0.88617945 176 146 145
-0.25625858 0.64180219 -0.88477325 178 151 147
-0.25545418 0.63941503 -0.88349289 178 144 149
-0.25539485 0.6390878 -0.88351905 178 143 149
-0.25626484 0.63812232 -0.88680273 174 141 143
-0.25591663 0.63836855 -0.8851158 177 143 147
-0.25627863 0.63844728 -0.88694304 174 142 144
-0.25587848 0.63747972 -0.88526732 174 139 145
-0.25612018 0.63506734 -0.88638741 166 132 139
-0.25442019 0.63603067 -0.8837719 166 131 137
-0.25563282 0.63557684 -0.88547778 167 132 139
-0.25575015 0.63602221 -0.88550407 169 134 140
-0.255292 0.63533753 -0.88510245 165 130 138
-0.25465995 0.63490033 -0.88440436 163 128 135
-0.25560433 0.63864666 -0.88428444 178 143 148
-0.25423127 0.63610625 -0.88325077 166 131 138
-0.25621167 0.63445878 -0.88666391 165 131 138
-0.25633514 0.63207042 -0.88708931 163 130 133
-0.25590351 0.63155729 -0.88638651 164 131 133
-0.25610971 0.63192993 -0.88670117 163 130 132
-0.25547862 0.63104153 -0.88582367 165 133 134
-0.25411716 0.63124347 -0.88388312 167 137 139
-0.25438243 0.6317876 -0.88420504 166 136 139
-0.25540715 0.63312429 -0.88552243 165 132 137
-0.2550804 0.63165945 -0.88520229 166 134 136
-0.25573865 0.63407421 -0.88589877 165 130 137
-0.25483271 0.63370174 -0.88470191 165 131 137
-0.25493568 0.63455224 -0.88480812 163 129 136
-0.25400823 0.63379854 -0.8836264 163 129 135
-0.25399247 0.63231647 -0.88365424 166 134 138
-0.25410238 0.63240606 -0.88379431 166 134 138
-0.25571898 0.62930566 -0.88703388 164 132 130
-0.25534454 0.62985349 -0.88624781 165 132 132
-0.25418207 0.63048106 -0.88423568 166 136 138
-0.2542325 0.62894118 -0.88521916 165 135 134
-0.25500447 0.62948751 -0.88598472 165 133 133
-0.25480956 0.62725061 -0.88703513 164 132 129
-0.25340241 0.62760299 -0.88376039 162 133 133
-0.25339183 0.6280638 -0.8835879 163 134 134
-0.25378579 0.62763536 -0.88465208 163 133 132
-0.25403088 0.62729472 -0.88533795 163 133 131
-0.25391844 0.62707847 -0.8851428 162 132 130
-0.25382474 0.6288361 -0.88435888 165 135 135
-0.25441262 0.62467712 -0.88634473 164 134 129
-0.25457531 0.62594283 -0.88673329 163 133 129
-0.25455391 0.62432998 -0.88662112 165 135 130
-0.25411996 0.62534469 -0.88576996 161 132 128
-0.25353742 0.62391222 -0.88450944 159 131 128
-0.25387549 0.62374139 -0.88519871 161 133 129
-0.25430968 0.62656653 -0.88613993 162 132 129
-0.25345141 0.62680107 -0.88409829 161 132 131
-0.25311968 0.62631661 -0.88336325 160 131 131
-0.25447106 0.62684691 -0.88649327 163 132 129
-0.25423199 0.6260094 -0.88600934 162 132 128
-0.25397021 0.61952573 -0.88533032 171 134 131
-0.25422558 0.6215322 -0.88590288 167 134 130
-0.25423971 0.62116325 -0.88591617 168 135 130
-0.25352383 0.62022138 -0.88449037 164 129 128
-0.25426754 0.6211732 -0.88597059 168 135 131
-0.25446826 0.62135524 -0.8863672 170 137 131
-0.25320801 0.62221301 -0.88381147 159 130 128
-0.25363144 0.6214509 -0.88469946 163 131 128
-0.25374138 0.62259018 -0.88490248 162 133 129
-0.25347456 0.6208055 -0.88438952 163 129 128
-0.2530514 0.6212157 -0.88350934 160 128 127
-0.25438541 0.6229437 -0.88622195 165 136 131
-0.25420111 0.61586058 -0.88605285 180 150 144
-0.25463924 0.61808419 -0.88670176 180 145 138
-0.25426099 0.61726248 -0.88600242 180 146 141
-0.25483763 0.61823744 -0.88710374 180 145 138
-0.2544404 0.61697865 -0.88641948 180 148 141
-0.25454792 0.61669284 -0.88668406 180 149 142
-0.25378519 0.61777401 -0.88499719 177 141 138
-0.25346792 0.619008 -0.88434446 168 131 129
-0.25343436 0.61709511 -0.88433629 176 142 140
-0.25353977 0.61746949 -0.88452977 176 140 138
-0.25307378 0.61761785 -0.8836208 171 135 135
-0.25416565 0.61820096 -0.88572311 178 142 137
-0.25409964 0.61324459 -0.88633877 177 142 140
-0.25347349 0.61171228 -0.8852542 176 136 137
-0.25413957 0.61275238 -0.88660187 175 137 138
-0.25417981 0.6128459 -0.88667315 175 137 138
-0.25325358 0.61219561 -0.88453758 178 145 140
-0.25304171 0.61434555 -0.88376963 179 148 145
-0.25378317 0.61380827 -0.88540494 179 150 143
-0.25272024 0.61240643 -0.88330519 179 146 142
-0.25357026 0.61418682 -0.88491023 179 150 144
-0.25286078 0.61225486 -0.88362068 179 147 141
-0.25320578 0.61389786 -0.88416857 179 148 144
-0.25285453 0.60892987 -0.88481671 141 94 102
-0.25328833 0.60771161 -0.88613898 141 109 104
-0.2533485 0.6077956 -0.88625258 142 111 105
-0.25337693 0.60804927 -0.88624698 144 111 107
-0.25390372 0.61034465 -0.88680977 163 118 124
-0.25283894 0.60756344 -0.88515884 134 98 96
-0.25263262 0.61102927 -0.88337457 174 139 135
-0.25353613 0.61060643 -0.88584572 163 117 123
-0.25393438 0.61096972 -0.88670158 167 118 127
-0.25198439 0.60746968 -0.88324207 122 75 82
-0.25257772 0.60955185 -0.88386279 151 109 112
-0.25294685 0.6108771 -0.88423622 170 131 131
-0.2521905 0.60461944 -0.88412267 152 122 112
-0.25245023 0.6060226 -0.88449961 134 90 96
-0.25265998 0.60448313 -0.88519251 150 115 113
-0.25226954 0.60517877 -0.88421822 145 110 106
-0.2522001 0.60471672 -0.88413 151 120 111
-0.25336471 0.60641003 -0.88652569 144 112 109
-0.2532053 0.60522389 -0.88631934 146 108 111
-0.25337189 0.60501963 -0.88672471 149 113 115
-0.25304663 0.60578728 -0.88588476 142 104 106
-0.25323403 0.60566378 -0.88632685 145 109 110
-0.25338042 0.60517603 -0.88672358 149 113 114
