ply
format ascii 1.0
comment PCL generated
element vertex 1022
property float x
property float y
property float z
property uchar red
property uchar green
property uchar blue
element camera 0
property float view_px
property float view_py
property float view_pz
property float x_axisx
property float x_axisy
property float x_axisz
property float y_axisx
property float y_axisy
property float y_axisz
property float z_axisx
property float z_axisy
property float z_axisz
property float focal
property float scalex
property float scaley
property float centerx
property float centery
property int viewportx
property int viewporty
property float k1
property float k2
end_header
-0.2620351 -0.23157836 -0.84534258 92 59 60
-0.26191011 -0.23125511 -0.84564507 91 59 59
-0.26206717 -0.2318908 -0.84518528 93 60 61
-0.26121974 -0.22900827 -0.84747428 87 55 53
-0.26245418 -0.23079748 -0.84495687 91 60 59
-0.26237965 -0.23105839 -0.84498656 92 59 59
-0.26225704 -0.23152885 -0.84502161 92 59 60
-0.26250815 -0.22863415 -0.84559011 89 59 55
-0.26189664 -0.22900361 -0.84642071 89 58 55
-0.26082402 -0.23521614 -0.84579194 107 76 80
-0.26098219 -0.23491712 -0.84569007 105 75 78
-0.26024905 -0.23444617 -0.84693849 103 72 74
-0.26005307 -0.23366003 -0.84754819 99 68 69
-0.26091236 -0.23453 -0.84595197 103 73 76
-0.26044244 -0.23326881 -0.84715027 97 66 67
-0.26257095 -0.23261479 -0.84416026 94 62 64
-0.26127765 -0.2348064 -0.84529108 104 74 78
-0.26157686 -0.2361065 -0.8443386 110 81 87
-0.26100898 -0.23335329 -0.8462556 98 66 68
-0.26169851 -0.23454519 -0.84475029 103 73 76
-0.25918362 -0.23565392 -0.84798145 111 80 84
-0.26048464 -0.23638774 -0.84579051 112 82 88
-0.25998145 -0.23897199 -0.84548873 122 96 104
-0.26056054 -0.23668742 -0.84556288 113 83 90
-0.26023266 -0.23644736 -0.84612834 113 82 88
-0.26089334 -0.23654965 -0.84514004 113 83 89
-0.26126325 -0.23713781 -0.84437668 115 87 93
-0.26133698 -0.23705615 -0.84430569 114 87 93
-0.25878355 -0.23918197 -0.8472681 121 97 105
-0.25883493 -0.23984875 -0.84694219 123 100 108
-0.25890172 -0.23916069 -0.84708494 122 97 105
-0.25935641 -0.24004991 -0.84602666 125 102 111
-0.25933039 -0.23697381 -0.84722698 116 86 92
-0.25945833 -0.23826773 -0.84652722 120 93 101
-0.25991508 -0.24046965 -0.84502268 127 104 113
-0.25983781 -0.24078341 -0.84503239 127 105 113
-0.25947917 -0.24209566 -0.84519309 128 107 114
-0.25877857 -0.24123642 -0.84658694 126 103 111
-0.25920057 -0.24146724 -0.84583491 127 105 112
-0.25891179 -0.24052168 -0.84658992 125 102 111
-0.25944483 -0.24314183 -0.84492934 130 109 115
-0.25810283 -0.24368042 -0.84673029 125 106 111
-0.25779575 -0.24294153 -0.84745413 123 103 110
-0.25765881 -0.24264458 -0.84776497 123 103 109
-0.25747269 -0.24334817 -0.84778291 122 103 109
-0.2576935 -0.24178728 -0.84802699 122 101 109
-0.25941613 -0.24359597 -0.84482026 130 110 115
-0.25879365 -0.2434182 -0.84580517 127 107 113
-0.25715071 -0.24730441 -0.84689701 112 92 102
-0.25801915 -0.24703033 -0.84580475 114 94 104
-0.25701031 -0.24499306 -0.84787637 119 100 106
-0.2582323 -0.24744181 -0.84537357 113 93 104
-0.25793728 -0.24668474 -0.84603429 115 95 105
-0.25697434 -0.24751216 -0.847067 111 91 101
-0.25844142 -0.24578488 -0.84559077 120 100 108
-0.25866038 -0.24558158 -0.84532541 121 102 110
-0.25878406 -0.24619207 -0.84496778 119 99 109
-0.25842825 -0.24602696 -0.84554094 119 99 108
-0.25808504 -0.24564679 -0.84615701 119 100 108
-0.25880572 -0.24585019 -0.84503365 121 101 109
-0.25593165 -0.25089076 -0.84767807 106 84 90
-0.25633103 -0.25157267 -0.84695071 106 83 90
-0.25624844 -0.2519199 -0.84699059 105 83 89
-0.25617748 -0.24842943 -0.84788233 108 87 97
-0.25632328 -0.25072029 -0.84715468 106 84 92
-0.25619996 -0.24941768 -0.84762639 107 86 94
-0.25687176 -0.24925347 -0.84670633 109 86 97
-0.25762776 -0.24949737 -0.8456099 110 87 98
-0.2575399 -0.2501213 -0.84556514 109 86 96
-0.25819123 -0.24830627 -0.84515494 111 90 102
-0.25659934 -0.24839488 -0.84730488 109 88 98
-0.25704083 -0.24821109 -0.84675062 110 88 99
-0.25573143 -0.25089121 -0.84797126 105 83 90
-0.25662893 -0.25322524 -0.84610713 103 79 87
-0.25639313 -0.2544072 -0.84613895 99 76 83
-0.25644842 -0.25260541 -0.84652692 104 81 87
-0.25613126 -0.2519578 -0.84715003 105 83 88
-0.25587538 -0.25377676 -0.84704548 100 77 83
-0.25627217 -0.2524918 -0.84680939 104 81 87
-0.25686714 -0.25528476 -0.84529489 99 74 84
-0.25713775 -0.25574327 -0.84484059 100 74 84
-0.25706756 -0.25562942 -0.84495741 100 74 84
-0.25640011 -0.25556546 -0.84586364 97 73 81
-0.25537786 -0.25339666 -0.84788692 99 78 83
-0.25511658 -0.25466016 -0.84795922 95 74 80
-0.25578427 -0.25424603 -0.84705734 98 76 82
-0.25700119 -0.25661582 -0.84485 98 71 83
-0.25605392 -0.25647098 -0.8461467 94 70 79
-0.25589058 -0.25837556 -0.84598756 90 63 78
-0.25670823 -0.25757575 -0.84505171 95 67 82
-0.25672102 -0.25934845 -0.84471321 92 65 80
-0.2567471 -0.25883219 -0.84477127 93 66 80
-0.25519589 -0.25798881 -0.84709227 89 63 76
-0.25481957 -0.25933394 -0.84733242 85 58 72
-0.25492904 -0.25627109 -0.84785187 91 69 76
-0.25580984 -0.25794712 -0.8461892 91 65 78
-0.25500709 -0.25589985 -0.84781021 92 71 77
-0.25684917 -0.26041475 -0.84437191 92 65 77
-0.25609192 -0.2625843 -0.84501255 88 59 70
-0.25590813 -0.26297233 -0.84518969 87 58 69
-0.25675935 -0.26263192 -0.84419262 89 62 71
-0.25693953 -0.2612344 -0.844154 91 64 75
-0.25446707 -0.26271987 -0.84722447 84 56 63
-0.25508764 -0.26278427 -0.84636122 85 56 65
-0.2541135 -0.26245093 -0.84775782 83 55 62
-0.25402758 -0.26258302 -0.84785217 83 55 62
-0.25562209 -0.26355216 -0.84549057 86 57 66
-0.25568259 -0.26317644 -0.84547311 86 57 67
-0.25572297 -0.26332361 -0.84539247 86 57 67
-0.25464752 -0.26012397 -0.84742671 84 55 69
-0.25581193 -0.26162952 -0.84553015 87 58 72
-0.25629666 -0.26376083 -0.84459752 87 59 67
-0.25423664 -0.26664168 -0.84667748 85 57 57
-0.25364962 -0.26629034 -0.84754503 83 57 57
-0.25359318 -0.26457214 -0.84803241 82 56 58
-0.25395763 -0.26409587 -0.8476603 83 56 58
-0.25379845 -0.26736099 -0.84708965 84 58 56
-0.25469086 -0.26636225 -0.84613836 87 56 58
-0.25485915 -0.26406056 -0.8464312 85 56 62
-0.25582013 -0.26622829 -0.8446371 90 56 61
-0.25555369 -0.2648637 -0.84530187 87 57 63
-0.25511792 -0.26520348 -0.84582555 87 56 61
-0.25482044 -0.26555014 -0.84615791 87 56 59
-0.25418997 -0.26791018 -0.84647256 87 60 59
-0.25521421 -0.26764694 -0.84513956 90 57 58
-0.25374267 -0.26790467 -0.84707004 85 60 58
-0.25392976 -0.26860145 -0.84672964 89 65 63
-0.25393531 -0.26805153 -0.84679395 87 61 59
-0.25563988 -0.27023309 -0.84423631 103 75 74
-0.2540949 -0.26865837 -0.84650201 90 65 63
-0.2541447 -0.27037969 -0.84617341 98 73 72
-0.25422862 -0.27001408 -0.84612596 97 72 71
-0.2528795 -0.269095 -0.84800595 87 63 63
-0.25535053 -0.27132779 -0.84447229 107 82 80
-0.25314227 -0.27073014 -0.84740037 96 70 72
-0.25508162 -0.27163982 -0.84476024 107 82 81
-0.2423463 -0.26664707 -0.87030804 85 59 51
-0.24331415 -0.26640028 -0.86779898 85 60 49
-0.24317527 -0.26546237 -0.86867452 82 54 46
-0.24328752 -0.2657907 -0.86818969 83 56 47
-0.279809 -0.22458673 -0.83004749 153 120 136
-0.28189218 -0.22402437 -0.82914227 167 143 141
-0.27931863 -0.22376385 -0.83041513 153 122 137
-0.27816615 -0.22384699 -0.83109796 146 118 128
-0.27828148 -0.22437452 -0.83093327 147 118 129
-0.27660903 -0.22397761 -0.8319962 143 126 118
-0.27687442 -0.22426419 -0.83178663 144 125 120
-0.27734712 -0.22407934 -0.83154052 145 122 123
-0.27990171 -0.22643095 -0.82971627 156 130 136
-0.2810055 -0.22535078 -0.8293553 165 140 138
-0.27981511 -0.22584353 -0.82984895 155 126 136
-0.28024787 -0.22506543 -0.82976258 158 128 137
-0.28277901 -0.22482952 -0.82858664 182 162 141
-0.28039017 -0.22545949 -0.82963318 160 132 137
-0.28219801 -0.22654158 -0.82864165 172 155 148
-0.28190681 -0.227999 -0.82859975 165 151 155
-0.28224224 -0.22551066 -0.82874203 177 157 141
-0.28121752 -0.22778545 -0.82892627 163 146 148
-0.2765016 -0.2273757 -0.83152938 142 116 118
-0.27891466 -0.22484224 -0.8304804 148 114 133
-0.2758497 -0.22765449 -0.8318736 141 119 114
-0.27545786 -0.22793862 -0.83206302 140 119 112
-0.27697209 -0.22673614 -0.83134669 143 117 121
-0.27588195 -0.2264398 -0.83203667 141 123 114
-0.27922416 -0.22637835 -0.83005762 150 121 135
-0.27870888 -0.22805759 -0.83010465 150 127 132
-0.27897 -0.2252069 -0.83039153 148 115 133
-0.2792913 -0.22644712 -0.83000684 150 122 135
-0.27771598 -0.2278641 -0.83072799 147 123 126
-0.27758816 -0.22812375 -0.83076406 146 124 125
-0.280108 -0.22898483 -0.82928419 153 134 141
-0.28034297 -0.23069228 -0.82902533 144 126 135
-0.27959949 -0.23104431 -0.82931852 139 118 127
-0.2794058 -0.22968385 -0.82952768 146 125 131
-0.27979732 -0.23198786 -0.82914037 134 113 124
-0.28088835 -0.23013607 -0.82883656 150 133 143
-0.27598062 -0.23232891 -0.83111215 126 101 114
-0.27591726 -0.23157604 -0.83126223 128 104 114
-0.27709496 -0.23083483 -0.83074719 133 110 115
-0.27742523 -0.23196228 -0.83039653 129 106 116
-0.2757785 -0.23061097 -0.83148545 132 109 113
-0.27803725 -0.23172313 -0.83010632 131 108 117
-0.27839687 -0.23079231 -0.83001184 136 114 120
-0.27771711 -0.22997656 -0.83049256 139 117 119
-0.27707011 -0.2293392 -0.83093739 140 118 118
-0.27753285 -0.22901863 -0.83069021 144 122 122
-0.27775633 -0.23066215 -0.83040649 135 113 117
-0.27903014 -0.22860742 -0.82983309 151 130 133
-0.27891135 -0.22981557 -0.82979363 144 122 127
-0.27439132 -0.2306851 -0.83238286 128 105 110
-0.2743088 -0.23091023 -0.8324073 128 104 109
-0.27474532 -0.22920647 -0.8323552 133 112 110
-0.27528954 -0.22892125 -0.83202291 137 115 112
-0.27947196 -0.23423739 -0.82906538 128 100 113
-0.27973273 -0.23433684 -0.82893467 130 101 114
-0.27943462 -0.23401786 -0.82910424 128 101 113
-0.28094235 -0.23268269 -0.8285377 139 116 127
-0.2800388 -0.23546618 -0.82871306 130 99 112
-0.27546632 -0.23317309 -0.83130533 124 99 112
-0.27580956 -0.23459207 -0.83099252 124 99 109
-0.27583581 -0.23584287 -0.83086711 124 99 106
-0.2763074 -0.23433003 -0.83074498 124 97 109
-0.27691981 -0.23509416 -0.8303439 124 96 107
-0.27789897 -0.23592833 -0.82973713 124 93 105
-0.2786153 -0.23377429 -0.82955647 127 100 112
-0.27772099 -0.23351334 -0.83006018 126 99 112
-0.27866751 -0.23351839 -0.82955372 127 101 113
-0.27909189 -0.23488019 -0.829193 126 96 109
-0.2789605 -0.23389795 -0.82935977 127 100 112
-0.27697933 -0.23354727 -0.83045334 125 98 111
-0.27361313 -0.23526567 -0.83235353 125 103 106
-0.27389488 -0.23484269 -0.83221227 125 101 107
-0.27442032 -0.23506518 -0.83184141 124 100 106
-0.27474663 -0.23248638 -0.83186352 124 98 111
-0.27499366 -0.23329781 -0.83161652 124 99 110
-0.27947876 -0.2378846 -0.82882208 132 101 111
-0.28010374 -0.23756708 -0.82859713 135 104 115
-0.28002676 -0.23839778 -0.82859683 137 108 118
-0.27691245 -0.23838167 -0.83012795 132 106 112
-0.27701902 -0.23962471 -0.82993644 136 108 116
-0.27881974 -0.23990986 -0.82907164 140 112 118
-0.2778109 -0.23901732 -0.82963997 135 109 115
-0.27706388 -0.23919475 -0.82996488 135 108 115
-0.27621767 -0.23984942 -0.83028096 136 107 116
-0.27622095 -0.2370155 -0.83059216 127 102 108
-0.27734151 -0.23783083 -0.829956 131 104 111
-0.2787036 -0.23786522 -0.82921386 131 101 110
-0.27839988 -0.23914881 -0.82933742 137 109 116
-0.27784446 -0.23666938 -0.82972014 126 96 106
-0.27900499 -0.23751992 -0.82906115 130 98 109
-0.27462676 -0.23902319 -0.83126086 133 106 113
-0.27414143 -0.23903745 -0.83157331 133 107 114
-0.27400163 -0.23955137 -0.83160138 135 108 116
-0.27409399 -0.23986958 -0.83150297 135 109 117
-0.27478245 -0.2390023 -0.8311621 133 105 113
-0.27528614 -0.23663768 -0.83109987 125 101 106
-0.27521768 -0.23733328 -0.83106554 127 102 108
-0.27534753 -0.23682176 -0.83103824 125 101 107
-0.27961555 -0.24217887 -0.82853764 145 121 127
-0.27833071 -0.24152692 -0.82917958 143 118 123
-0.27586773 -0.24385196 -0.83018726 147 126 131
-0.2785984 -0.24302551 -0.82893276 146 123 128
-0.27751139 -0.2439623 -0.82938451 147 126 131
-0.27913925 -0.24177569 -0.82876939 144 118 124
-0.27806529 -0.24198651 -0.82927179 144 120 125
-0.27584642 -0.24329691 -0.83023292 146 124 129
-0.27789429 -0.24139675 -0.82939559 143 117 123
-0.27559847 -0.24047397 -0.83050936 137 107 118
-0.27796918 -0.24114829 -0.82937521 142 116 122
-0.27817914 -0.24078897 -0.82929879 141 114 121
-0.27714965 -0.24077779 -0.82977515 140 112 120
-0.27348325 -0.24273939 -0.83162946 144 123 127
-0.27272502 -0.24162117 -0.83218789 141 119 124
-0.27372077 -0.24231489 -0.83154815 143 121 126
-0.27200168 -0.24360174 -0.83235228 145 126 127
-0.27270666 -0.24217096 -0.83213168 142 121 125
-0.27431181 -0.24080446 -0.83128494 138 112 121
-0.27533561 -0.24227187 -0.83053803 142 117 124
-0.27436304 -0.24245058 -0.83115745 143 121 127
-0.27456287 -0.24293 -0.83100057 144 123 128
-0.2748014 -0.24048263 -0.83098644 137 109 119
-0.27586785 -0.24647407 -0.82994837 147 125 134
-0.27644405 -0.2458048 -0.82973206 147 126 133
-0.27593613 -0.2472267 -0.82984567 147 124 135
-0.27755594 -0.24525383 -0.82924587 148 126 133
-0.27697477 -0.2461393 -0.82944459 147 125 134
-0.27614045 -0.24533322 -0.82992238 147 126 133
-0.27696964 -0.24757965 -0.82940495 146 124 134
-0.27729556 -0.24792711 -0.82927036 145 123 133
-0.27842024 -0.24758191 -0.82882309 145 123 132
-0.2786656 -0.24744065 -0.82872617 145 123 131
-0.2788206 -0.24474639 -0.82869363 148 126 132
-0.2734268 -0.24502565 -0.8314355 145 127 129
-0.27418083 -0.24415962 -0.83106941 147 128 130
-0.27179375 -0.24643649 -0.83225793 142 126 128
-0.27261901 -0.24601424 -0.83182395 143 126 129
-0.27367476 -0.24449818 -0.83133048 146 128 130
-0.2741001 -0.24603112 -0.83097845 144 126 131
-0.27406916 -0.24557966 -0.83103848 144 126 130
-0.27372754 -0.2476999 -0.83104271 143 124 132
-0.2750172 -0.24614374 -0.83042908 146 125 133
-0.27344716 -0.24787574 -0.83119118 143 124 131
-0.27230561 -0.24733815 -0.83191186 140 124 128
-0.27594855 -0.2482141 -0.82980132 147 124 135
-0.27781674 -0.2482646 -0.82904947 145 124 132
-0.27871311 -0.24998307 -0.82858735 146 123 129
-0.27785209 -0.25086218 -0.82889026 150 126 130
-0.27847019 -0.24968681 -0.82870638 147 124 130
-0.27198479 -0.24931993 -0.83189124 142 123 128
-0.2731306 -0.24862613 -0.83133328 144 125 131
-0.27531442 -0.24805027 -0.83007783 146 124 135
-0.27136308 -0.24912368 -0.83224005 139 120 126
-0.27146548 -0.2482184 -0.83231425 139 123 127
-0.27797401 -0.25247809 -0.82873166 149 124 129
-0.27805078 -0.25280142 -0.82867789 149 125 130
-0.25213325 -0.24586688 -0.85587204 104 84 90
-0.25015616 -0.25086734 -0.85759377 90 67 68
-0.25102252 -0.25055394 -0.85588878 94 71 74
-0.25082558 -0.25052255 -0.85631377 93 71 73
-0.25149015 -0.24824934 -0.85590899 98 78 83
-0.2512542 -0.24939673 -0.85590547 96 75 79
-0.24977732 -0.2553001 -0.85692513 85 58 57
-0.24917533 -0.25309649 -0.85892165 86 57 58
-0.2495877 -0.25423008 -0.85770172 85 58 58
-0.24924691 -0.25513622 -0.85798579 84 56 55
-0.25006172 -0.25555408 -0.85629112 85 59 57
-0.24951746 -0.25441584 -0.85776061 85 58 57
-0.25020471 -0.25418434 -0.85639787 87 62 61
-0.2499201 -0.2540414 -0.85706353 86 60 60
-0.25008747 -0.25221273 -0.85722935 89 63 65
-0.25040978 -0.25326663 -0.8562156 89 64 65
-0.25041124 -0.25267291 -0.85638541 90 65 66
-0.25014248 -0.25326419 -0.85680234 88 62 63
-0.24864243 -0.25823119 -0.85802412 82 52 50
-0.24810001 -0.25936121 -0.85878527 82 51 49
-0.2491767 -0.25929376 -0.85660422 82 52 52
-0.24848129 -0.25975734 -0.85788351 82 51 50
-0.24919163 -0.25838196 -0.85688627 82 53 52
-0.24916872 -0.25674516 -0.85752577 83 54 53
-0.24916112 -0.25644681 -0.85764879 83 55 53
-0.24921134 -0.25627568 -0.85761678 83 55 53
-0.2497813 -0.25793931 -0.85593992 83 56 55
-0.24948592 -0.25960568 -0.85588747 82 53 53
-0.24775821 -0.25929087 -0.85954577 81 50 49
-0.24787565 -0.25954473 -0.85921115 81 50 49
-0.24862914 -0.26076016 -0.85719496 82 52 52
-0.24822703 -0.26258075 -0.85731488 82 51 53
-0.24878854 -0.26045713 -0.85698593 82 52 52
-0.24821022 -0.26274887 -0.85728437 82 51 53
-0.2487334 -0.26117072 -0.85682338 82 52 52
-0.24883264 -0.26301894 -0.85597903 82 53 54
-0.24891491 -0.26229274 -0.85606712 82 53 54
-0.24846622 -0.26323372 -0.85660774 82 52 54
-0.24780476 -0.26324806 -0.8579731 82 51 52
-0.24736968 -0.26215521 -0.85937428 81 49 50
-0.24788164 -0.26276866 -0.85797721 82 51 52
-0.24745336 -0.26345792 -0.85869592 82 49 52
-0.24798958 -0.26211372 -0.85798848 82 51 52
-0.24840584 -0.26427981 -0.85639852 87 58 57
-0.24814177 -0.26474699 -0.85676825 90 61 59
-0.24851407 -0.26529384 -0.85589772 93 66 62
-0.24664313 -0.26563239 -0.85974741 92 63 59
-0.24691375 -0.26446626 -0.85957146 86 54 54
-0.24765092 -0.26460624 -0.85789382 88 58 57
-0.2475123 -0.26491529 -0.85812014 90 60 58
-0.24743976 -0.26515356 -0.85821629 92 62 59
-0.24716908 -0.26369208 -0.85925829 82 48 51
-0.2474589 -0.25884587 -0.86042076 80 49 48
-0.24721117 -0.25747839 -0.86152637 80 49 47
-0.24729097 -0.25812045 -0.86109877 80 49 47
-0.24736091 -0.25821394 -0.86089033 80 49 48
-0.24623871 -0.25968984 -0.8629927 77 45 45
-0.24684274 -0.2596246 -0.86158919 79 47 47
-0.2461388 -0.26163867 -0.86252594 79 46 46
-0.2456727 -0.26239422 -0.86346018 79 45 45
-0.24645987 -0.26268914 -0.86134917 80 46 48
-0.24602874 -0.26276234 -0.86242574 79 46 46
-0.24591285 -0.26218331 -0.86291832 79 46 46
-0.24617079 -0.26056549 -0.86281323 78 45 46
-0.24693404 -0.26161727 -0.8605991 80 47 49
-0.24675037 -0.26120546 -0.8611936 79 47 48
-0.24696068 -0.26069734 -0.86089331 80 48 48
-0.24635285 -0.26076469 -0.86230516 78 46 46
-0.24718556 -0.25978115 -0.860717 80 48 48
-0.24573427 -0.26526552 -0.86221111 88 58 53
-0.24532275 -0.26502016 -0.86333263 85 56 49
-0.245749 -0.26492167 -0.86231911 87 56 52
-0.24614155 -0.26553649 -0.86106414 90 61 56
-0.24594164 -0.26467541 -0.86192793 86 54 51
-0.24587576 -0.26448464 -0.86217451 84 53 50
-0.24599572 -0.26458818 -0.86182559 85 53 51
-0.24577026 -0.26382589 -0.86271411 81 47 47
-0.2739813 -0.21674566 -0.83554834 125 104 116
-0.2752347 -0.21663748 -0.83460778 131 109 124
-0.27536291 -0.21668617 -0.83449602 131 108 124
-0.2764467 -0.21721031 -0.83357584 136 108 126
-0.27649412 -0.21760239 -0.83343947 136 107 125
-0.27627745 -0.21742083 -0.83364326 135 107 125
-0.27643007 -0.21728936 -0.83356726 136 108 126
-0.27674505 -0.21831381 -0.83307296 137 105 123
-0.27616504 -0.22037749 -0.83298463 134 104 114
-0.27334321 -0.22003055 -0.83521372 121 94 102
-0.27300978 -0.21711206 -0.83620608 121 101 109
-0.2733207 -0.22036687 -0.83514744 120 94 101
-0.27531651 -0.22069609 -0.83348954 126 93 107
-0.27446553 -0.21988492 -0.83436406 124 94 106
-0.27281797 -0.21816695 -0.83609396 120 99 105
-0.27227008 -0.22031109 -0.83599085 117 94 97
-0.27339017 -0.21725208 -0.83587331 123 101 110
-0.27537534 -0.21786875 -0.83417904 129 103 119
-0.27430725 -0.21833083 -0.83488393 125 99 111
-0.2753062 -0.21689698 -0.83448547 130 107 123
-0.27541953 -0.22149897 -0.83324349 130 101 108
-0.27625969 -0.2214109 -0.83270162 139 115 114
-0.27609217 -0.22262943 -0.83255845 142 125 114
-0.27317971 -0.22195482 -0.83490962 119 91 101
-0.27258608 -0.22168639 -0.83543509 118 91 98
-0.27164525 -0.22274713 -0.83595318 115 89 96
-0.27161703 -0.2228094 -0.83596224 114 89 96
-0.27295041 -0.22261161 -0.83495146 119 89 101
-0.27443823 -0.22130787 -0.83405304 123 92 105
-0.27196711 -0.22129679 -0.8360064 116 92 95
-0.27517855 -0.22273041 -0.83317208 133 111 108
-0.27358526 -0.22379202 -0.8342036 125 102 104
-0.27473837 -0.22398834 -0.83325529 134 118 108
-0.27486461 -0.2215246 -0.83367133 126 95 106
-0.27300736 -0.22324805 -0.83477205 119 90 102
-0.27185225 -0.2242685 -0.83546752 115 86 98
-0.2740089 -0.22412169 -0.83380133 130 111 106
-0.27147633 -0.22274111 -0.83609247 114 90 95
-0.27329856 -0.22733413 -0.83369738 128 110 106
-0.27483499 -0.22659387 -0.83270264 137 122 110
-0.27407557 -0.22813867 -0.83300579 131 111 108
-0.27302313 -0.22819786 -0.83375877 125 104 106
-0.27406773 -0.22622754 -0.8333149 133 118 108
-0.27351698 -0.22670521 -0.83363795 129 113 106
-0.27301762 -0.22569618 -0.83423918 125 106 104
-0.27369267 -0.22618982 -0.83359903 130 115 106
-0.27150491 -0.22830062 -0.83485413 116 93 101
-0.27266419 -0.2252457 -0.83461678 122 101 102
-0.27308273 -0.22639193 -0.83403432 126 108 105
-0.27213719 -0.22769156 -0.83449119 120 100 103
-0.27160776 -0.22727486 -0.8349998 116 92 101
-0.27076596 -0.22821914 -0.83556545 113 89 97
-0.27040887 -0.22750378 -0.83605641 112 85 94
-0.27107257 -0.22710392 -0.83551466 114 89 98
-0.27094504 -0.22550713 -0.83597779 112 86 95
-0.27367288 -0.2286934 -0.83321047 129 107 107
-0.2737852 -0.2295333 -0.83300292 130 108 107
-0.27236176 -0.23007607 -0.83395261 122 98 103
-0.27252945 -0.23005705 -0.83383399 123 99 104
-0.27163419 -0.22889362 -0.83465749 117 94 102
-0.27423394 -0.23035268 -0.83254832 129 106 109
-0.27269846 -0.23108874 -0.833556 125 100 104
-0.27423495 -0.23024717 -0.83256406 130 106 109
-0.27359307 -0.23152381 -0.83283442 125 100 107
-0.26946718 -0.23216385 -0.83606952 113 85 90
-0.27111173 -0.23189548 -0.83465785 118 90 98
-0.26967269 -0.22977531 -0.83630323 111 84 91
-0.2704868 -0.23058978 -0.83543944 115 87 95
-0.26994175 -0.23214504 -0.83565193 115 87 93
-0.27112246 -0.22992539 -0.83495301 116 91 99
-0.27130499 -0.22884864 -0.83494222 115 92 100
-0.27117792 -0.23139277 -0.83468002 117 90 99
-0.2727232 -0.23425747 -0.83310807 126 103 106
-0.27340448 -0.23315325 -0.83274388 124 99 107
-0.272098 -0.23394741 -0.83360249 124 100 104
-0.27227485 -0.23441674 -0.8334164 126 103 105
-0.27227631 -0.23629275 -0.83319432 128 108 104
-0.2733455 -0.23524784 -0.83254266 126 103 106
-0.27334666 -0.23404634 -0.83268124 125 101 107
-0.27036893 -0.23489478 -0.83492041 123 99 97
-0.26973906 -0.23413783 -0.83556712 119 93 94
-0.27071187 -0.23598064 -0.83447844 127 105 100
-0.26943359 -0.23378764 -0.83587855 117 90 92
-0.27040327 -0.2361905 -0.83471787 127 103 99
-0.27007192 -0.23520385 -0.83513653 123 98 96
-0.27138436 -0.23482028 -0.83403391 125 103 102
-0.27104542 -0.23465088 -0.834355 124 101 100
-0.27013326 -0.2334621 -0.83530796 118 93 94
-0.27093908 -0.23280586 -0.83467281 119 92 98
-0.27229393 -0.23798849 -0.83293134 132 110 112
-0.27163485 -0.23813948 -0.83338541 133 112 112
-0.27181879 -0.23935774 -0.83307189 135 113 118
-0.27226824 -0.23991805 -0.83269167 137 114 120
-0.27287394 -0.23765253 -0.83256906 130 109 111
-0.26986465 -0.23659481 -0.83510631 126 101 99
-0.26806214 -0.23971224 -0.83596766 126 106 109
-0.27040973 -0.23701917 -0.83453858 128 107 103
-0.26935253 -0.23636052 -0.83560276 125 97 96
-0.26866034 -0.2363676 -0.83620095 123 93 93
-0.27057612 -0.2368093 -0.8344416 128 107 103
-0.27063727 -0.23802277 -0.83418071 130 111 109
-0.27077642 -0.2401692 -0.83375263 135 114 119
-0.27139151 -0.24013133 -0.83327228 137 115 121
-0.27111501 -0.23896204 -0.83366406 134 113 115
-0.27140605 -0.23848635 -0.83350462 134 113 113
-0.27147323 -0.23976411 -0.83326215 137 115 119
-0.270549 -0.23874469 -0.83414346 132 111 112
-0.27201936 -0.24177951 -0.83258539 141 120 123
-0.272165 -0.24153221 -0.83252412 140 119 123
-0.26818335 -0.24367626 -0.83523786 131 112 120
-0.26874903 -0.2433079 -0.83485699 133 115 120
-0.27053288 -0.24367735 -0.83340669 141 124 124
-0.26773736 -0.24241906 -0.8357901 128 109 116
-0.26821133 -0.24237172 -0.83542848 130 111 116
-0.26911077 -0.24255756 -0.83469719 134 116 118
-0.26768637 -0.24103513 -0.8360551 127 107 112
-0.27115616 -0.24223582 -0.83313864 141 122 123
-0.26959014 -0.24177815 -0.83444548 135 116 118
-0.27032933 -0.24183767 -0.83385241 137 118 120
-0.27021557 -0.24221501 -0.83388495 138 119 120
-0.27116078 -0.24276048 -0.83305526 142 124 124
-0.2713044 -0.2411323 -0.83318931 139 118 122
-0.27075472 -0.24161237 -0.83355057 138 119 121
-0.2674118 -0.24397808 -0.83582139 128 109 120
-0.27052635 -0.24745038 -0.83301979 138 121 126
-0.27028313 -0.24711014 -0.83321077 138 121 126
-0.27082524 -0.24734564 -0.83282274 138 122 126
-0.26783207 -0.24781027 -0.83483738 134 114 123
-0.27115697 -0.24471928 -0.83277452 144 128 126
-0.26919931 -0.24679987 -0.83397162 138 119 124
-0.27060437 -0.24526387 -0.83311528 142 125 126
-0.26801914 -0.24648093 -0.83490741 133 114 122
-0.2683872 -0.24717599 -0.83450687 136 116 123
-0.26794305 -0.24604659 -0.83503777 133 113 122
-0.26938108 -0.24609418 -0.83390927 139 120 124
-0.27001086 -0.24415791 -0.83373529 139 122 124
-0.27054149 -0.24424645 -0.83330727 142 125 125
-0.2671279 -0.24571027 -0.83581251 129 109 120
-0.26675904 -0.24707845 -0.83593303 129 108 120
-0.26704648 -0.24690147 -0.83569026 130 109 120
-0.26734275 -0.24590418 -0.83557326 130 110 121
-0.26731613 -0.24434371 -0.83585435 128 109 120
-0.26913702 -0.24937844 -0.83378059 141 121 123
-0.26784602 -0.24852279 -0.83475894 136 115 122
-0.26937106 -0.24861681 -0.83370465 138 119 124
-0.26773971 -0.25034541 -0.83463013 143 121 121
-0.26838672 -0.24983892 -0.83424324 142 121 122
-0.26769301 -0.24971534 -0.83473176 140 119 121
-0.27105099 -0.24923842 -0.83243752 139 121 126
-0.26995179 -0.25015086 -0.83310145 142 123 124
-0.27021468 -0.25085923 -0.83278996 142 120 125
-0.27011526 -0.25099549 -0.83284116 143 120 125
-0.26629263 -0.24931996 -0.83606416 134 111 119
-0.26670632 -0.25089529 -0.8354944 143 119 119
-0.26586527 -0.25137794 -0.83621418 144 119 119
-0.26721269 -0.24880189 -0.83525759 135 113 121
-0.26719606 -0.249119 -0.83523828 136 114 121
-0.26710603 -0.24982315 -0.83524573 139 116 120
-0.26404074 -0.26536766 -0.83593035 122 93 103
-0.26406828 -0.26592731 -0.83584237 123 92 103
-0.26418203 -0.26669809 -0.8356567 123 92 102
-0.26458594 -0.26647121 -0.83534014 125 95 104
-0.26368126 -0.26826447 -0.83589005 123 90 100
-0.26826122 -0.2049769 -0.84890836 106 52 79
-0.26856643 -0.20505551 -0.84809411 118 61 89
-0.26888758 -0.20389311 -0.84833199 118 72 88
-0.268812 -0.20328224 -0.84911466 111 71 82
-0.26875904 -0.20409536 -0.84848708 116 68 87
-0.26862204 -0.20341961 -0.84949684 107 64 78
-0.26773205 -0.20705363 -0.8483355 104 64 81
-0.26810834 -0.20617366 -0.84820718 110 63 85
-0.26733819 -0.20747556 -0.84899801 96 66 75
-0.26742792 -0.20717564 -0.84902358 96 62 74
-0.26677141 -0.20851909 -0.84953254 94 69 71
-0.26537338 -0.21205579 -0.84988117 85 54 51
-0.26630771 -0.2097351 -0.84961259 92 64 64
-0.26654324 -0.20929116 -0.84941268 94 69 70
-0.26599628 -0.21083884 -0.84940833 88 59 58
-0.26671636 -0.21000959 -0.8483184 97 75 75
-0.26418251 -0.21599765 -0.84948069 85 54 47
-0.26380751 -0.21676818 -0.84961784 84 51 45
-0.26424286 -0.21548533 -0.84978473 85 54 47
-0.26490805 -0.21557313 -0.84812719 87 57 52
-0.26571676 -0.21291532 -0.8482393 87 58 56
-0.26466992 -0.21429966 -0.84975439 85 55 49
-0.26535419 -0.21315634 -0.84895664 87 57 53
-0.26494694 -0.21437043 -0.84900057 86 56 51
-0.26369625 -0.21884099 -0.8484531 84 50 43
-0.26376656 -0.21906735 -0.84815401 85 50 43
-0.2636081 -0.21713543 -0.84978044 83 50 44
-0.2635563 -0.21763891 -0.84954828 84 50 43
-0.26326385 -0.21922404 -0.84906209 84 48 40
-0.26319438 -0.21889381 -0.84942973 83 48 40
-0.26294664 -0.21956719 -0.84946871 83 48 39
-0.26301658 -0.22042075 -0.84874338 84 48 39
-0.26310962 -0.21996257 -0.84885716 84 48 39
-0.26297852 -0.21917807 -0.84966481 83 48 39
-0.26136118 -0.22454603 -0.84946716 83 50 43
-0.26173106 -0.2238047 -0.84926236 83 50 42
-0.26138037 -0.22302057 -0.85045052 83 50 40
-0.26110417 -0.2236452 -0.8505559 83 50 41
-0.26196948 -0.22454014 -0.84831941 83 50 43
-0.26227275 -0.22146814 -0.84963948 83 49 39
-0.26241761 -0.22328965 -0.84818542 84 50 42
-0.26225996 -0.22141252 -0.84970152 83 49 39
-0.26205128 -0.22305107 -0.84910882 83 50 41
-0.26207817 -0.22216602 -0.84961015 83 50 40
-0.26026741 -0.22778393 -0.84960163 86 53 49
-0.2601884 -0.22594033 -0.8508693 84 51 45
-0.26015452 -0.22700864 -0.85026193 85 52 48
-0.26085135 -0.22685733 -0.84915692 85 53 48
-0.26105547 -0.2270245 -0.84867883 85 53 48
-0.26099789 -0.22765344 -0.84844279 86 54 50
-0.26106858 -0.2273628 -0.84846842 86 53 49
-0.26046771 -0.22566082 -0.85053968 84 51 45
-0.26069579 -0.22721975 -0.8492527 85 53 49
-0.25951827 -0.22784916 -0.85092139 85 52 48
-0.25960946 -0.22823527 -0.85047454 86 52 50
-0.25986925 -0.23197123 -0.84852272 93 61 59
-0.25992772 -0.23131607 -0.84866858 92 59 58
-0.26049232 -0.22913143 -0.84856445 88 55 53
-0.26016343 -0.23171896 -0.84814686 92 60 59
-0.25899911 -0.2298522 -0.85110599 88 56 53
-0.25880381 -0.22926518 -0.85173368 87 55 51
-0.25869006 -0.23130637 -0.85103703 91 59 58
-0.25922939 -0.23018046 -0.850528 89 57 54
-0.25948444 -0.23122655 -0.84958363 91 59 57
-0.25947475 -0.23108217 -0.84965998 91 59 56
-0.25969237 -0.22909799 -0.84990031 87 54 52
-0.25970677 -0.23210846 -0.84876925 93 61 60
-0.25978172 -0.23281486 -0.84832019 95 63 63
-0.25921157 -0.23258404 -0.84948879 94 62 62
-0.25898367 -0.23304845 -0.84970385 96 65 66
-0.25898272 -0.23460968 -0.84888315 105 74 77
-0.25901505 -0.23435986 -0.84895551 103 72 75
-0.25841114 -0.23395175 -0.85027677 101 70 74
-0.2585527 -0.23520659 -0.84935468 108 79 83
-0.25696757 -0.2358171 -0.85190749 115 95 102
-0.25748685 -0.23417372 -0.85183781 104 79 83
-0.25747108 -0.23557816 -0.85112053 113 90 95
-0.25754428 -0.23383757 -0.8519122 102 75 79
-0.25866079 -0.23628049 -0.84858805 115 86 91
-0.25764555 -0.23628102 -0.85043049 117 94 100
-0.25607416 -0.23903713 -0.8518371 119 98 106
-0.25656828 -0.24021786 -0.85046881 120 97 106
-0.2567628 -0.23710422 -0.85163319 119 100 107
-0.25629842 -0.23949137 -0.8512494 120 97 106
-0.25663918 -0.23856673 -0.85113835 120 98 106
-0.25674212 -0.23782314 -0.85132521 119 99 107
-0.2570911 -0.23765181 -0.85084331 120 100 108
-0.25777975 -0.23760559 -0.84963894 119 96 103
-0.2586686 -0.2372659 -0.84816468 117 89 95
-0.25769967 -0.23716192 -0.84996593 118 96 102
-0.25847381 -0.23808815 -0.84818166 118 92 99
-0.25798804 -0.23784477 -0.849163 119 95 102
-0.2584382 -0.23832555 -0.84814912 119 93 100
-0.25649056 -0.24195701 -0.84987974 120 98 108
-0.25616324 -0.24225824 -0.8502844 119 98 108
-0.25778943 -0.24023576 -0.84848946 122 99 108
-0.25654948 -0.24112351 -0.85012656 120 98 107
-0.25619084 -0.24073969 -0.85086292 120 97 106
-0.25600627 -0.24359246 -0.84999037 119 99 110
-0.25651342 -0.24334943 -0.84927887 120 100 110
-0.2566666 -0.24379288 -0.8488639 120 101 109
-0.25714776 -0.24294561 -0.84843504 121 101 109
-0.25568351 -0.24367164 -0.85049331 118 99 109
-0.25558218 -0.24172065 -0.85147536 119 97 106
-0.25572154 -0.2426984 -0.85083431 119 98 108
-0.25578782 -0.24249484 -0.85080636 119 98 108
-0.25625089 -0.24604137 -0.84864378 114 94 103
-0.25589928 -0.2451981 -0.84952748 116 96 107
-0.25652575 -0.24491908 -0.84864724 118 99 107
-0.25705674 -0.24427323 -0.84806055 121 103 108
-0.25438243 -0.24576697 -0.85188317 111 92 102
-0.25438476 -0.2476491 -0.8511678 107 87 94
-0.25469846 -0.2443812 -0.85186321 115 96 108
-0.25449905 -0.24524483 -0.85187984 113 93 104
-0.25458351 -0.24513808 -0.85177493 113 94 104
-0.25556603 -0.24524988 -0.85006338 115 95 106
-0.25574324 -0.24484058 -0.84992504 116 97 108
-0.2556574 -0.2450795 -0.84997624 115 96 107
-0.25545338 -0.2466211 -0.84971845 110 90 101
-0.25575545 -0.24821661 -0.84861541 107 86 96
-0.2555539 -0.24876027 -0.84882218 107 86 94
-0.25557521 -0.25106683 -0.84818012 105 83 89
-0.25568753 -0.25023627 -0.84820747 106 84 91
-0.25479871 -0.24911447 -0.8500284 106 85 91
-0.25332749 -0.25081754 -0.85174078 100 79 83
-0.25400829 -0.24927799 -0.85126418 104 84 89
-0.25335985 -0.25140849 -0.85148215 99 78 81
-0.25410149 -0.24923298 -0.85114002 104 84 89
-0.2536554 -0.2513327 -0.85106474 100 79 82
-0.25372589 -0.24968383 -0.85154462 103 82 87
-0.25471663 -0.25130659 -0.84947848 103 81 86
-0.25351688 -0.25415412 -0.85054278 93 73 76
-0.25259975 -0.25527838 -0.85178357 88 70 71
-0.2533645 -0.2553263 -0.85054743 90 70 73
-0.25467703 -0.25556898 -0.84839326 92 71 77
-0.25371674 -0.25383449 -0.85028762 94 73 77
-0.25351751 -0.25332001 -0.8507123 95 74 78
-0.25384048 -0.25454617 -0.84994376 93 72 76
-0.25360164 -0.25248924 -0.85078895 98 76 80
-0.2543816 -0.25336313 -0.84939432 97 76 80
-0.25521162 -0.25315663 -0.84819889 100 78 83
-0.25404665 -0.25371888 -0.8498075 95 74 78
-0.2542299 -0.25201404 -0.8499651 100 79 82
-0.25440657 -0.25280476 -0.84949863 99 77 81
-0.2545566 -0.25296372 -0.84923273 99 77 81
-0.2528089 -0.25750482 -0.85087496 84 62 66
-0.25331455 -0.2585237 -0.84981501 83 59 66
-0.25230554 -0.25914189 -0.85112178 81 55 58
-0.25262791 -0.25715569 -0.85124958 85 64 66
-0.25228679 -0.25817686 -0.85144383 83 59 61
-0.25230685 -0.25903514 -0.85115242 81 56 58
-0.25406796 -0.25763369 -0.84887069 86 63 71
-0.25408113 -0.25778165 -0.84881288 86 62 71
-0.25370494 -0.25829539 -0.84928876 84 60 69
-0.2542665 -0.25762892 -0.84855354 87 63 72
-0.25371712 -0.25689501 -0.84961635 87 65 71
-0.25379586 -0.25800124 -0.84921587 85 61 69
-0.25186813 -0.25902051 -0.85183495 80 56 56
-0.25195676 -0.26338825 -0.8508178 80 54 54
-0.25301114 -0.26175684 -0.84953934 81 54 60
-0.25200686 -0.26298738 -0.85081333 80 54 55
-0.25271514 -0.26113191 -0.85008675 81 54 58
-0.2523039 -0.26127076 -0.85067201 80 54 56
-0.25325403 -0.26104236 -0.84930372 82 54 62
-0.25369003 -0.2636089 -0.84814167 82 55 59
-0.25410965 -0.26021144 -0.84817553 82 55 66
-0.25204566 -0.26354739 -0.85065758 81 55 55
-0.25354576 -0.26159474 -0.84876019 82 55 62
-0.25181669 -0.26344058 -0.85103995 80 54 54
-0.25167733 -0.26327702 -0.85129923 80 54 54
-0.2518492 -0.26086193 -0.8514331 80 53 54
-0.25233802 -0.26455536 -0.84993398 81 56 55
-0.25218993 -0.26557887 -0.8498655 81 57 55
-0.25215122 -0.26567933 -0.8498956 81 57 55
-0.25263926 -0.26587084 -0.84909743 81 58 56
-0.25226387 -0.26569659 -0.84971911 81 57 55
-0.25296178 -0.26612225 -0.84855086 82 58 56
-0.25285542 -0.26717362 -0.84842914 81 58 56
-0.25108814 -0.26604521 -0.85153186 83 60 57
-0.25092477 -0.26740837 -0.85141498 86 63 60
-0.25144398 -0.26678941 -0.85072601 82 60 56
-0.25172162 -0.26646826 -0.85035473 81 58 55
-0.25151694 -0.2644532 -0.8512727 80 56 55
-0.25175393 -0.26483223 -0.85077089 81 56 55
-0.25223505 -0.26942736 -0.84887791 88 63 64
-0.2523604 -0.26909146 -0.84875828 87 62 62
-0.25255874 -0.27107447 -0.84809721 95 68 72
-0.25300828 -0.26770583 -0.84807205 82 59 56
-0.25056598 -0.27031329 -0.85143995 94 70 73
-0.25066411 -0.26825896 -0.85167003 89 66 64
-0.25040451 -0.26953989 -0.85185844 92 69 70
-0.2505998 -0.26826373 -0.8517766 89 66 64
-0.25074011 -0.26884544 -0.8514303 90 67 66
-0.25173324 -0.27067342 -0.84941852 94 67 71
-0.25069544 -0.26769415 -0.85172635 87 64 61
-0.25149238 -0.26895869 -0.85015249 88 64 64
-0.28337476 -0.22521918 -0.82830441 183 166 148
-0.28436214 -0.22595289 -0.82792342 184 166 156
-0.28339309 -0.22666375 -0.82814205 177 163 158
-0.28303733 -0.2279059 -0.82813537 170 158 166
-0.28262058 -0.22666492 -0.82844597 174 158 153
-0.2840369 -0.23100935 -0.82751274 163 147 160
-0.28334871 -0.22976457 -0.82782394 164 151 164
-0.28360361 -0.23121038 -0.82759953 159 142 155
-0.28384331 -0.23054117 -0.82761335 163 149 162
-0.28497905 -0.23202264 -0.82716334 164 147 160
-0.28218597 -0.2307391 -0.82818705 154 136 147
-0.28250262 -0.23090833 -0.82803041 155 137 148
-0.28179541 -0.22966398 -0.82846993 157 141 151
-0.28312874 -0.23159721 -0.8276884 155 136 149
-0.28292805 -0.22904688 -0.82805461 165 153 165
-0.28355113 -0.2338253 -0.82744801 153 130 144
-0.28425163 -0.23431125 -0.82724273 158 133 147
-0.28356946 -0.23375554 -0.82744378 154 130 144
-0.28539512 -0.23399216 -0.8269428 166 141 155
-0.28485894 -0.23365398 -0.82709312 163 138 152
-0.28229877 -0.23537709 -0.82789314 145 119 133
-0.28283086 -0.23589826 -0.82767105 148 123 136
-0.28151911 -0.23518138 -0.82818633 140 113 126
-0.28076077 -0.23599002 -0.8284148 134 104 117
-0.28300062 -0.23580477 -0.82760817 149 124 138
-0.28241673 -0.23450507 -0.82788271 146 123 135
-0.28235328 -0.23354185 -0.82792389 146 124 136
-0.28382224 -0.23823941 -0.8272565 157 137 146
-0.28433612 -0.23853612 -0.82710874 162 144 151
-0.28526059 -0.23838989 -0.82687706 170 153 157
-0.28393248 -0.24019636 -0.82713026 160 144 151
-0.28409848 -0.23956783 -0.82711869 161 144 151
-0.28449163 -0.23750696 -0.8271172 162 142 150
-0.28572622 -0.2379806 -0.8267554 172 152 158
-0.285678 -0.23802322 -0.82676804 172 152 158
-0.28241724 -0.23987727 -0.82762975 150 130 139
-0.28053343 -0.23679192 -0.8284592 133 103 115
-0.28067684 -0.23891501 -0.82832867 141 114 124
-0.28103828 -0.23980676 -0.82815886 145 121 129
-0.28187788 -0.23894152 -0.82786912 145 122 132
-0.28305048 -0.23985948 -0.82739091 152 134 143
-0.28266019 -0.23849422 -0.82760024 148 126 137
-0.28291562 -0.2374559 -0.82755965 149 125 138
-0.28277478 -0.23896155 -0.82753545 149 129 139
-0.28320709 -0.24406549 -0.82712483 154 130 145
-0.2835035 -0.24122904 -0.82720309 155 136 146
-0.28339767 -0.24404357 -0.82708526 154 130 145
-0.28359735 -0.24306543 -0.8270914 155 133 146
-0.2842662 -0.24221094 -0.82699102 159 137 149
-0.28149939 -0.24077898 -0.82792556 149 128 136
-0.28072149 -0.24187881 -0.82813811 148 127 134
-0.28122666 -0.242084 -0.82792938 151 131 138
-0.2806229 -0.24070606 -0.82826591 146 122 130
-0.28007048 -0.24073732 -0.82847446 144 119 126
-0.28224865 -0.24316755 -0.82750922 152 130 142
-0.28289613 -0.2436714 -0.8272543 153 130 144
-0.28190032 -0.24361193 -0.82761061 152 129 140
-0.28125706 -0.24340405 -0.82784927 151 129 138
-0.282381 -0.24386182 -0.82742757 152 129 142
-0.28069082 -0.2428064 -0.82808006 150 129 136
-0.28452364 -0.2461803 -0.8267765 162 141 152
-0.28354275 -0.24513616 -0.82701635 156 132 145
-0.28459939 -0.24728575 -0.82672155 162 141 150
-0.28620544 -0.24737237 -0.82638669 174 155 163
-0.28562787 -0.24663714 -0.82653219 170 150 160
-0.28378233 -0.24589536 -0.82693988 157 134 146
-0.28499231 -0.24441765 -0.82673162 163 138 151
-0.28587967 -0.24610899 -0.82649386 171 149 159
-0.28472605 -0.24519251 -0.82676649 163 140 153
-0.28581035 -0.24590506 -0.82651448 170 148 159
-0.28434533 -0.24430361 -0.82687312 159 135 149
-0.28388771 -0.244682 -0.82696027 158 135 148
-0.28023222 -0.24631976 -0.82812983 148 126 133
-0.2820836 -0.24745764 -0.82741445 150 128 136
-0.28043383 -0.24535719 -0.82806337 149 127 133
-0.28095445 -0.2468504 -0.82784986 148 126 134
-0.27951473 -0.24739571 -0.82839113 145 123 131
-0.28084761 -0.24751273 -0.82788348 147 126 133
-0.28275409 -0.24468406 -0.82726192 153 129 142
-0.28186181 -0.24652752 -0.82751292 151 128 136
-0.28161994 -0.24630894 -0.82760662 150 128 135
-0.28294635 -0.24714355 -0.82710618 152 129 138
-0.28276053 -0.244579 -0.82726336 153 129 142
-0.28279138 -0.24566057 -0.82721394 152 129 140
-0.28580332 -0.25068223 -0.82641512 171 155 159
-0.28405094 -0.25001234 -0.82677686 157 136 145
-0.28517535 -0.25155193 -0.82652372 165 146 154
-0.2845926 -0.25151709 -0.82664043 161 140 149
-0.28454795 -0.2497004 -0.82668376 161 142 149
-0.28582671 -0.24818982 -0.82643932 171 152 159
-0.28499907 -0.24862242 -0.82660526 165 146 152
-0.28611594 -0.25054389 -0.82635236 173 158 161
-0.28027686 -0.25097093 -0.82795274 146 121 130
-0.27930948 -0.25061581 -0.82829976 144 121 127
-0.27930075 -0.2518906 -0.82822168 144 120 126
-0.28246021 -0.25131869 -0.82719845 148 122 137
-0.28038502 -0.25073767 -0.82793128 146 121 131
-0.28214034 -0.24974769 -0.82735449 148 125 136
-0.28290761 -0.24941979 -0.82706922 150 127 137
-0.28158489 -0.24810606 -0.8275966 148 126 135
-0.28287619 -0.24836779 -0.82710105 151 128 137
-0.28260803 -0.24960177 -0.82717961 149 126 137
-0.28172991 -0.24985106 -0.82750851 148 124 135
-0.27885807 -0.25120193 -0.82845098 146 121 127
-0.28428093 -0.25514969 -0.82662565 164 147 156
-0.28402451 -0.25499421 -0.8266741 162 144 154
-0.28498092 -0.25393736 -0.82654434 166 148 153
-0.28586745 -0.25213301 -0.82637787 171 154 160
-0.28616926 -0.25263843 -0.8263166 174 159 162
-0.28464943 -0.25314745 -0.82661813 163 142 150
-0.2804727 -0.25430894 -0.82772845 152 129 140
-0.27938935 -0.25550461 -0.82801068 154 130 142
-0.28009263 -0.25277904 -0.82792574 147 124 132
-0.27990636 -0.25374803 -0.82793576 150 126 135
-0.2818101 -0.25213781 -0.82737035 148 122 135
-0.28203243 -0.25260496 -0.82728124 150 124 137
-0.27865988 -0.25258684 -0.82845342 149 123 129
-0.2791014 -0.25281015 -0.82825816 148 122 130
-0.28058273 -0.25761664 -0.82755971 164 142 152
-0.28036043 -0.25820735 -0.82757688 165 145 153
-0.28187594 -0.25710669 -0.82718456 163 142 154
-0.28197619 -0.2565656 -0.82716244 161 140 153
-0.28263679 -0.25722367 -0.82694191 165 144 156
-0.2814897 -0.2573075 -0.82730311 164 142 153
-0.27882379 -0.262824 -0.82778817 167 146 156
-0.27868989 -0.26222041 -0.82787001 166 146 155
-0.27916723 -0.26105303 -0.8277387 167 150 155
-0.26929179 -0.20860752 -0.84383196 138 129 121
-0.26928699 -0.20868179 -0.84379941 138 128 121
-0.2699236 -0.20871207 -0.84282392 138 125 123
-0.27005935 -0.20807596 -0.84295976 142 127 126
-0.26968685 -0.20866571 -0.84320545 138 126 122
-0.27042088 -0.20925242 -0.84179807 135 119 122
-0.26962399 -0.20967601 -0.84274954 130 115 114
-0.26998016 -0.20978644 -0.84215552 130 112 114
-0.26919988 -0.2109416 -0.84267032 118 97 97
-0.26859096 -0.21016325 -0.84401774 124 111 103
-0.26910675 -0.20984685 -0.84342569 128 114 109
-0.27021858 -0.21100903 -0.8411935 124 100 107
-0.26906168 -0.21275902 -0.84202349 111 86 88
-0.268134 -0.21252459 -0.84341598 104 81 77
-0.27001128 -0.21117154 -0.84140927 122 98 104
-0.26964757 -0.21236049 -0.84138668 116 92 96
-0.26793477 -0.21234034 -0.8437745 103 80 76
-0.26874059 -0.21371578 -0.84203106 107 81 81
-0.26798624 -0.214371 -0.8427847 101 74 71
-0.2688179 -0.21304333 -0.84221464 108 82 84
-0.2679112 -0.21301852 -0.84347045 100 75 72
-0.26886421 -0.21328412 -0.84204727 108 82 84
-0.26841596 -0.21460117 -0.84209538 105 77 75
-0.26867685 -0.2161624 -0.84114081 104 76 74
-0.26930097 -0.21554875 -0.84057087 108 81 83
-0.26882142 -0.21666014 -0.84078521 103 75 75
-0.26736161 -0.21508455 -0.84341627 96 69 63
-0.26724499 -0.21442474 -0.84390277 96 69 63
-0.26684624 -0.21619302 -0.84380585 95 67 58
-0.26791838 -0.2175498 -0.84160262 100 71 66
-0.26822203 -0.21728584 -0.84131557 101 72 69
-0.2683875 -0.2172353 -0.84112573 102 73 70
-0.2676343 -0.21835361 -0.84167176 100 70 65
-0.26839781 -0.21924324 -0.84041053 104 75 75
-0.26811498 -0.21989414 -0.84053212 104 75 74
-0.26657563 -0.21934983 -0.84297287 97 67 61
-0.26685816 -0.21926613 -0.84257889 98 68 63
-0.26585269 -0.22001114 -0.84379822 94 63 58
-0.2666015 -0.21814933 -0.84342414 95 66 58
-0.26740283 -0.22009762 -0.84141386 101 71 68
-0.26701644 -0.21733265 -0.84306097 96 67 59
-0.26746801 -0.217011 -0.84240997 97 68 60
-0.26678878 -0.21723184 -0.84348339 95 67 57
-0.26760253 -0.22208197 -0.84042847 102 73 72
-0.26625443 -0.22142944 -0.84267306 97 65 63
-0.26633266 -0.22127044 -0.84260565 97 66 63
-0.26667848 -0.22159988 -0.84197563 98 68 66
-0.26654974 -0.22201988 -0.84202927 98 67 65
-0.26734498 -0.2225692 -0.84065318 101 72 71
-0.26700076 -0.22256763 -0.84116662 99 70 69
-0.26574829 -0.22181734 -0.84327245 95 63 60
-0.26547176 -0.2235758 -0.84294748 94 64 60
-0.26526964 -0.2230323 -0.84344202 93 62 59
-0.2649613 -0.22444925 -0.84329736 93 62 58
-0.26552823 -0.22385861 -0.84275687 94 64 61
-0.2653358 -0.2224353 -0.84359032 93 62 58
-0.26519349 -0.22301503 -0.8435533 93 62 58
-0.26594672 -0.22814274 -0.84081262 98 70 69
-0.26425967 -0.22586524 -0.84381163 91 61 57
-0.26410583 -0.22612277 -0.84394324 91 61 56
-0.26478827 -0.2272996 -0.84265214 94 65 62
-0.26381108 -0.22846004 -0.84363306 92 64 59
-0.26518741 -0.22758195 -0.84202087 95 67 64
-0.26475316 -0.22612859 -0.84305722 93 63 60
-0.26487356 -0.22498144 -0.84324092 93 62 58
-0.26576504 -0.22593144 -0.84173161 96 67 65
-0.2658208 -0.2252098 -0.84187365 96 67 64
-0.26656786 -0.22711584 -0.84027296 99 72 71
-0.26588511 -0.22532223 -0.84175152 96 67 64
-0.26540685 -0.22564283 -0.84230989 95 65 62
-0.26426426 -0.22977954 -0.84261882 95 65 64
-0.26486728 -0.22988762 -0.84176278 97 67 67
-0.26466218 -0.22854808 -0.84244382 95 67 63
-0.26524997 -0.22980565 -0.84126455 98 68 69
-0.26368052 -0.22862087 -0.84376305 92 63 59
-0.26490888 -0.22875582 -0.84204471 96 67 65
-0.26450709 -0.22919276 -0.84246272 95 66 64
-0.26514149 -0.23068114 -0.84116501 99 68 70
-0.2644988 -0.23166485 -0.84174925 98 66 68
-0.26514876 -0.23087041 -0.84110475 99 68 70
-0.26548755 -0.23038447 -0.84078807 99 69 71
-0.26279321 -0.23235318 -0.84392905 94 61 63
-0.26312354 -0.23165202 -0.84366703 94 62 62
-0.26464739 -0.23303282 -0.84117508 101 71 74
-0.26505554 -0.23248881 -0.84079307 100 69 72
-0.26446158 -0.23361354 -0.84125334 104 74 76
-0.26407811 -0.23456423 -0.84148604 107 79 80
-0.26397645 -0.2359809 -0.84123808 113 86 88
-0.26415339 -0.23577477 -0.8410781 112 85 87
-0.2625393 -0.23586087 -0.84313923 110 82 86
-0.26322037 -0.23484859 -0.84258461 106 78 79
-0.26179036 -0.23603836 -0.84405446 110 81 87
-0.26247758 -0.23586974 -0.84321654 110 82 86
-0.26288411 -0.23466988 -0.84307986 105 76 78
-0.2635414 -0.23310243 -0.84263045 99 67 69
-0.26343569 -0.2326801 -0.84290463 97 64 66
-0.2637983 -0.23885456 -0.84073985 122 94 102
-0.26376578 -0.23736893 -0.8411479 118 91 95
-0.26396233 -0.23711316 -0.84098697 117 89 93
-0.2640731 -0.23962235 -0.84025055 124 94 105
-0.26168478 -0.23953418 -0.84309888 124 99 108
-0.26150426 -0.2383184 -0.84369159 120 93 101
-0.26163295 -0.23662205 -0.84407032 113 84 90
-0.26169106 -0.23810546 -0.84353817 119 92 99
-0.26145044 -0.23978059 -0.84329784 125 101 110
-0.26162362 -0.23649165 -0.84412211 112 83 90
-0.26160878 -0.2376439 -0.84377933 117 90 97
-0.26246306 -0.23671672 -0.84298879 114 86 91
-0.26305699 -0.23786494 -0.84193045 118 91 97
-0.2632542 -0.23846309 -0.8415249 120 93 100
-0.26341978 -0.23706982 -0.84165752 116 90 93
-0.26213652 -0.24061495 -0.84226954 127 103 112
-0.26239234 -0.24058798 -0.84197384 127 102 112
-0.26008752 -0.24307685 -0.84401488 130 110 116
-0.26204088 -0.24189149 -0.84206903 128 105 114
-0.26050815 -0.24243157 -0.84369642 130 108 115
-0.26103652 -0.24050078 -0.84358525 127 105 113
-0.26030436 -0.24221532 -0.84398711 129 108 115
-0.26063156 -0.24066958 -0.84400845 128 106 114
-0.26187408 -0.24263117 -0.84207058 129 106 114
-0.26152802 -0.24387513 -0.84218383 129 110 117
-0.26126784 -0.24321093 -0.8426227 130 108 115
-0.26286817 -0.24260528 -0.84094775 128 105 114
-0.26325974 -0.24319731 -0.84037608 127 106 116
-0.26236084 -0.2444703 -0.8411054 127 109 117
-0.2616432 -0.24572532 -0.84161693 122 103 114
-0.26137322 -0.24456279 -0.84219694 128 109 117
-0.26048547 -0.24669458 -0.84269243 120 99 111
-0.25999379 -0.24458255 -0.8437475 130 110 116
-0.26106861 -0.24431394 -0.84259939 130 111 117
-0.2600342 -0.24559863 -0.84346104 125 105 114
-0.2623907 -0.24802969 -0.84044975 120 95 113
-0.26096994 -0.2479286 -0.8419472 117 95 110
-0.26176065 -0.24789463 -0.84112847 119 95 112
-0.26066411 -0.24748503 -0.84233797 117 96 110
-0.26264563 -0.24484999 -0.84069997 125 107 117
-0.26201737 -0.24573101 -0.84121192 123 103 114
-0.25916597 -0.2476517 -0.84401196 115 94 106
-0.25937194 -0.24662785 -0.84400266 120 99 109
-0.26049903 -0.24903598 -0.84214997 116 92 106
-0.26189724 -0.24839307 -0.84086728 119 94 111
-0.25985196 -0.24809368 -0.8430807 115 93 108
-0.25998828 -0.24817844 -0.84291559 115 93 108
-0.26152712 -0.24900429 -0.84108692 118 93 109
-0.26084563 -0.24956834 -0.84164393 117 92 106
-0.26196048 -0.24944937 -0.84051234 121 95 110
-0.26116854 -0.25160167 -0.84074903 123 96 104
-0.2616984 -0.24931639 -0.84082335 119 93 108
-0.26033786 -0.25129288 -0.84170395 116 89 100
-0.25920221 -0.25179189 -0.8429029 112 86 96
-0.25894296 -0.25132307 -0.84336269 111 86 96
-0.25923949 -0.25086862 -0.84308845 113 88 98
-0.2591871 -0.24949063 -0.84350735 113 90 101
-0.25975055 -0.25165644 -0.8422206 114 88 97
-0.25928581 -0.24850027 -0.84364802 113 92 104
-0.26036796 -0.25218895 -0.84145671 119 91 100
-0.26052511 -0.25209489 -0.84130561 120 92 101
-0.25977489 -0.2531139 -0.84194463 115 87 96
-0.26041579 -0.25211248 -0.84141761 119 92 100
-0.26137406 -0.25261062 -0.84034997 126 98 106
-0.26121336 -0.25434271 -0.84031284 126 100 107
-0.26057628 -0.25452325 -0.84091604 121 93 101
-0.2582317 -0.25210881 -0.84410924 108 83 93
-0.25853592 -0.25416696 -0.84336376 109 82 92
