ply
format ascii 1.0
comment PCL generated
element vertex 842
property float x
property float y
property float z
property uchar red
property uchar green
property uchar blue
element camera 1
property float view_px
property float view_py
property float view_pz
property float x_axisx
property float x_axisy
property float x_axisz
property float y_axisx
property float y_axisy
property float y_axisz
property float z_axisx
property float z_axisy
property float z_axisz
property float focal
property float scalex
property float scaley
property float centerx
property float centery
property int viewportx
property int viewporty
property float k1
property float k2
end_header
-0.24199286 0.59979206 -0.87028176 161 127 129
-0.24254254 0.59992558 -0.87099707 165 132 129
-0.24238124 0.59886426 -0.87087101 158 124 124
-0.24210155 0.59664977 -0.87071985 139 100 105
-0.24225307 0.59688467 -0.87089568 142 104 107
-0.24238722 0.59767187 -0.87099499 149 112 114
-0.24271931 0.5972423 -0.87147218 148 111 110
-0.24213129 0.59667188 -0.87075669 139 100 105
-0.24100175 0.59579861 -0.8693037 134 91 100
-0.24185373 0.59449184 -0.87053442 144 105 106
-0.24124941 0.59539127 -0.86966401 136 94 101
-0.24240379 0.59389484 -0.87131298 149 112 109
-0.24215722 0.59507197 -0.87090749 140 100 102
-0.24244417 0.59314221 -0.87141412 154 119 114
-0.24125655 0.59532899 -0.86967748 137 95 101
-0.2404466 0.59496301 -0.8686623 138 98 103
-0.24173908 0.5925439 -0.87057316 158 125 117
-0.24023564 0.59210056 -0.8690359 161 139 115
-0.24175805 0.59282124 -0.87053537 156 121 116
-0.24012929 0.59299129 -0.86872548 154 126 111
-0.23987485 0.59248978 -0.86853647 156 133 112
-0.24022952 0.59233886 -0.8689788 159 136 114
-0.23978646 0.59499627 -0.86796445 136 97 101
-0.24099271 0.59136796 -0.86995602 162 137 117
-0.24193266 0.58953595 -0.87112546 153 123 111
-0.24150237 0.59047204 -0.87058216 157 130 114
-0.24064919 0.59114534 -0.86960167 160 138 115
-0.24171185 0.59109563 -0.87075824 161 132 117
-0.24077056 0.59030789 -0.86978644 154 130 110
-0.24034633 0.59057885 -0.8692804 152 129 108
-0.24054112 0.58862239 -0.86959016 134 106 94
-0.24105367 0.58901137 -0.87017131 144 117 102
-0.23931752 0.5882923 -0.86826432 128 95 88
-0.23920505 0.58798647 -0.86815679 125 90 85
-0.24015082 0.58851522 -0.86914754 130 100 90
-0.23908217 0.59054112 -0.86786139 148 124 104
-0.23902729 0.58915544 -0.8679046 136 105 94
-0.23975052 0.59165657 -0.86854911 160 141 114
-0.24141526 0.58752197 -0.87069273 138 107 99
-0.24092777 0.5878768 -0.87007385 131 101 92
-0.24167778 0.58543605 -0.87129569 146 118 111
-0.241368 0.58561242 -0.87090939 143 113 107
-0.24055441 0.58640152 -0.86982983 130 100 93
-0.24071003 0.58470535 -0.87021399 135 104 98
-0.24070518 0.58609396 -0.87005258 133 103 96
-0.2399292 0.58621842 -0.86912096 125 94 86
-0.23961729 0.58422565 -0.86900699 128 96 89
-0.24006423 0.5847379 -0.86943239 127 96 88
-0.23869091 0.58738559 -0.8676644 125 89 85
-0.23956871 0.58783835 -0.86855602 124 90 85
-0.23894852 0.58648509 -0.8680371 125 91 86
-0.24075405 0.58248127 -0.87042183 144 113 103
-0.24133481 0.58108789 -0.87121415 160 130 117
-0.240676 0.58337414 -0.87028146 138 107 99
-0.24064845 0.58194983 -0.87026298 143 112 101
-0.24058209 0.58047253 -0.87013638 144 115 101
-0.24046199 0.58306468 -0.87001377 136 105 96
-0.23988727 0.58169448 -0.86932129 131 101 89
-0.23989192 0.58216298 -0.86933523 130 100 89
-0.23917957 0.5804044 -0.8686167 129 100 86
-0.23993348 0.58227503 -0.86937732 130 99 89
-0.23859133 0.58360988 -0.86794329 127 95 87
-0.23896746 0.58295536 -0.86837953 127 95 86
-0.23901251 0.58271432 -0.8684392 127 95 85
-0.24100722 0.57709908 -0.87117058 162 134 121
-0.24090564 0.57956362 -0.870673 154 125 111
-0.24127418 0.57807881 -0.8714208 166 138 124
-0.2408651 0.57637358 -0.87118691 164 136 125
-0.24004018 0.57797009 -0.8700006 148 120 108
-0.23930228 0.57697308 -0.86956561 151 120 111
-0.24009639 0.57708931 -0.87028968 155 126 115
-0.24022599 0.57765633 -0.87026125 152 123 111
-0.23809874 0.57680422 -0.86846614 145 113 105
-0.23914631 0.57621175 -0.86962092 155 124 116
-0.23826863 0.57788777 -0.86833674 139 107 98
-0.238178 0.57898217 -0.86795008 132 101 88
-0.23911375 0.57996541 -0.86857784 130 101 87
-0.23746918 0.57682395 -0.86786175 141 108 101
-0.23853393 0.57857442 -0.86840302 136 105 94
-0.24064292 0.57421714 -0.87108588 168 133 127
-0.24075282 0.57459241 -0.8711769 168 134 127
-0.24081381 0.57245392 -0.8712436 173 132 130
-0.23941709 0.57361197 -0.86974776 162 125 120
-0.23859201 0.57288706 -0.86886275 158 119 117
-0.23807243 0.57284313 -0.86831474 155 117 115
-0.23898517 0.57236153 -0.86926454 161 121 119
-0.2393894 0.5724231 -0.86969149 163 123 121
-0.2376018 0.57440734 -0.86799175 150 114 110
-0.23764691 0.57549918 -0.8681404 148 114 108
-0.2390566 0.57596356 -0.86952609 155 124 116
-0.23756529 0.57473207 -0.86798847 149 113 109
-0.23729883 0.57420766 -0.86768425 148 111 108
-0.23852874 0.57610089 -0.86903739 152 120 112
-0.23725902 0.57564282 -0.86778545 145 111 105
-0.24093124 0.57222265 -0.87137425 174 133 131
-0.24077299 0.5716669 -0.87120372 175 135 131
-0.24073896 0.5692876 -0.87119871 185 150 138
-0.24031992 0.56886864 -0.87063324 181 145 134
-0.24022925 0.57044864 -0.87054127 175 136 129
-0.23904659 0.57014656 -0.86940181 167 132 123
-0.23979433 0.56971484 -0.87011158 174 137 128
-0.23855762 0.57012105 -0.86893237 164 129 120
-0.23972492 0.57011354 -0.8700518 172 135 127
-0.23900513 0.57223326 -0.86928529 162 121 119
-0.23751238 0.5710898 -0.867778 156 119 114
-0.23768035 0.57109475 -0.86795455 157 120 115
-0.23766798 0.56920934 -0.86804718 160 130 117
-0.23733743 0.56906503 -0.86770737 159 129 115
-0.23787987 0.57175952 -0.86812735 156 118 115
-0.24040216 0.56698227 -0.8709017 176 140 133
-0.24066183 0.56717831 -0.87122381 180 146 137
-0.24040413 0.56482428 -0.87120104 163 127 130
-0.23767971 0.5648858 -0.8683663 157 118 122
-0.240025 0.56658357 -0.87054497 171 135 131
-0.23774679 0.56531197 -0.86837536 160 120 123
-0.23963988 0.5648188 -0.87039679 161 123 127
-0.23987693 0.5657019 -0.87051666 166 129 129
-0.23811738 0.56465852 -0.86884964 157 117 123
-0.23977427 0.5650174 -0.87050736 162 125 127
-0.2376518 0.5655278 -0.86825657 160 121 123
-0.23859516 0.56778157 -0.86898369 169 136 125
-0.23735401 0.56625855 -0.86791337 159 123 120
-0.23922572 0.5677377 -0.86959195 174 139 129
-0.23872229 0.5676282 -0.86911774 170 136 126
-0.23890793 0.56816357 -0.86925358 172 139 127
-0.24062571 0.56204581 -0.87143922 148 112 111
-0.24026321 0.56397146 -0.87105221 157 120 124
-0.23893327 0.56251264 -0.86948848 157 114 120
-0.23864983 0.5606932 -0.86893803 149 105 109
-0.23866938 0.56120241 -0.8690331 152 107 112
-0.2390388 0.56183136 -0.86949128 153 110 115
-0.23828557 0.56120652 -0.86865485 154 108 114
-0.23955493 0.56227261 -0.8700664 152 112 116
-0.23732419 0.56070763 -0.86762774 156 107 115
-0.23863424 0.56254357 -0.86919075 158 114 121
-0.23834875 0.56213814 -0.86884952 157 113 119
-0.23755869 0.56285655 -0.86811799 156 112 119
-0.23734812 0.5611766 -0.86770666 156 108 116
-0.23871315 0.56245303 -0.86926168 158 114 121
-0.23769723 0.56195909 -0.86815703 156 110 118
-0.24065487 0.55869853 -0.87135023 165 133 122
-0.24046859 0.55789679 -0.87094986 175 146 131
-0.23949288 0.55787748 -0.86982518 163 137 120
-0.23987597 0.55931735 -0.87016368 150 117 109
-0.23841164 0.55800319 -0.86887097 148 122 107
-0.23844543 0.55759263 -0.86890072 153 129 111
-0.23809582 0.55756378 -0.86859214 149 126 108
-0.23797913 0.55757636 -0.86848921 147 124 106
-0.23759131 0.5586502 -0.86803782 148 116 107
-0.2378037 0.55931056 -0.86818951 149 112 108
-0.23725964 0.55709577 -0.86784673 145 124 104
-0.23819509 0.55943334 -0.86856514 148 110 107
-0.23734981 0.55791807 -0.86786366 147 120 106
-0.23905104 0.55932522 -0.86941946 142 109 102
-0.23715466 0.5565834 -0.86776221 148 130 107
-0.23801047 0.5564357 -0.86851996 160 139 117
-0.24798019 0.60089707 -0.87776715 142 99 107
-0.24757892 0.60054481 -0.87741196 146 105 109
-0.24739461 0.59975964 -0.87744129 153 110 113
-0.24838524 0.59866613 -0.87915212 154 111 114
-0.24652439 0.59728587 -0.87676346 154 115 109
-0.24716105 0.59724039 -0.87755632 155 120 109
-0.24717304 0.59573376 -0.87782997 157 136 108
-0.24762163 0.59901786 -0.877819 153 105 111
-0.24632065 0.59662229 -0.87662613 155 121 108
-0.24722622 0.59634376 -0.87779075 156 130 109
-0.24724583 0.59875149 -0.87741476 153 108 111
-0.24587421 0.59716302 -0.87601238 155 120 109
-0.24731907 0.59958732 -0.87740296 154 111 114
-0.24600269 0.59724474 -0.87615144 154 118 109
-0.24687381 0.59862268 -0.8769995 154 113 111
-0.24668972 0.59363574 -0.87726945 154 130 109
-0.24674515 0.59277701 -0.87740952 150 124 108
-0.24623008 0.59268349 -0.87673229 152 124 109
-0.24737367 0.59416825 -0.87813699 154 133 109
-0.24601533 0.59236997 -0.87647122 151 123 109
-0.24764609 0.59235483 -0.87863922 145 118 105
-0.24536456 0.59281623 -0.87562507 153 122 109
-0.24542917 0.59473985 -0.87569141 154 124 107
-0.24579795 0.59431887 -0.87614912 154 126 108
-0.24539505 0.59460235 -0.87565029 154 123 107
-0.24557848 0.5935843 -0.87588358 154 124 108
-0.24680145 0.59491724 -0.87738246 156 133 109
-0.24777578 0.59103203 -0.87893414 144 114 106
-0.24661517 0.59166074 -0.87732673 147 117 107
-0.24770388 0.59070539 -0.87887263 146 115 107
-0.24669495 0.59125656 -0.87747473 148 117 108
-0.24752359 0.58960795 -0.87874717 151 116 110
-0.24779578 0.58865285 -0.87920821 153 117 112
-0.24580783 0.58796424 -0.87657374 138 101 94
-0.2453575 0.58940667 -0.87584275 141 107 98
-0.24555328 0.59058774 -0.87601304 150 116 107
-0.24591072 0.58951902 -0.87658703 147 112 104
-0.24513702 0.58937114 -0.87554538 139 105 95
-0.24506105 0.5884046 -0.87552077 133 98 89
-0.24588774 0.5896495 -0.87654513 148 113 105
-0.24626483 0.58495033 -0.87776631 152 119 112
-0.24604225 0.58552396 -0.87712973 147 112 109
-0.24637982 0.58451712 -0.87815201 156 123 114
-0.24679273 0.58574641 -0.87838018 155 120 113
-0.2473547 0.58679676 -0.8789494 156 120 114
-0.2461323 0.58412093 -0.87787366 155 123 113
-0.24542135 0.58744007 -0.87608826 135 99 92
-0.2456103 0.58781266 -0.87631673 136 99 92
-0.24636471 0.58698219 -0.8774085 145 109 104
-0.24566531 0.58576071 -0.87655044 143 108 104
-0.24645446 0.58744967 -0.87749451 145 108 103
-0.24500255 0.58440071 -0.8757531 141 107 104
-0.24554934 0.5857079 -0.87639666 142 107 103
-0.24451748 0.58142859 -0.87581354 145 102 104
-0.24533732 0.58150762 -0.87750351 148 114 106
-0.24503897 0.58127367 -0.87695527 147 109 105
-0.24503732 0.5821147 -0.87667811 145 110 105
-0.24527748 0.58165383 -0.87733072 147 113 105
-0.24646804 0.58270127 -0.87907428 159 128 115
-0.24550635 0.58210558 -0.87760562 148 116 107
-0.2459731 0.58097106 -0.87892097 154 122 109
-0.24592823 0.58358288 -0.8777352 153 121 112
-0.24611129 0.58102411 -0.8791458 155 123 110
-0.2464769 0.58303696 -0.87894797 160 128 115
-0.24432579 0.57862884 -0.87554586 150 110 107
-0.24472834 0.57881647 -0.87642723 152 114 107
-0.24457936 0.57719994 -0.87576783 155 124 111
-0.24467434 0.57802665 -0.87614423 153 119 109
-0.24444845 0.5795114 -0.87599224 149 104 105
-0.24435006 0.57784367 -0.87542748 152 116 109
-0.24586776 0.57767677 -0.87835705 160 131 114
-0.24518423 0.57628578 -0.8766709 160 134 115
-0.24630134 0.57813853 -0.87929547 161 131 114
-0.24624988 0.57708853 -0.87887365 164 135 117
-0.24572559 0.57757092 -0.87806356 160 131 114
-0.24510685 0.57727474 -0.87683761 157 129 112
-0.24491917 0.57295364 -0.8761903 188 156 136
-0.24492407 0.57584709 -0.87616247 162 136 117
-0.24555869 0.57576174 -0.87732607 167 139 120
-0.24549434 0.57576537 -0.87720811 166 138 119
-0.24592359 0.57592487 -0.87799281 167 139 120
-0.24458271 0.57360452 -0.87556231 181 150 131
-0.24471825 0.57551777 -0.87578905 164 137 119
-0.24450335 0.57180727 -0.87545532 188 155 137
-0.24483199 0.56990892 -0.87617123 170 140 127
-0.2449394 0.56956327 -0.8763923 167 138 125
-0.24499716 0.56481302 -0.87707978 173 139 130
-0.24550445 0.56622255 -0.87788612 174 141 133
-0.24550921 0.56624031 -0.87789279 174 141 133
-0.24513926 0.56756288 -0.87696815 167 134 127
-0.24488635 0.56619161 -0.87661642 171 136 130
-0.24482439 0.566688 -0.87644064 168 134 127
-0.24526903 0.56794429 -0.87718338 166 134 127
-0.24533068 0.56759262 -0.87734294 169 136 129
-0.24439143 0.56180388 -0.87665397 177 141 130
-0.24414581 0.56084603 -0.87627876 175 141 130
-0.24487199 0.56098318 -0.87809557 182 148 132
-0.24465115 0.56095934 -0.87753838 180 146 131
-0.24454285 0.56406635 -0.87633175 174 138 130
-0.24521694 0.56237096 -0.87842077 180 147 132
-0.24541841 0.56256258 -0.87877566 180 147 131
-0.24508721 0.56213248 -0.87823659 181 147 132
-0.24387269 0.56100249 -0.8759349 174 139 129
-0.24333762 0.5607186 -0.87542999 171 136 128
-0.24509296 0.55938214 -0.87904018 186 154 137
-0.24459575 0.55945557 -0.87775481 181 149 135
-0.24466302 0.56036347 -0.87771887 181 147 132
-0.24448059 0.56048542 -0.87722552 179 145 131
-0.24469011 0.56018645 -0.87782842 181 148 133
-0.24434863 0.55953455 -0.87710571 178 147 134
-0.24322917 0.55915397 -0.87552947 179 144 136
-0.24347471 0.5590471 -0.87580854 181 146 137
-0.25135422 0.59481788 -0.89512742 158 129 121
-0.25117576 0.5946641 -0.89502293 160 131 123
-0.25231421 0.5887441 -0.89578968 144 108 102
-0.2524671 0.59001446 -0.89571518 130 99 94
-0.25323737 0.58867872 -0.89536488 163 128 117
-0.25399929 0.589104 -0.89503187 172 140 126
-0.25137326 0.58899063 -0.89547145 135 100 96
-0.25189748 0.58748007 -0.8956356 153 114 108
-0.23331514 0.57105392 -0.86364543 104 61 72
-0.23260501 0.56159872 -0.86320359 118 77 82
-0.23157245 0.56206697 -0.86220837 103 60 70
-0.23094395 0.5624851 -0.8615917 95 51 64
-0.23115703 0.56260538 -0.86179882 97 52 66
-0.23209655 0.5605495 -0.86273128 112 76 78
-0.23208527 0.56100851 -0.86271685 111 73 77
-0.23307262 0.55801755 -0.86355686 108 68 75
-0.23264618 0.55828661 -0.86316323 105 65 74
-0.2323557 0.55921912 -0.86292654 109 69 76
-0.25268582 0.60056961 -0.88664746 164 129 120
-0.25257888 0.6015234 -0.88600159 164 133 121
-0.25229046 0.60193801 -0.88517964 165 139 123
-0.25237966 0.60010248 -0.88616711 166 132 120
-0.25123027 0.6013658 -0.88370353 165 138 122
-0.25168863 0.60068929 -0.8846131 166 137 122
-0.25224066 0.59807312 -0.88617647 169 136 121
-0.25233623 0.59850711 -0.8863585 168 134 121
-0.25197855 0.5988543 -0.88557702 167 134 119
-0.25241789 0.59641349 -0.88670123 171 137 121
-0.25167978 0.59896976 -0.88514841 166 134 119
-0.25043625 0.5964933 -0.88379002 161 130 113
-0.25148076 0.59708947 -0.88511682 164 131 114
-0.25182664 0.5973717 -0.88554555 165 132 115
-0.25159323 0.59875906 -0.8850587 166 133 118
-0.25075245 0.59762883 -0.88407093 162 131 115
-0.25068191 0.5982464 -0.88389623 163 130 117
-0.25082359 0.59921688 -0.88396233 164 131 119
-0.25113222 0.59868795 -0.88444668 164 132 118
-0.25250629 0.59476632 -0.88693124 170 134 122
-0.25199503 0.5944277 -0.88586795 164 128 115
-0.25169724 0.59285736 -0.88520592 162 126 117
-0.25174579 0.59409493 -0.88542843 162 127 113
-0.25083205 0.59220225 -0.8838861 155 120 110
-0.25038216 0.59499377 -0.88370311 158 127 110
-0.25014552 0.59508079 -0.88339955 158 127 110
-0.2505762 0.59446108 -0.88387835 158 125 109
-0.25088939 0.59563762 -0.8844865 161 129 110
-0.25042495 0.59220868 -0.88331568 152 119 107
-0.25247461 0.59018379 -0.88699168 182 144 139
-0.25250831 0.59040529 -0.8870337 180 142 138
-0.25242785 0.5905503 -0.8868131 178 140 136
-0.25197729 0.59077418 -0.88573509 174 137 130
-0.24961017 0.58798498 -0.88331854 169 140 130
-0.25075242 0.58789426 -0.88483191 185 154 139
-0.25140601 0.59004503 -0.88515711 174 139 130
-0.2511034 0.5903942 -0.88467628 166 132 125
-0.25123563 0.58987105 -0.8849774 173 139 130
-0.25147268 0.5915525 -0.88483268 162 125 120
-0.25047287 0.59049648 -0.88374406 160 127 118
-0.25082228 0.59003443 -0.88439441 166 132 125
-0.25218281 0.58758938 -0.88702059 196 162 146
-0.25099453 0.58567905 -0.88688779 157 121 111
-0.25084177 0.58668411 -0.88590544 170 136 124
-0.24982698 0.58695829 -0.88436359 160 129 120
-0.25132805 0.58767152 -0.88575804 190 157 141
-0.25135475 0.58696663 -0.88635135 181 146 132
-0.25013676 0.58651948 -0.88511562 158 125 117
-0.25035685 0.58563668 -0.88610232 149 114 107
-0.24982138 0.58469594 -0.88571417 140 103 99
-0.24960326 0.58642489 -0.88418895 157 125 117
-0.24951679 0.58727002 -0.88351572 165 134 125
-0.24958341 0.58420658 -0.8850708 148 109 104
-0.24948135 0.58525288 -0.88425523 157 120 114
-0.25002554 0.58235306 -0.88633305 146 109 103
-0.24995573 0.58162737 -0.88593322 156 120 111
-0.24965645 0.58201164 -0.8854261 151 117 106
-0.25016373 0.58097863 -0.88615382 165 127 119
-0.25011978 0.58145219 -0.88622344 158 121 113
-0.24924091 0.58151877 -0.88418019 164 131 117
-0.24930736 0.58182937 -0.88438809 161 127 114
-0.24941088 0.58240932 -0.88470238 156 120 110
-0.2491508 0.58297944 -0.88371354 166 128 119
-0.24912436 0.58366424 -0.88355142 167 126 120
-0.24974543 0.58316314 -0.88582826 141 104 98
-0.24313043 0.5997296 -0.87182325 166 135 128
-0.24318825 0.59964293 -0.87193102 166 136 128
-0.24478237 0.59726125 -0.87463284 158 128 111
-0.24487878 0.59737223 -0.87474751 158 129 112
-0.24489036 0.5973388 -0.87476754 157 128 111
-0.24466027 0.59592974 -0.8745414 147 114 101
-0.24433735 0.5957799 -0.87404549 140 106 96
-0.24356388 0.59683877 -0.87280577 144 110 103
-0.24401042 0.59719247 -0.87344038 146 115 104
-0.24403797 0.59750479 -0.87345821 148 118 106
-0.24379878 0.5982725 -0.87304789 153 124 112
-0.24314368 0.59737861 -0.8721301 148 113 108
-0.24359469 0.59908032 -0.87264764 160 131 120
-0.24302857 0.59882891 -0.87177491 160 128 122
-0.24310809 0.59742832 -0.87206745 148 114 109
-0.24475873 0.59351236 -0.8747319 146 113 103
-0.24478558 0.5951069 -0.87475991 147 114 102
-0.2448867 0.59565938 -0.87491381 149 116 102
-0.24427235 0.59191436 -0.87381798 156 122 114
-0.24436124 0.59330344 -0.87403166 148 114 106
-0.24487226 0.59262466 -0.8749029 149 117 107
-0.24375845 0.59397048 -0.87320143 147 113 105
-0.24410382 0.59413677 -0.87363279 145 110 102
-0.24414049 0.59193176 -0.87358695 157 123 115
-0.24279308 0.59401679 -0.8718639 148 112 108
-0.24327663 0.59563047 -0.87246919 136 99 96
-0.2435562 0.59560734 -0.87288439 137 100 96
-0.24465989 0.58982825 -0.87470263 143 108 99
-0.24476713 0.59070885 -0.87479854 148 114 105
-0.24509037 0.59061515 -0.87537724 146 112 102
-0.24487776 0.58795261 -0.87528509 130 94 85
-0.24441783 0.58916533 -0.87435412 137 102 93
-0.24273252 0.58861446 -0.87215436 145 113 104
-0.24282226 0.58816838 -0.87231755 140 108 99
-0.24344662 0.58909911 -0.8730039 142 108 99
-0.24389277 0.59093243 -0.87336427 153 119 111
-0.24369307 0.59102809 -0.87310284 155 122 114
-0.24321736 0.59122425 -0.87249994 158 125 116
-0.24331519 0.59037828 -0.87269872 153 121 112
-0.24285074 0.58983147 -0.87217861 152 120 111
-0.24451621 0.5869506 -0.87475878 130 94 87
-0.24475867 0.58759314 -0.87511516 129 93 85
-0.24439296 0.5841583 -0.87480968 140 107 105
-0.24447714 0.5839904 -0.87497395 141 108 106
-0.24368069 0.58604294 -0.87365127 134 101 95
-0.24305636 0.58592969 -0.8729322 137 105 98
-0.24268419 0.58437461 -0.87264216 145 115 111
-0.24395867 0.58472395 -0.87409896 140 106 104
-0.24405269 0.5872255 -0.87397581 128 93 85
-0.24177679 0.58446163 -0.87155545 149 121 115
-0.24245048 0.58535171 -0.87227035 142 112 105
-0.24292612 0.58731663 -0.87256861 137 105 96
-0.2423058 0.58685499 -0.87185508 143 113 104
-0.24442829 0.5832234 -0.87509716 142 105 105
-0.24329694 0.58365792 -0.87348443 146 113 111
-0.24334049 0.58338708 -0.8736099 146 112 111
-0.24238074 0.58309215 -0.8725695 149 116 114
-0.24390611 0.58138925 -0.87482095 146 102 106
-0.24239355 0.58367652 -0.87242359 149 118 114
-0.24187787 0.58297479 -0.87187064 153 122 117
-0.24231784 0.58120966 -0.87264162 157 121 115
-0.24356651 0.58034641 -0.87458807 150 104 107
-0.24175726 0.58317995 -0.87167555 153 124 118
-0.24309123 0.58147699 -0.87380046 150 108 109
-0.24172854 0.58049643 -0.87178838 164 134 120
-0.24169815 0.58256435 -0.87162167 156 127 119
-0.24428797 0.5771423 -0.87511528 152 120 109
-0.24305581 0.57771915 -0.87380475 155 119 113
-0.24303393 0.57643288 -0.87348169 156 128 115
-0.24343713 0.57808822 -0.87427938 153 114 110
-0.24255906 0.5775212 -0.87325269 158 123 117
-0.24322009 0.577245 -0.87386113 154 121 112
-0.2428305 0.57897496 -0.87364906 156 116 113
-0.24314934 0.57919854 -0.87410015 154 111 111
-0.24269484 0.5800339 -0.8732866 158 119 114
-0.24247742 0.57898831 -0.87311089 159 121 116
-0.24157475 0.57700676 -0.87203294 165 133 124
-0.24213479 0.57862145 -0.87264484 162 126 119
-0.2417013 0.57999748 -0.87178332 166 135 121
-0.24424851 0.57590878 -0.87480074 154 128 111
-0.24443428 0.57348067 -0.87526554 180 149 131
-0.24416946 0.57365209 -0.87473708 174 142 125
-0.24360266 0.57409513 -0.87409383 167 135 121
-0.24333271 0.57456094 -0.87378472 162 130 118
-0.24298963 0.57264471 -0.87352723 179 142 131
-0.24344964 0.57309085 -0.87398708 177 142 128
-0.24335352 0.57396805 -0.8738386 168 135 122
-0.24362282 0.57273883 -0.8741883 181 145 131
-0.2413612 0.57591265 -0.87172437 167 138 126
-0.24118108 0.57367849 -0.87160158 171 135 129
-0.24327056 0.57606089 -0.87366468 155 128 113
-0.24227762 0.57454175 -0.87269473 163 131 121
-0.24160337 0.57474637 -0.87200266 167 135 126
-0.24227546 0.57588875 -0.87265605 161 133 120
-0.24429882 0.57164013 -0.87508124 184 149 133
-0.24423999 0.56869131 -0.87509108 158 126 118
-0.24300179 0.56912524 -0.87364972 175 142 129
-0.24406542 0.56933075 -0.87478799 164 132 122
-0.24208252 0.56869966 -0.8726753 182 149 135
-0.24412343 0.57026768 -0.87481529 171 138 125
-0.24140763 0.5684582 -0.87195718 187 154 139
-0.2423663 0.56864583 -0.87298304 178 145 132
-0.24197035 0.57069588 -0.87250203 185 149 137
-0.24149691 0.5719195 -0.87198317 178 138 133
-0.24182805 0.57071984 -0.87235188 185 148 137
-0.24147251 0.56976259 -0.87199408 187 152 139
-0.24160407 0.56923157 -0.87214154 190 157 141
-0.24166703 0.57179433 -0.87216425 179 140 133
-0.24424766 0.5668878 -0.87527901 162 128 121
-0.24413957 0.56660062 -0.87508053 163 129 122
-0.24153093 0.56468087 -0.87245727 165 129 129
-0.24226186 0.56620133 -0.87309384 160 126 124
-0.24297421 0.56555051 -0.87392783 165 129 126
-0.24409412 0.56809276 -0.87488204 157 125 117
-0.24291386 0.56578654 -0.87383914 164 129 125
-0.24393526 0.56610042 -0.87491006 165 130 124
-0.24212244 0.56696415 -0.87286842 167 134 128
-0.24260907 0.56826246 -0.87326491 172 140 129
-0.24277863 0.5683006 -0.87344384 170 139 127
-0.24097709 0.56609118 -0.87172031 173 138 134
-0.24098949 0.5670222 -0.87164199 180 146 137
-0.24386843 0.56825155 -0.87462288 158 126 118
-0.24112378 0.56645656 -0.87184244 174 140 134
-0.24075198 0.56441379 -0.87164986 164 128 130
-0.24343403 0.5633232 -0.87483621 171 134 129
-0.24230747 0.56398356 -0.87344372 168 131 130
-0.24244957 0.56436753 -0.87349439 168 131 130
-0.24181062 0.56436449 -0.8728056 167 130 130
-0.24165185 0.56349319 -0.87286735 166 130 130
-0.24351665 0.5619083 -0.8753038 171 135 128
-0.24128234 0.56244206 -0.87244046 158 123 121
-0.24119754 0.56324345 -0.87234008 163 127 127
-0.24156742 0.56237411 -0.87287319 162 126 124
-0.24110438 0.56277502 -0.87218082 158 123 122
-0.24100892 0.561611 -0.87199277 149 114 112
-0.24079877 0.56171393 -0.87167567 148 112 110
-0.24077432 0.56295824 -0.8716836 156 120 120
-0.24268562 0.55893731 -0.87465656 180 146 136
-0.24283627 0.55934614 -0.87485206 177 143 134
-0.24319081 0.5604651 -0.87528431 171 136 128
-0.24265301 0.55980843 -0.87445444 173 140 130
-0.24192806 0.5602749 -0.87335378 158 123 116
-0.24126302 0.55927646 -0.87232512 163 131 121
-0.24082799 0.56028754 -0.87167448 144 109 104
-0.24152578 0.55982238 -0.87273365 159 126 117
-0.24194612 0.56049806 -0.87338436 155 120 114
-0.25328407 0.59988469 -0.8884148 159 126 114
-0.25307369 0.60014629 -0.88787562 163 128 119
-0.25305703 0.60010093 -0.88784415 163 128 118
-0.25292543 0.59589124 -0.88795799 162 130 114
-0.25311756 0.59630871 -0.88838023 159 128 111
-0.25289634 0.59775615 -0.88768363 165 132 117
-0.25299773 0.59690249 -0.88798368 166 134 117
-0.25272164 0.59856695 -0.887214 166 130 119
-0.25268579 0.59862632 -0.88712537 166 130 119
-0.25309575 0.5950892 -0.88842297 154 121 109
-0.25300908 0.58811754 -0.88995296 185 156 140
-0.25301006 0.58872575 -0.88949972 184 154 138
-0.25255442 0.58895457 -0.88750619 193 159 145
-0.25288373 0.58936316 -0.88848037 186 155 139
-0.2525357 0.5887332 -0.88749838 195 161 147
-0.25237805 0.58817142 -0.88712007 201 167 152
-0.24561074 0.58821785 -0.89013875 163 133 120
-0.2466636 0.58807272 -0.8908357 162 133 119
-0.24420364 0.59029239 -0.89068443 160 132 118
-0.24453303 0.58809251 -0.88921022 165 133 122
-0.24488705 0.58884954 -0.89007753 163 133 120
-0.24315898 0.58869404 -0.89098746 162 131 120
-0.2437221 0.58793867 -0.88947284 165 133 122
-0.24383052 0.58926922 -0.89034051 162 132 120
-0.25206193 0.58677185 -0.88745534 182 149 133
-0.25286517 0.58777273 -0.88955063 189 159 143
-0.25269514 0.58729237 -0.88913095 191 161 143
-0.2526063 0.5868454 -0.88905948 192 161 143
-0.2525357 0.58731055 -0.88838339 196 164 147
-0.25109798 0.58416522 -0.88833463 141 106 97
-0.25141755 0.58474326 -0.88827235 151 117 105
-0.25179079 0.58497101 -0.88860065 159 126 112
-0.2514337 0.58563268 -0.88749802 159 124 113
-0.24602836 0.58669257 -0.89023489 157 125 114
-0.24529585 0.58689398 -0.88966548 159 127 116
-0.24677338 0.58491743 -0.8908549 146 114 104
-0.24624717 0.5855872 -0.89043218 150 118 108
-0.24570443 0.58608615 -0.89000118 154 121 112
-0.24587773 0.58430016 -0.89009184 150 120 107
-0.24421045 0.58470094 -0.88865161 163 138 120
-0.24496065 0.58547723 -0.88934743 158 128 115
-0.24582943 0.58516777 -0.89009279 151 119 108
-0.24581119 0.58444774 -0.89004087 150 120 108
-0.24296133 0.58663082 -0.89051002 162 131 120
-0.24276844 0.58527291 -0.89045864 157 127 118
-0.24292728 0.58577555 -0.89037341 159 129 119
-0.24276146 0.58529913 -0.89047241 157 127 118
-0.24279071 0.58762008 -0.89091843 163 131 120
-0.24411814 0.58683199 -0.88873452 166 135 122
-0.24411727 0.58432513 -0.88861084 164 140 120
-0.24318863 0.58776093 -0.89030164 164 132 121
-0.24406613 0.58760178 -0.88885808 166 134 122
-0.25150931 0.58133 -0.88867402 169 133 121
-0.25089899 0.5834673 -0.88809413 142 106 98
-0.25102857 0.58328938 -0.88823801 146 110 101
-0.25015253 0.58396006 -0.88714278 124 86 84
-0.25129062 0.58212936 -0.88834453 163 126 116
-0.25087711 0.58269018 -0.88788378 150 112 105
-0.24494714 0.58141255 -0.89052022 160 125 117
-0.24554773 0.58197951 -0.89076865 154 120 112
-0.2455039 0.58218288 -0.89063066 154 121 112
-0.24564375 0.58339393 -0.89016008 152 122 110
-0.24464402 0.58129191 -0.89031386 162 129 120
-0.24595442 0.58234072 -0.89094794 150 116 109
-0.24456823 0.58033913 -0.89074117 162 125 120
-0.24364139 0.58075035 -0.89082384 156 118 118
-0.24289696 0.5835548 -0.8902604 154 124 117
-0.24407616 0.58289856 -0.88919395 162 134 119
-0.24352603 0.58160722 -0.89051801 157 121 118
-0.24339442 0.58292103 -0.88999522 157 127 118
-0.24344115 0.58274496 -0.89003056 157 126 118
-0.24504888 0.5780437 -0.89097512 168 135 126
-0.24447581 0.57752484 -0.8904314 165 130 125
-0.24474303 0.57679433 -0.89053786 168 134 127
-0.24299784 0.57838261 -0.89090049 145 106 109
-0.2425067 0.57643223 -0.89061236 138 100 105
-0.24328594 0.57925725 -0.89100337 149 109 112
-0.24381645 0.57668203 -0.89016449 159 121 121
-0.24412751 0.5798654 -0.89055604 160 121 120
-0.24466012 0.57614893 -0.89035743 168 134 127
-0.24491866 0.57498693 -0.89041436 164 124 124
-0.24431095 0.57545161 -0.89000285 164 125 124
-0.24198107 0.5742386 -0.88864058 146 100 114
-0.24153492 0.57510942 -0.8897199 129 87 99
-0.24093592 0.57466376 -0.88946265 123 79 95
-0.24185601 0.57453519 -0.88899863 141 96 109
-0.24259607 0.57604659 -0.89033157 138 100 105
-0.24142292 0.57470292 -0.88933027 131 87 101
-0.24322444 0.57562298 -0.88965988 154 114 118
-0.24282712 0.57447803 -0.88891351 156 111 120
-0.23924653 0.59466928 -0.86751729 137 101 102
-0.23852073 0.59292275 -0.86700469 149 126 109
-0.23848721 0.59261835 -0.86701214 151 130 110
-0.23907007 0.59430492 -0.86738431 139 106 103
-0.23805726 0.59519804 -0.86620557 132 96 102
-0.2378065 0.59295857 -0.86620611 142 119 104
-0.23819266 0.59193134 -0.86670804 144 125 102
-0.23762631 0.5935787 -0.86596596 141 116 106
-0.23845226 0.58959895 -0.86719537 133 104 92
-0.23863095 0.58959198 -0.86740798 136 108 94
-0.23806344 0.5907051 -0.86664665 133 109 93
-0.23844054 0.58897734 -0.86723059 128 96 88
-0.23810644 0.58468664 -0.86733067 125 92 86
-0.23850353 0.58642596 -0.86756688 126 90 86
-0.23766638 0.58317131 -0.86692768 120 90 82
-0.23819722 0.58242726 -0.86757159 126 94 84
-0.23648567 0.57676786 -0.86676455 131 98 93
-0.23671642 0.57588756 -0.86717665 138 105 100
-0.23696281 0.57557416 -0.86746401 143 108 103
-0.23638658 0.57318085 -0.86665654 139 101 104
-0.23674229 0.57408887 -0.86702371 141 105 103
-0.23575611 0.57436371 -0.86607242 127 90 92
-0.23599218 0.57290673 -0.86626005 134 94 100
-0.23499967 0.57419622 -0.86531895 116 77 81
-0.23599558 0.57444471 -0.86631185 130 94 95
-0.23439927 0.572837 -0.86468232 110 67 76
-0.23521701 0.57275856 -0.86548865 123 81 89
-0.23592457 0.57616675 -0.86618006 124 92 89
-0.23577647 0.57555765 -0.86610395 124 90 88
-0.23694944 0.57207501 -0.86717314 148 109 110
-0.23732542 0.57202816 -0.86753339 152 113 112
-0.23647483 0.56928211 -0.86686414 149 118 109
-0.23476654 0.56955606 -0.86515677 132 98 99
-0.23468804 0.56884807 -0.86511493 133 101 99
-0.23479089 0.56898963 -0.86521 134 101 100
-0.23528524 0.56928247 -0.86568701 138 105 102
-0.23450819 0.56838822 -0.86495948 132 101 99
-0.23582369 0.57150936 -0.86610889 138 99 104
-0.23523656 0.57181358 -0.86551344 127 86 94
-0.23590484 0.57175601 -0.86617708 138 99 104
-0.23598333 0.5719859 -0.86624408 137 97 104
-0.23378053 0.57109648 -0.86410654 110 69 78
-0.23427953 0.57035786 -0.86463428 123 85 91
-0.23663175 0.56740409 -0.86713487 153 121 113
-0.23636708 0.5682621 -0.86681664 150 122 109
-0.23641001 0.5665015 -0.86696541 149 115 112
-0.23531142 0.56613916 -0.86584973 137 98 101
-0.23599036 0.56696963 -0.86650121 145 111 107
-0.235677 0.56485361 -0.86629504 140 98 107
-0.2357834 0.56609696 -0.86633641 142 104 106
-0.23581025 0.56739092 -0.86629343 144 110 104
-0.23593259 0.56494701 -0.86655223 142 101 109
-0.23509276 0.56656379 -0.86560214 136 97 98
-0.23420474 0.56736451 -0.86468762 128 92 94
-0.23558936 0.56796318 -0.86604828 142 111 103
-0.23370226 0.56722569 -0.86419153 124 86 91
-0.23386845 0.56649846 -0.86437786 124 83 90
-0.23454997 0.56661797 -0.86505264 131 91 94
-0.2352699 0.56754977 -0.86574227 139 105 100
-0.23687214 0.5641498 -0.86755794 153 112 119
-0.23699223 0.56169379 -0.86738747 153 106 114
-0.23670676 0.56129467 -0.8670997 153 108 114
-0.23595084 0.56277573 -0.86650681 146 105 112
-0.23408376 0.56132203 -0.86463583 136 99 99
-0.23523442 0.56224227 -0.86579061 142 103 107
-0.23558804 0.56252682 -0.86614567 144 104 109
-0.2359661 0.56302142 -0.86653906 146 105 112
-0.23401955 0.56137335 -0.86457878 135 98 99
-0.23585196 0.56388324 -0.86649287 143 103 111
-0.23361483 0.562828 -0.86419016 126 82 90
-0.23499241 0.56304902 -0.86560541 138 99 105
-0.23400424 0.56198752 -0.86458451 133 95 97
-0.23417518 0.56393927 -0.86477226 127 80 93
-0.23520373 0.5635733 -0.86582559 138 97 105
-0.23549426 0.56431371 -0.86612844 138 95 106
-0.23672137 0.55997145 -0.86710513 153 112 112
-0.23655808 0.56042337 -0.86692059 154 110 113
-0.23661333 0.55725837 -0.86717135 144 121 105
-0.23486584 0.55842185 -0.86527699 127 86 92
-0.23415144 0.55709571 -0.86459339 113 74 80
-0.23569335 0.55670637 -0.86621195 132 104 95
-0.23597121 0.55998796 -0.86635607 147 105 108
-0.23614417 0.55934334 -0.8665641 147 109 108
-0.23456243 0.55757475 -0.86499918 120 81 86
-0.23442264 0.5587433 -0.8648473 125 84 90
-0.23356652 0.55896264 -0.86404407 121 82 86
-0.23512731 0.55922669 -0.86552787 134 92 98
-0.235064 0.56026179 -0.8654983 142 102 103
-0.2345439 0.56015515 -0.86500335 137 98 99
-0.23400201 0.55788678 -0.86442441 115 73 82
-0.23686339 0.55609781 -0.86749429 146 123 107
-0.23405576 0.55480415 -0.86465907 113 77 80
-0.23431186 0.55608362 -0.86482406 114 79 81
-0.2342824 0.55473083 -0.86490023 116 81 82
-0.23448063 0.5566234 -0.86495674 116 81 82
-0.23467337 0.55584216 -0.86521858 119 86 85
-0.25044653 0.60103852 -0.88256633 165 135 123
-0.25011909 0.59890598 -0.88294178 162 129 118
-0.24964915 0.59711415 -0.88224328 160 132 114
-0.24981569 0.59856725 -0.88230819 161 132 117
-0.25020576 0.59878981 -0.88317031 162 129 118
-0.24903075 0.59613556 -0.88101614 158 136 111
-0.24847914 0.59691608 -0.87961465 157 132 112
-0.24844818 0.59610254 -0.879664 158 141 110
-0.24861199 0.59744537 -0.87982893 157 128 113
-0.24858411 0.59682339 -0.87985742 158 135 112
-0.25004536 0.59257263 -0.88277566 152 119 107
-0.24967235 0.59351498 -0.88233387 152 121 108
-0.24969006 0.59342468 -0.88234568 152 121 108
-0.24996045 0.595227 -0.88316709 158 127 110
-0.24986753 0.59305954 -0.88257259 152 120 107
-0.24930502 0.59365135 -0.8817392 151 121 107
-0.24951531 0.5953154 -0.88228482 157 129 110
-0.24827462 0.59447551 -0.87947011 152 132 108
-0.24816699 0.59197903 -0.87947255 141 113 104
-0.24874221 0.59560496 -0.88044816 157 138 110
-0.24926507 0.59481084 -0.88175118 154 127 109
-0.24841204 0.59363145 -0.87987721 149 125 106
-0.24824788 0.58995718 -0.87989187 149 118 111
-0.24893121 0.5886364 -0.88171303 160 130 122
-0.24828136 0.58992827 -0.87997752 150 119 111
-0.24914514 0.58821172 -0.88228422 164 134 125
-0.24882932 0.58968794 -0.88135338 155 127 117
-0.24982877 0.59024215 -0.88284981 157 126 115
-0.24929784 0.59078735 -0.88174105 152 121 111
-0.24982411 0.59009194 -0.88289958 158 127 116
-0.25011346 0.59145927 -0.88286442 152 119 108
-0.24956492 0.58864933 -0.88301486 165 135 125
-0.24888304 0.58989686 -0.88138056 155 126 116
-0.24795836 0.5897665 -0.8793034 148 115 109
-0.2492846 0.58630556 -0.88313019 169 135 126
-0.24842386 0.58724266 -0.8807267 160 123 119
-0.24852847 0.58713108 -0.88101816 161 125 120
-0.24933052 0.58760393 -0.88285941 167 137 128
-0.24944176 0.5876435 -0.8831225 168 138 129
-0.24918906 0.58546656 -0.88314247 170 132 125
-0.24885538 0.58426803 -0.88267916 169 128 122
-0.24826202 0.58595055 -0.88072515 162 125 119
-0.24835636 0.58497477 -0.88125575 166 129 120
-0.24788037 0.58598161 -0.87997675 161 126 118
-0.24717489 0.58472687 -0.8794347 163 131 119
-0.24761616 0.58634353 -0.87951547 159 124 118
-0.24753341 0.58666688 -0.87931538 158 123 116
-0.2488566 0.58238816 -0.88287568 173 138 125
-0.24870482 0.58296508 -0.88247138 172 136 123
-0.24888135 0.58327723 -0.88287663 172 133 123
-0.2486145 0.58205354 -0.88231379 174 141 125
-0.24842268 0.58230382 -0.88183618 173 141 124
-0.24675283 0.5821929 -0.87966746 160 128 114
-0.24690245 0.58282334 -0.87966812 162 130 116
-0.24812399 0.57668197 -0.88113075 164 129 117
-0.24834275 0.57677311 -0.88167417 168 132 120
-0.24658842 0.57929409 -0.879807 163 132 115
-0.24641316 0.57892007 -0.87955469 161 131 114
-0.24645129 0.57804978 -0.87943846 164 133 116
-0.24612615 0.57923496 -0.87930822 157 126 110
-0.24568069 0.56188059 -0.87959772 182 150 133
-0.24547456 0.56119967 -0.87942129 184 151 133
-0.24565296 0.56106913 -0.87985235 185 153 135
-0.24583825 0.56246072 -0.87970954 180 150 133
-0.24526533 0.55989939 -0.87935108 187 154 136
-0.25074226 0.59579134 -0.89462525 169 142 131
-0.25048524 0.59593117 -0.89441508 169 142 131
-0.24421401 0.59609318 -0.89131397 158 128 120
-0.24644499 0.59674209 -0.89198726 167 140 126
-0.24730062 0.59585083 -0.89229316 169 141 129
-0.24720578 0.59678715 -0.89220613 169 142 127
-0.24756044 0.59578615 -0.89237297 169 142 129
-0.24951005 0.59422916 -0.89377338 162 133 124
-0.24900754 0.59501624 -0.89332241 166 138 128
-0.2490592 0.59500808 -0.89336348 166 138 128
-0.25059128 0.59460747 -0.89459258 163 134 126
-0.25073054 0.59501225 -0.89467216 165 137 128
-0.24832007 0.59482116 -0.8927421 167 139 128
-0.24847461 0.59283125 -0.8928048 163 131 123
-0.24910195 0.59241706 -0.89338309 158 126 120
-0.24848402 0.59185821 -0.89277261 161 127 120
-0.24993052 0.59218901 -0.89416033 153 121 117
-0.24441925 0.59239334 -0.89198601 121 99 90
-0.2449736 0.59430945 -0.89168835 153 124 116
-0.24533331 0.59312803 -0.89192295 143 116 107
-0.24634078 0.59306008 -0.89200819 156 125 117
-0.24553891 0.59330148 -0.89190722 148 119 111
-0.24641386 0.59455937 -0.89199585 164 134 124
-0.24798587 0.5934155 -0.89240563 166 135 125
-0.24627495 0.59540731 -0.89199126 165 136 126
-0.24453397 0.59543711 -0.89148521 160 130 122
-0.24762776 0.59518707 -0.89237607 168 140 128
-0.24678698 0.59343666 -0.89205718 163 131 122
-0.2499008 0.58894992 -0.89423949 155 119 111
-0.24989882 0.58962661 -0.89420813 155 119 112
-0.25039756 0.5886268 -0.89472526 153 117 109
-0.24929985 0.59144545 -0.89356011 156 123 117
-0.24981555 0.59074163 -0.89408052 154 120 115
-0.24898297 0.58967835 -0.89324754 157 123 114
-0.24888586 0.58811641 -0.89299715 152 121 109
-0.24924941 0.58984631 -0.89356995 158 123 115
-0.24812502 0.58848029 -0.8921513 153 123 110
-0.2484466 0.58792526 -0.89247328 151 121 108
-0.24559516 0.58963907 -0.89131469 146 120 108
-0.24478041 0.59082985 -0.89171958 126 104 94
-0.24765316 0.58814389 -0.89186788 149 122 108
-0.24705152 0.58869076 -0.89182007 144 118 105
-0.24656872 0.59125233 -0.89219934 141 114 105
-0.24640176 0.59025145 -0.89209849 136 110 100
-0.24726187 0.59034103 -0.89216894 148 119 109
-0.24700907 0.58961749 -0.89208645 142 115 104
-0.24685642 0.5907644 -0.89217699 144 116 106
-0.24951227 0.58744055 -0.89327973 155 123 111
-0.2507548 0.58690917 -0.89421779 161 126 115
-0.24985717 0.58621109 -0.89221579 162 131 115
-0.25029942 0.58668983 -0.89341116 161 128 116
-0.24978016 0.58692485 -0.89303398 159 127 114
-0.24990068 0.58624727 -0.89231932 162 131 115
-0.24874841 0.58732569 -0.8921994 154 125 111
-0.24868162 0.58407116 -0.89205188 151 116 110
-0.24947809 0.58559185 -0.89204741 159 128 114
-0.24809781 0.5844993 -0.89204085 147 113 108
-0.24851391 0.58403724 -0.89205015 150 115 109
-0.24812536 0.58640343 -0.89202368 150 119 108
-0.24763037 0.58624613 -0.89163303 147 116 105
-0.24790126 0.58477306 -0.89190096 147 113 107
-0.24738917 0.5871951 -0.89135563 154 125 112
-0.24781358 0.5875541 -0.89178032 151 123 109
-0.24903946 0.58292478 -0.89199036 152 118 110
-0.24861443 0.58190227 -0.89203489 166 133 121
-0.24981765 0.58172357 -0.89195269 160 128 116
-0.24939787 0.58172119 -0.89198232 163 131 118
-0.2491613 0.5818038 -0.89199781 163 131 119
-0.24926689 0.5820775 -0.89198643 160 127 116
-0.24958351 0.58395308 -0.89206135 158 123 114
-0.25039932 0.58351636 -0.89204144 163 129 116
-0.25071961 0.58293504 -0.89200568 163 131 117
-0.24718207 0.58210951 -0.8917858 160 125 118
-0.24519071 0.58014172 -0.89115524 165 128 122
-0.24581049 0.58060032 -0.89135367 165 129 122
-0.24684221 0.58277094 -0.89155072 150 114 110
-0.24604517 0.58199936 -0.89120746 153 117 112
-0.24523795 0.57848907 -0.8910839 169 135 126
-0.24507064 0.57965183 -0.8910929 166 129 123
-0.24258424 0.57987648 -0.89487171 59 44 40
-0.24054177 0.57807457 -0.89439237 83 60 57
-0.24164197 0.57869846 -0.89400637 72 51 51
-0.24219275 0.57953006 -0.89477783 64 47 44
-0.24156988 0.57822752 -0.89323282 76 50 55
-0.24115343 0.57686418 -0.8918153 99 65 74
-0.24034399 0.57627583 -0.8913759 96 59 72
-0.24186148 0.57787925 -0.89274967 90 62 66
-0.24328113 0.58002466 -0.89288193 108 81 79
-0.24295133 0.57940781 -0.89263725 109 80 80
-0.24180877 0.57707751 -0.89129102 121 84 90
-0.24265647 0.57867223 -0.89194369 119 86 89
-0.24277154 0.57913494 -0.89266735 105 77 77
-0.24233618 0.57819414 -0.89201802 113 80 84
-0.24187566 0.57730466 -0.89160377 115 80 86
0 0 0 1 0 0 0 1 0 0 0 1 0 0 0 0 0 842 1 0 0
