ply
format ascii 1.0
comment PCL generated
element vertex 930
property float x
property float y
property float z
property uchar red
property uchar green
property uchar blue
element camera 1
property float view_px
property float view_py
property float view_pz
property float x_axisx
property float x_axisy
property float x_axisz
property float y_axisx
property float y_axisy
property float y_axisz
property float z_axisx
property float z_axisy
property float z_axisz
property float focal
property float scalex
property float scaley
property float centerx
property float centery
property int viewportx
property int viewporty
property float k1
property float k2
end_header
0.10328358 0.49510658 -0.86824495 99 89 114
0.10300882 0.49421108 -0.86786956 98 88 113
0.10373831 0.4949671 -0.86916298 100 91 116
0.10448389 0.49620157 -0.87133896 99 90 113
0.10406099 0.49514478 -0.87001973 101 92 116
0.10412067 0.4952457 -0.87019444 101 92 116
0.10472223 0.49415094 -0.87145162 107 98 124
0.10368454 0.49532124 -0.86907679 99 90 115
0.10356549 0.49548864 -0.86875504 99 90 114
0.10294157 0.49366748 -0.86770886 97 86 111
0.10387617 0.49135062 -0.86883289 100 86 108
0.10386489 0.49030465 -0.86886364 98 83 103
0.10445023 0.49214634 -0.87067217 103 91 114
0.1045434 0.49347371 -0.87089288 106 96 121
0.10411397 0.49207827 -0.86956894 102 90 112
0.10386495 0.49144232 -0.86881179 100 87 108
0.10431357 0.49395412 -0.87038505 105 96 122
0.10415696 0.49338901 -0.86989057 104 94 119
0.10390165 0.49242958 -0.8690778 101 90 113
0.10422075 0.48662674 -0.86999202 98 88 108
0.10413796 0.48641071 -0.86971641 97 88 108
0.10428734 0.48647925 -0.87020934 97 88 107
0.10422847 0.48777756 -0.87003297 98 88 108
0.10430384 0.48848614 -0.87029076 99 87 108
0.10359309 0.4868581 -0.86792797 98 88 111
0.10352271 0.4881677 -0.86771363 98 85 107
0.10402317 0.48916003 -0.86937529 98 86 106
0.104469 0.490165 -0.87085724 99 86 105
0.1036077 0.48940477 -0.86801004 97 83 104
0.10395599 0.48353499 -0.86825842 97 92 114
0.10425764 0.48602647 -0.8700158 97 88 108
0.10452607 0.48621434 -0.87095827 97 88 106
0.10379418 0.48404488 -0.86788118 98 92 114
0.10362441 0.48526964 -0.8676967 99 90 114
0.10405107 0.48332927 -0.86851239 97 92 114
0.10475662 0.48269671 -0.87106961 108 102 125
0.10469091 0.48259825 -0.87080002 107 102 125
0.1048248 0.482925 -0.87137443 108 102 124
0.1046501 0.48547509 -0.87121904 99 90 109
0.10473875 0.48164332 -0.87079841 108 102 126
0.10482965 0.48083714 -0.87108254 105 98 123
0.10441157 0.47983649 -0.86921012 104 97 124
0.10436486 0.47903836 -0.86891842 101 94 122
0.10459644 0.48065186 -0.87008286 106 99 125
0.10417499 0.48046574 -0.86840838 101 96 122
0.1044101 0.48023522 -0.86925602 105 99 125
0.10442598 0.48146445 -0.86956424 105 99 124
0.10404065 0.48207307 -0.86822134 99 95 119
0.10403605 0.48213354 -0.8682161 99 95 119
0.10499136 0.47712174 -0.87118232 98 87 116
0.10495121 0.47790202 -0.87122375 97 86 114
0.10491226 0.47473618 -0.87042087 101 90 122
0.10480218 0.47701937 -0.87056535 98 88 116
0.10445839 0.47631425 -0.86933267 99 90 116
0.10500632 0.47783402 -0.87138247 97 86 114
0.10429186 0.47632301 -0.86865091 100 91 118
0.10411792 0.47774732 -0.8678562 100 94 122
0.10430904 0.47581047 -0.86874652 100 91 117
0.10446235 0.47843325 -0.86926806 99 91 119
0.10421855 0.47677445 -0.86832285 100 92 120
0.10462559 0.47791275 -0.86997622 98 89 116
0.10480902 0.47098562 -0.8694306 104 100 125
0.10463923 0.47079918 -0.86877578 107 103 128
0.10517433 0.47419018 -0.87112433 102 91 124
0.10513464 0.4737128 -0.87092721 102 92 124
0.10510107 0.47342747 -0.87077248 102 93 124
0.1048934 0.47200879 -0.86985058 104 98 125
0.1046251 0.47447804 -0.86945826 101 92 122
0.10426936 0.47183633 -0.8676908 109 105 130
0.10430783 0.47380951 -0.86829633 104 96 123
0.10444567 0.47337157 -0.8686223 105 97 125
0.10470787 0.47404811 -0.86961299 103 94 124
0.104793 0.46799845 -0.86897749 107 99 124
0.10530397 0.46962613 -0.87107527 97 91 116
0.10511851 0.46960881 -0.87041664 100 93 119
0.10476439 0.46787852 -0.86885482 107 99 125
0.10464998 0.46743461 -0.86837089 110 101 126
0.10542088 0.46922594 -0.87141687 96 90 115
0.10453203 0.46879569 -0.8681159 111 104 129
0.10485459 0.47002041 -0.86948353 104 98 124
0.10444266 0.47006807 -0.86794704 111 107 131
0.10477547 0.47053283 -0.86925405 105 100 125
0.10445841 0.46759039 -0.86768305 113 105 130
0.10468956 0.46814582 -0.86862105 108 101 126
0.10519735 0.46489272 -0.86971569 103 96 117
0.10575655 0.46358109 -0.87071621 100 96 114
0.10562634 0.46556807 -0.87116152 99 93 114
0.10562384 0.46385133 -0.87046224 100 96 115
0.10509882 0.46406212 -0.86911118 104 97 117
0.10494922 0.46378228 -0.8685891 105 98 118
0.10481825 0.4652268 -0.86849195 108 100 122
0.10484738 0.46416283 -0.86835128 106 99 120
0.10453932 0.46554562 -0.86757898 112 103 126
0.10479448 0.46654993 -0.86871088 109 100 125
0.1050337 0.46615353 -0.86946565 105 98 121
0.10646994 0.45916083 -0.86985248 90 88 94
0.106094 0.46078318 -0.87007225 95 93 105
0.1058245 0.46029389 -0.86919755 96 94 107
0.10629808 0.46025926 -0.87017578 93 90 100
0.10601831 0.46166772 -0.87046498 97 95 110
0.10592186 0.45915407 -0.86869109 94 91 101
0.10538276 0.46082559 -0.86835408 100 96 112
0.1053828 0.45990351 -0.8678804 98 96 110
0.10564731 0.46020257 -0.86875761 97 95 109
0.10564517 0.46092102 -0.8691209 98 95 111
0.1055401 0.46143582 -0.86909813 100 96 112
0.1057031 0.46106634 -0.86935401 98 95 111
0.1066127 0.45567909 -0.86962837 99 93 110
0.10646693 0.45661366 -0.86912191 89 83 92
0.10706536 0.4579151 -0.87085652 89 85 90
0.10646887 0.455639 -0.86919314 96 91 106
0.1071505 0.4580183 -0.87110883 90 86 91
0.10623145 0.45792606 -0.86896342 91 87 96
0.10597049 0.4564209 -0.86802113 92 86 99
0.10561114 0.45877808 -0.86787528 95 93 105
0.10632315 0.45880741 -0.86938614 91 88 95
0.10649224 0.45770633 -0.86945695 89 85 92
0.10588749 0.45642835 -0.8678478 92 87 100
0.10667296 0.45217544 -0.86909497 92 87 102
0.10648484 0.45172194 -0.86843628 88 83 96
0.10723395 0.45168489 -0.87047362 93 90 104
0.10656908 0.45264554 -0.86895001 94 89 105
0.10656285 0.45266819 -0.86893648 94 89 105
0.10632437 0.45215797 -0.86808759 88 82 96
0.10737508 0.45104736 -0.87062317 91 89 101
0.10720114 0.45029086 -0.86970133 91 89 100
0.10691854 0.45028839 -0.86892682 89 86 97
0.10731543 0.44830552 -0.86884338 94 94 103
0.10653367 0.45052478 -0.86801344 85 82 92
0.10728385 0.44764376 -0.86838037 94 95 103
0.10761108 0.44792733 -0.86980563 95 95 105
0.10778473 0.44843817 -0.87092793 94 93 105
0.10793284 0.44751328 -0.87108785 93 92 104
0.10754688 0.44742236 -0.86920542 95 95 104
0.10746676 0.45005724 -0.87037545 94 93 104
0.10794476 0.44707096 -0.87090623 93 92 104
0.10754258 0.44674617 -0.86884511 94 94 104
0.10784818 0.44531021 -0.86952603 91 89 103
0.1075975 0.44584441 -0.86867458 92 91 104
0.1081588 0.44366845 -0.87078154 84 80 97
0.1082001 0.44365761 -0.87102818 84 80 96
0.10811417 0.44406801 -0.87066382 86 82 98
0.10806559 0.44462159 -0.87058139 87 84 99
0.10802573 0.44684055 -0.87119138 92 91 103
0.10788302 0.44287348 -0.86871791 84 80 97
0.10798023 0.4431006 -0.86943448 84 80 97
0.10813396 0.43277022 -0.87015492 95 84 105
0.10814597 0.43244356 -0.86968231 96 84 105
0.10799909 0.43173069 -0.87032413 94 80 100
0.1080093 0.43230218 -0.87084919 93 81 100
0.10820715 0.43198088 -0.86858565 97 86 107
0.10820091 0.43250006 -0.86921281 96 86 107
0.10824752 0.43222654 -0.86782122 97 87 108
0.10826465 0.43320215 -0.86888391 97 88 110
0.10823081 0.43386984 -0.86910826 95 88 109
0.1048228 0.42814085 -0.87086284 84 68 92
0.10721812 0.42874199 -0.87068719 91 75 90
0.10656845 0.4287453 -0.87089598 89 72 90
0.10647979 0.42902705 -0.87119704 88 71 90
0.10745256 0.42829457 -0.87005585 93 77 91
0.10785384 0.42998686 -0.86994618 95 81 98
0.10786748 0.42993787 -0.86983925 95 81 98
0.10787019 0.430944 -0.870803 93 78 96
0.10787962 0.43064454 -0.87045169 94 79 97
0.10797706 0.42943999 -0.86838591 98 85 102
0.10809365 0.42980701 -0.86760104 99 87 105
0.10797953 0.42991611 -0.86880618 97 84 101
0.10812203 0.43067974 -0.86814094 98 86 105
0.1073963 0.42430198 -0.86823666 60 42 57
0.10398448 0.42428914 -0.86869514 90 77 105
0.10414654 0.4241927 -0.86863345 88 75 101
0.10633749 0.42552376 -0.86888355 81 66 84
0.10419139 0.42393559 -0.86852151 85 72 98
0.10408265 0.42437175 -0.86871588 90 77 104
0.10386951 0.42511785 -0.8692202 87 74 102
0.10527086 0.42565319 -0.86909449 91 77 99
0.10477343 0.42620379 -0.86957711 88 73 98
0.10439689 0.42672548 -0.87000448 85 70 96
0.10565846 0.42666325 -0.86956948 90 75 95
0.10603976 0.42655298 -0.86938393 92 77 95
0.10748369 0.42610618 -0.86890912 78 61 76
0.10769783 0.42593485 -0.86834419 79 63 79
0.1077813 0.42674088 -0.86802411 88 74 89
0.10768156 0.42596519 -0.86841679 79 63 79
0.10591464 0.4226636 -0.86767167 69 54 73
0.10441661 0.42262501 -0.86790395 81 66 87
0.10368288 0.42227048 -0.86784375 87 74 96
0.10404073 0.42208996 -0.86771369 83 70 90
0.10625893 0.49073008 -0.87590975 104 99 121
0.10644595 0.49088743 -0.87642199 109 103 127
0.10689821 0.48962778 -0.87773418 113 107 133
0.10673355 0.48835832 -0.87753659 110 104 128
0.10636796 0.48978087 -0.87627023 102 97 120
0.10641929 0.48926282 -0.87650961 104 98 121
0.10663961 0.48796314 -0.87738991 110 103 127
0.10651827 0.48806792 -0.87706614 108 101 124
0.10618299 0.48788562 -0.87630224 105 97 120
0.10614184 0.48825815 -0.87609893 103 96 118
0.10624323 0.48844239 -0.87629414 104 97 119
0.10649858 0.48293057 -0.87647909 113 107 133
0.10614971 0.48630553 -0.8766464 109 100 123
0.1059994 0.48416427 -0.87561011 107 100 123
0.10618923 0.48299858 -0.8757059 110 103 128
0.105989 0.4840748 -0.87555683 107 100 123
0.10667177 0.48630062 -0.877913 115 106 131
0.10655438 0.48114932 -0.87661314 110 104 131
0.10621092 0.48187768 -0.87558544 110 103 128
0.10638635 0.48076925 -0.87604129 110 103 130
0.1064015 0.47540072 -0.87575114 104 99 126
0.10633612 0.47681656 -0.87559861 107 101 129
0.10669899 0.47444457 -0.87656087 106 102 129
0.10663918 0.47234496 -0.87619418 102 95 122
0.10642809 0.47250929 -0.87561244 99 92 119
0.10646127 0.47148374 -0.87561119 98 90 117
0.10650535 0.47172251 -0.87575799 99 91 119
0.10707588 0.47185162 -0.87738359 107 102 128
0.10724238 0.47034547 -0.87774169 107 100 126
0.10687999 0.47018164 -0.87671387 101 92 119
0.10729516 0.46808764 -0.87785107 98 90 114
0.10712178 0.46924016 -0.87738109 100 92 118
0.10666877 0.46697769 -0.87576115 94 88 108
0.10682929 0.46851593 -0.87647891 95 86 111
0.1067781 0.46711487 -0.87613404 94 88 108
0.10661398 0.46798575 -0.87571138 95 88 110
0.1074628 0.46699601 -0.87835282 96 87 110
0.10726341 0.46601105 -0.87707669 93 86 105
0.10712677 0.46675393 -0.87719458 94 87 108
0.10700606 0.46551719 -0.87586629 92 87 102
0.10720583 0.46517232 -0.8762548 92 87 101
0.10752891 0.46515587 -0.87738466 93 86 102
0.10743492 0.46649626 -0.87801254 94 86 107
0.10756403 0.46492448 -0.87735456 94 87 102
0.107961 0.46389756 -0.87903672 91 84 95
0.10773768 0.46338698 -0.87737179 90 85 94
0.1077252 0.46602803 -0.87899983 96 86 107
0.1076868 0.46601075 -0.87875897 96 86 107
0.10778161 0.46507674 -0.87872392 94 85 102
0.10798566 0.46024722 -0.8767364 93 84 95
0.10810357 0.46274161 -0.87921727 89 82 89
0.1078402 0.46097893 -0.87629229 92 85 94
0.10767139 0.46190819 -0.87594974 91 86 93
0.10788423 0.46188927 -0.87720931 91 84 92
0.10771102 0.46218526 -0.87638581 90 85 93
0.10780818 0.46081957 -0.87598628 93 85 95
0.10798581 0.46045807 -0.87678921 93 84 95
0.1079009 0.45894977 -0.87620515 92 82 94
0.1081507 0.45166603 -0.87899584 89 83 102
0.10823868 0.45189938 -0.87664014 94 88 106
0.10820485 0.45187002 -0.8776595 92 86 105
0.10817125 0.4520835 -0.87912732 91 85 105
0.10816713 0.4515945 -0.87833965 90 83 102
0.10821193 0.45226386 -0.87817407 94 87 107
0.10823719 0.45156395 -0.87570512 94 88 104
0.10825705 0.44969377 -0.8787027 89 84 101
0.10832769 0.44825304 -0.87640738 87 86 100
0.10833499 0.44814348 -0.87627983 87 86 100
0.10846533 0.44791877 -0.87881666 94 92 107
0.10834179 0.44902757 -0.87890476 91 87 104
0.10820007 0.45096087 -0.87678158 90 84 100
0.10834029 0.44846678 -0.8756541 89 87 101
0.10825396 0.45006865 -0.87625992 90 85 100
0.10825889 0.44950873 -0.87685001 88 84 100
0.10822718 0.45116177 -0.87565321 92 86 101
0.10818134 0.45094946 -0.87739164 89 83 99
0.10854732 0.44492239 -0.87820154 95 91 108
0.10884452 0.44349509 -0.87590051 94 89 108
0.1087126 0.44504046 -0.87737453 95 92 109
0.10876481 0.44424307 -0.87669891 94 90 108
0.10853801 0.44598877 -0.87878078 96 93 109
0.10849166 0.44707292 -0.87700582 92 91 105
0.10853013 0.44644812 -0.87589109 90 89 103
0.10870665 0.44528848 -0.87637138 93 91 107
0.10859556 0.44600406 -0.87602216 91 89 104
0.10861478 0.44584242 -0.87595856 91 89 105
0.10848135 0.44690418 -0.87620246 90 89 103
0.10718043 0.43963966 -0.87804633 102 97 115
0.10707408 0.44001856 -0.87848812 99 94 112
0.10786099 0.43994337 -0.87714761 102 98 117
0.10770924 0.43955699 -0.87712187 104 99 119
0.10788161 0.43951452 -0.87683827 104 99 118
0.10799871 0.44147116 -0.87799597 97 92 112
0.10813629 0.44117022 -0.87759149 98 92 113
0.10881176 0.44030178 -0.87559742 100 96 114
0.1083732 0.44265801 -0.87826407 95 88 108
0.10861026 0.44216162 -0.87692714 96 90 110
0.10850268 0.44176358 -0.87745005 97 91 111
0.10874236 0.44255629 -0.87627238 95 90 109
0.10563593 0.4371236 -0.87866366 96 90 115
0.10652673 0.43908721 -0.87879676 97 91 109
0.106306 0.43826231 -0.87845874 98 93 114
0.1064214 0.43638536 -0.87736171 100 89 117
0.10664161 0.43831614 -0.8779313 102 96 118
0.10559259 0.43671995 -0.87850714 97 89 116
0.10739516 0.43659502 -0.87627685 105 92 119
0.10738344 0.43771341 -0.87677491 105 95 119
0.10631527 0.43576902 -0.87722325 100 87 117
0.10565341 0.43587628 -0.87806869 97 86 116
0.10755721 0.43676296 -0.87612462 103 91 117
0.10800681 0.43782666 -0.87591588 103 93 116
0.10774224 0.43763047 -0.87622488 103 93 117
0.10832447 0.43871468 -0.87582427 102 96 117
0.10826681 0.43885666 -0.87597072 103 97 117
0.10656776 0.43402135 -0.87557834 97 82 108
0.10550104 0.43229601 -0.87550807 88 76 97
0.10563104 0.43264315 -0.8756268 90 77 100
0.10420542 0.43193159 -0.87674922 87 75 98
0.10497835 0.43204924 -0.87593073 87 75 96
0.10508059 0.43424794 -0.87756258 94 82 110
0.10507008 0.4341217 -0.8774727 93 81 109
0.10515516 0.43386987 -0.8771655 94 81 108
0.1047298 0.43390495 -0.87770748 92 80 108
0.10431207 0.43385336 -0.87816995 90 80 107
0.10476858 0.43507037 -0.87860733 92 83 112
0.10572962 0.43545744 -0.87776154 97 85 115
0.10376856 0.43427944 -0.87895179 87 76 105
0.10353741 0.43109623 -0.87673223 84 72 98
0.10404239 0.43097687 -0.87601089 83 71 96
0.10045741 0.46303007 -0.85943806 98 82 102
0.10060451 0.4632234 -0.85970843 99 83 103
0.10122901 0.46035251 -0.85946769 93 80 98
0.10113548 0.46129802 -0.85968339 96 82 101
0.10113411 0.46105427 -0.85959637 95 81 100
0.10015828 0.46180654 -0.85863572 92 78 96
0.10348395 0.44491658 -0.85918218 102 93 116
0.10271843 0.44470185 -0.85749042 92 83 106
0.10326744 0.4438017 -0.85829633 102 93 118
0.10296036 0.44512147 -0.85815322 94 85 108
0.10280292 0.44445881 -0.85757506 93 85 108
0.10283802 0.44481605 -0.8577829 93 84 107
0.10358118 0.4447377 -0.85937846 103 94 117
0.10334122 0.44099572 -0.85808188 101 93 116
0.10322438 0.44116569 -0.8578527 100 92 115
0.10318947 0.44242525 -0.85788727 101 92 117
0.10312825 0.44155121 -0.85768503 99 91 114
0.10304776 0.44206953 -0.85756129 98 90 114
0.1032432 0.43995655 -0.85779488 99 92 113
0.1039883 0.44202787 -0.85961646 104 96 117
0.10368734 0.43966842 -0.85863453 100 93 114
0.10393517 0.44298196 -0.85973418 107 98 120
0.10373998 0.44313118 -0.8592723 107 98 122
0.10357656 0.4430179 -0.85879296 106 98 122
0.10313398 0.43769318 -0.85624683 98 94 111
0.10319286 0.43750933 -0.85623091 98 94 111
0.10359671 0.43786559 -0.85727674 99 95 113
0.10699563 0.42531061 -0.85788822 99 84 107
0.107255 0.4256112 -0.85885751 100 84 107
0.106869 0.42505834 -0.85736412 99 85 106
0.10678911 0.42444322 -0.85681379 99 85 105
0.10695965 0.42682114 -0.8586089 97 83 109
0.10654666 0.42551464 -0.85686052 95 82 104
0.10664529 0.42453381 -0.85645056 98 85 104
0.1067225 0.42562532 -0.85731971 97 83 106
0.10747531 0.42398956 -0.85888898 101 84 103
0.10756007 0.42412791 -0.85940665 100 83 102
0.10731128 0.42232338 -0.85645729 101 86 113
0.10736451 0.42274341 -0.85710657 102 86 110
0.10745201 0.4235768 -0.85840249 102 85 105
0.10764069 0.42097616 -0.85632181 99 83 116
0.10777538 0.42059019 -0.8565259 97 81 116
0.10755316 0.42250559 -0.85770625 100 83 110
0.10786122 0.42233554 -0.85958129 97 83 107
0.10783798 0.42074895 -0.85727537 97 82 115
0.1079447 0.42149964 -0.85919195 96 84 111
0.10784545 0.42082047 -0.85743463 97 82 115
0.10792283 0.41983807 -0.8567574 96 83 120
0.10034536 0.4842937 -0.86344725 72 61 83
0.10048889 0.48332766 -0.8635121 74 63 87
0.099360682 0.48023489 -0.8617534 76 62 87
0.099292435 0.48027477 -0.86168331 76 62 86
0.09932337 0.48053712 -0.86176962 76 62 86
0.1004495 0.48104528 -0.86311942 78 65 92
0.10010415 0.48169369 -0.86286253 77 65 90
0.099893086 0.48225871 -0.86274129 76 65 89
0.099460542 0.4721435 -0.86070353 103 93 112
0.10200362 0.4718796 -0.86343414 103 93 117
0.10139912 0.47227702 -0.86292821 100 91 113
0.10083265 0.47150791 -0.86213499 103 94 115
0.10194854 0.47214603 -0.86345237 102 92 115
0.10110831 0.46683547 -0.86167032 97 83 103
0.10168275 0.46741503 -0.86240822 101 88 110
0.10237651 0.46823883 -0.86330658 106 95 119
0.1023826 0.47015226 -0.863424 108 97 123
0.10130884 0.46748805 -0.86195379 99 85 107
0.10098959 0.46814835 -0.86160016 97 83 105
0.10147526 0.46860439 -0.86222208 101 88 111
0.10107001 0.47064564 -0.86214 107 98 120
0.10045302 0.4700025 -0.86137325 103 93 113
0.099704854 0.47014326 -0.86063957 103 94 111
0.09980657 0.46935126 -0.86057472 100 88 106
0.10021551 0.46907204 -0.86093265 99 87 106
0.10096136 0.46565226 -0.86105978 98 83 103
0.10214399 0.46578115 -0.86255813 105 92 115
0.10211873 0.46601081 -0.8626132 105 91 114
0.10075103 0.46558604 -0.86077702 96 81 101
0.10199514 0.46591994 -0.86242765 104 91 113
0.10102946 0.46330982 -0.86028379 101 86 107
0.10307913 0.46338356 -0.86338025 106 97 122
0.10208891 0.46481079 -0.86222643 105 92 115
0.10258537 0.46627989 -0.86331582 107 95 118
0.1013158 0.46348608 -0.86075521 102 88 109
0.10306702 0.46446583 -0.86361516 107 97 122
0.10280178 0.46135813 -0.86218578 100 91 114
0.10301573 0.46167186 -0.86261928 102 94 117
0.10324658 0.46209261 -0.86312938 104 96 121
0.10331152 0.46145979 -0.86288601 104 96 120
0.10116171 0.46250197 -0.86021847 100 86 106
0.10145437 0.46247727 -0.86064762 101 87 108
0.10214773 0.46110097 -0.86110181 98 87 108
0.10235427 0.46097285 -0.86135739 98 88 109
0.10168922 0.45965296 -0.85979497 92 80 98
0.10198068 0.46263492 -0.86150557 103 90 113
0.10358117 0.46053326 -0.86291915 103 97 120
0.103577 0.46174759 -0.86356205 105 99 124
0.10400714 0.4591361 -0.86354131 100 95 116
0.10338647 0.45623517 -0.86082739 95 87 110
0.10329377 0.4577769 -0.86120254 97 90 111
0.10319448 0.45805988 -0.86116683 97 89 110
0.10273569 0.45867273 -0.86077958 95 87 106
0.10252892 0.45653909 -0.85988331 90 80 101
0.10315562 0.45546344 -0.8603133 92 83 107
0.10358858 0.45532918 -0.86092246 94 86 111
0.10441348 0.45548645 -0.86332202 98 93 113
0.10425561 0.45629287 -0.86317754 98 93 114
0.10365464 0.45546913 -0.86116248 94 87 111
0.10386489 0.45769492 -0.86258686 98 92 114
0.10392449 0.45855954 -0.86305606 99 94 115
0.10292811 0.45500326 -0.85992563 90 81 104
0.10389444 0.45436901 -0.8614381 95 88 109
0.10437183 0.45486945 -0.86297446 97 92 112
0.10417679 0.45503479 -0.86248112 97 91 112
0.10424218 0.45353729 -0.86211431 95 90 107
0.10361563 0.45269048 -0.86003453 92 84 102
0.10468999 0.45208853 -0.86359429 95 94 109
0.10454642 0.4521991 -0.86306399 95 93 108
0.10433199 0.45335886 -0.86242336 95 91 108
0.10450695 0.45143661 -0.86279756 94 92 106
0.10455029 0.45206034 -0.86305767 95 93 108
0.10416246 0.45193747 -0.86156106 93 89 104
0.10342548 0.44740638 -0.85985637 94 86 105
0.10425345 0.44904608 -0.86126894 93 86 103
0.10424659 0.44841933 -0.8613652 94 87 105
0.10397553 0.44756913 -0.86094034 95 87 106
0.10420037 0.44963035 -0.86105311 93 86 102
0.1036125 0.44901219 -0.85991526 93 85 102
0.10438041 0.45094103 -0.86216438 93 90 104
0.10496479 0.44903535 -0.86347842 95 91 108
0.10442904 0.45092452 -0.86234182 93 90 105
0.10474496 0.44952023 -0.86287302 95 90 106
0.10474155 0.44977832 -0.86298364 95 91 107
0.10404161 0.44669169 -0.86099815 98 90 110
0.10424013 0.44722208 -0.86154485 96 88 108
0.10394879 0.44525081 -0.8603996 103 94 115
0.1044826 0.44649351 -0.86187154 99 91 111
0.10464992 0.44554502 -0.86194956 102 94 114
0.10408371 0.44502595 -0.86061722 103 95 116
0.10511679 0.44662523 -0.86328059 97 90 109
0.10525158 0.44518468 -0.86344242 92 85 101
0.10441892 0.44469047 -0.86124974 103 95 116
0.1041683 0.44362664 -0.86047351 105 97 117
0.10491592 0.44525644 -0.86259294 97 90 108
0.10520779 0.44534183 -0.86335033 93 86 102
0.10449733 0.44332144 -0.8612684 99 92 109
0.10391402 0.44332793 -0.85977852 108 99 121
0.10740724 0.42811126 -0.86046207 96 81 108
0.10761649 0.42783785 -0.86151129 100 85 111
0.10744204 0.42786172 -0.8605051 98 83 110
0.10734595 0.42756116 -0.86006176 99 83 111
0.10789651 0.42761734 -0.86306173 103 90 111
0.10758065 0.42474991 -0.85980666 99 82 104
0.10762206 0.42567098 -0.86050487 100 84 106
0.10771602 0.42547458 -0.86095059 100 85 105
0.10760085 0.42451689 -0.85980743 99 82 103
0.10777982 0.42471454 -0.86146438 93 78 96
0.10780104 0.42386514 -0.86216009 78 63 80
0.10783999 0.42492682 -0.86235613 87 73 91
0.10787615 0.42424142 -0.86322731 72 59 75
0.10791487 0.42586979 -0.86318576 89 76 94
0.10782311 0.42316869 -0.86088347 88 74 94
0.10783466 0.42306527 -0.86081249 89 75 95
0.10703181 0.4175646 -0.86338919 99 88 120
0.107801 0.4198243 -0.8636573 87 81 112
0.1066068 0.46969172 -0.88608468 109 100 125
0.10755442 0.46883452 -0.88488483 108 99 124
0.10742861 0.46896982 -0.88520139 108 99 125
0.10794208 0.46917987 -0.88329983 108 101 126
0.10544209 0.49954069 -0.87403041 100 94 115
0.10500921 0.49762744 -0.87280065 102 94 117
0.10456885 0.49626589 -0.87155735 99 91 113
0.10476549 0.49661362 -0.87205881 101 93 116
0.10503654 0.49780139 -0.87289631 102 94 117
0.10538887 0.49060276 -0.87351596 101 92 112
0.10573331 0.49147785 -0.87451196 107 99 120
0.1053196 0.4920935 -0.87340385 113 101 123
0.10533644 0.49140736 -0.87341398 107 97 118
0.1055539 0.49064025 -0.87397295 101 92 113
0.10497879 0.4916774 -0.87238377 107 95 117
0.1058733 0.48919496 -0.87504715 98 92 112
0.10574509 0.48833644 -0.87492365 99 92 113
0.10540441 0.48724526 -0.87403959 99 91 111
0.1053579 0.48655397 -0.87417227 100 92 112
0.10528427 0.4863925 -0.87394643 100 91 111
0.10550883 0.48924059 -0.87381595 97 90 109
0.10477406 0.48898724 -0.87178713 98 87 106
0.10491192 0.4872455 -0.87214762 97 88 106
0.10521238 0.48862946 -0.87299168 97 89 108
0.10483437 0.48959512 -0.87196028 99 87 106
0.10547766 0.48421875 -0.87406838 107 99 122
0.10530425 0.48365107 -0.8732999 108 101 124
0.10554009 0.4853006 -0.8746978 105 96 119
0.10529025 0.48377717 -0.87330699 108 100 123
0.10567714 0.48340687 -0.87436348 108 101 124
0.10527433 0.48271972 -0.8728323 110 103 127
0.10523623 0.48458618 -0.87340599 106 98 120
0.10524982 0.48606321 -0.87377876 101 92 113
0.10527544 0.48542279 -0.8737461 103 95 116
0.1051834 0.48413146 -0.87309229 107 100 122
0.10509538 0.4849371 -0.87290514 104 96 117
0.10595251 0.47864342 -0.87448108 107 99 128
0.10613707 0.47964829 -0.87514675 109 101 130
0.10608036 0.48207629 -0.87519264 109 102 127
0.10549229 0.47980174 -0.87315667 102 93 119
0.1054017 0.47934717 -0.87283349 101 91 118
0.10546216 0.47979116 -0.87306201 102 92 119
0.10538851 0.48088241 -0.87293077 105 96 122
0.10502614 0.4805837 -0.87177509 104 95 120
0.10570362 0.48183995 -0.87399811 108 100 125
0.10519956 0.48090652 -0.87234426 105 97 122
0.10559818 0.48075324 -0.87357247 104 95 121
0.10521129 0.48145604 -0.87242985 107 99 124
0.10595885 0.47707087 -0.87423652 107 98 129
0.10587908 0.47555262 -0.87388408 103 95 125
0.10623024 0.47705317 -0.87527353 106 100 128
0.10625741 0.4754563 -0.87532735 102 97 124
0.10624294 0.47525802 -0.87526584 101 96 123
0.10602027 0.47554916 -0.87442374 102 96 125
0.1053353 0.47772813 -0.87238365 101 90 119
0.10537341 0.4780122 -0.87256247 101 91 119
0.10565741 0.47681662 -0.87319124 104 95 126
0.10566359 0.47803035 -0.87346822 104 95 124
0.10584657 0.47831777 -0.87409806 106 97 126
0.10600606 0.47829747 -0.8745895 108 99 129
0.10591434 0.47106472 -0.87358415 96 88 115
0.1059524 0.47123432 -0.87374741 96 89 115
0.10574054 0.47107241 -0.8729347 96 89 115
0.10578977 0.47158656 -0.87318194 96 90 116
0.10547655 0.47107068 -0.87194651 95 89 115
0.10602209 0.47314185 -0.87424219 98 93 119
0.10539067 0.47300789 -0.87182122 98 90 120
0.10534572 0.47389781 -0.87174171 99 90 122
0.10530636 0.47387293 -0.87158871 99 89 122
0.10586782 0.47374955 -0.87372226 99 93 120
0.10591142 0.47315839 -0.87382764 98 93 119
0.1062517 0.46684882 -0.87418538 95 89 110
0.10649858 0.4684073 -0.87538964 95 88 110
0.10640166 0.46721318 -0.87482768 95 89 109
0.10628486 0.46687019 -0.87431836 95 89 110
0.10630371 0.46809676 -0.87457997 96 88 111
0.10649206 0.4673782 -0.87520653 94 88 109
0.10555663 0.46971622 -0.87201393 96 89 115
0.10576973 0.46890041 -0.8726567 97 89 115
0.10592239 0.46932414 -0.87330836 97 89 115
0.10549672 0.4694055 -0.8717308 96 89 115
0.10551085 0.46785361 -0.87148923 97 91 114
0.10674969 0.46347624 -0.87366825 93 91 103
0.10700399 0.46320859 -0.87422806 92 89 99
0.10627742 0.46345383 -0.87227327 96 94 111
0.10643028 0.46547681 -0.87410331 95 91 109
0.10685571 0.4637298 -0.87415135 93 90 102
0.10628735 0.46309814 -0.87205899 97 94 110
0.10598847 0.46619838 -0.87280273 97 91 112
0.10627127 0.4652946 -0.87338746 96 92 110
0.10627212 0.46670794 -0.87420595 95 90 110
0.10604999 0.46438003 -0.87199467 97 94 112
0.10620099 0.46619755 -0.87363338 96 90 110
0.10732507 0.46252415 -0.8746388 90 87 93
0.10675959 0.46116197 -0.87183565 92 89 98
0.10705894 0.46026042 -0.87194812 89 86 91
0.10663874 0.46211502 -0.87228805 94 91 103
0.10678591 0.46146849 -0.87217158 92 89 99
0.10749815 0.45910227 -0.87254679 87 82 85
0.10777587 0.45979753 -0.87501234 93 85 95
0.1077093 0.45970467 -0.8744818 92 85 93
0.10755058 0.46048981 -0.87404162 89 84 90
0.1075954 0.46056145 -0.8744064 90 85 91
0.10731946 0.45744324 -0.87169063 96 92 103
0.10761026 0.45877078 -0.87323195 91 84 91
0.1078058 0.45853099 -0.87458569 96 88 100
0.10765451 0.45801231 -0.87359381 97 90 103
0.10798228 0.45201021 -0.87432683 97 92 109
0.10815563 0.45162615 -0.87514955 95 89 105
0.10821903 0.44895583 -0.87418091 91 88 102
0.10835864 0.44735992 -0.87498677 88 88 101
0.10818312 0.44938529 -0.87398249 92 88 102
0.10819425 0.4475829 -0.87326604 91 90 102
0.10824225 0.44916967 -0.87453836 91 88 102
0.1078586 0.45098877 -0.87306744 94 91 104
0.10779718 0.44968247 -0.87176919 94 92 105
0.1080583 0.4494155 -0.87309742 93 90 103
0.10789032 0.45008132 -0.87259871 94 91 104
0.10792035 0.4493005 -0.8722114 94 91 104
0.10788383 0.44895899 -0.8717528 94 92 104
0.108624 0.44487122 -0.87478215 89 87 103
0.10869782 0.44438121 -0.87482911 90 87 104
0.10837746 0.44633976 -0.87448543 86 85 99
0.10878527 0.44359413 -0.87471235 91 87 105
0.10853888 0.44582236 -0.87505025 89 87 102
0.10817941 0.44673142 -0.8725785 90 88 101
0.10830995 0.4471848 -0.8743456 89 88 101
0.1082677 0.44623202 -0.87320805 88 86 100
0.10824547 0.4451873 -0.87222826 86 83 98
0.10822745 0.44457942 -0.87160164 85 82 97
0.10883496 0.43974045 -0.87537253 101 97 116
0.10877764 0.43949792 -0.87461424 97 92 111
0.10887514 0.4416129 -0.87527192 96 92 111
0.10875212 0.44008964 -0.87401688 92 87 106
0.10879275 0.44176999 -0.87399423 89 84 102
0.10883904 0.44132945 -0.87484276 95 90 108
0.10869413 0.44137409 -0.87310368 86 80 97
0.10878302 0.4432337 -0.87444866 91 86 104
0.10862192 0.44148016 -0.87270337 84 79 96
0.10846349 0.44308728 -0.87241375 85 80 97
0.10862304 0.44101784 -0.87251228 84 78 95
0.10828823 0.43585548 -0.87219656 97 91 113
0.10836333 0.43645301 -0.87282181 98 92 114
0.10854593 0.43746895 -0.87353158 99 94 115
0.10823063 0.4367674 -0.87425935 100 91 115
0.1083314 0.43757638 -0.87511176 101 92 115
0.10859664 0.43783468 -0.87351573 98 93 113
0.1085931 0.43804398 -0.87326115 95 90 110
0.10841263 0.43635216 -0.87222499 96 92 113
0.10854176 0.43753585 -0.8729924 96 91 111
0.10846498 0.43689406 -0.8724761 96 91 111
0.10733626 0.43430409 -0.87465268 99 83 108
0.10706131 0.43272877 -0.87359965 94 78 98
0.10681787 0.43361467 -0.87477934 96 80 104
0.10664908 0.43279445 -0.87426883 93 78 99
0.10690806 0.4342753 -0.87525797 98 82 108
0.1063455 0.433072 -0.87497395 93 78 101
0.107752 0.43205309 -0.87201631 93 77 97
0.10813539 0.43552145 -0.87258929 97 89 113
0.10824152 0.43545464 -0.87185764 96 90 112
0.10808358 0.43441394 -0.872118 95 86 108
0.10802361 0.43449351 -0.87256181 96 85 108
0.10777117 0.43489939 -0.87448156 99 84 111
0.10343292 0.42821881 -0.87160647 78 62 92
0.10251002 0.42796084 -0.87508941 73 55 85
0.10274188 0.42811659 -0.87449509 74 57 87
0.10279267 0.42849994 -0.87522578 75 59 89
0.10252851 0.42808828 -0.87532556 74 56 85
0.10553573 0.43081853 -0.87375361 86 71 95
0.1059713 0.43144512 -0.87394136 87 73 93
0.10590647 0.43097252 -0.87341058 87 72 94
0.10549355 0.4298411 -0.87344849 85 71 94
0.10659456 0.43055263 -0.87256521 89 73 92
0.1072282 0.43082282 -0.87201691 91 74 91
0.10493316 0.43036792 -0.8741529 84 70 96
0.10368756 0.4297941 -0.87521064 80 68 98
0.10494834 0.42962131 -0.87363529 83 69 95
0.10597681 0.42917332 -0.87152284 86 69 91
0.10446265 0.42936975 -0.87338489 82 68 95
0.10520692 0.42969617 -0.87360942 84 70 94
0.10443714 0.42881852 -0.87192208 81 66 92
0.1075381 0.43153554 -0.87188017 91 75 92
0.10609655 0.42484042 -0.85537875 91 80 99
0.10713375 0.42189169 -0.85552514 96 81 109
0.10698757 0.42238453 -0.85559684 97 82 107
0.10661101 0.42305645 -0.85532159 94 80 100
0.10749765 0.42100754 -0.85571688 99 83 116
0.10779587 0.4197565 -0.85568643 97 82 120
0.10160998 0.49528056 -0.86626148 89 77 98
0.10152253 0.49623996 -0.86624438 87 76 95
0.10242857 0.49577934 -0.86734313 92 81 104
0.10177109 0.49500778 -0.86643827 90 79 100
0.10159238 0.49542513 -0.86625332 88 77 98
0.10184222 0.49515489 -0.86654234 90 79 100
0.10288636 0.49218529 -0.86735946 95 82 104
0.10326697 0.49097672 -0.86757457 96 81 102
0.10289314 0.4927606 -0.86748344 96 83 106
0.10262294 0.4918344 -0.86697167 92 79 101
0.10279986 0.4882504 -0.86679316 91 78 99
0.10327715 0.48958638 -0.86742014 95 80 101
0.10277867 0.4863328 -0.86673987 92 81 104
0.10336535 0.48634538 -0.86748815 98 88 111
0.10228153 0.48689306 -0.86611354 86 75 96
0.10088913 0.48251396 -0.86387455 78 67 93
0.10270407 0.48407462 -0.86615974 91 82 107
0.10329358 0.48514372 -0.86707395 96 87 111
0.101037 0.48283049 -0.8641187 79 68 94
0.10323477 0.48501298 -0.86697537 96 87 111
0.10320462 0.48469144 -0.86684698 95 87 111
0.10071148 0.48308921 -0.86374307 76 64 89
0.10097215 0.48476693 -0.86426228 76 64 87
0.10146492 0.48544243 -0.86496586 80 69 91
0.10207015 0.48460859 -0.86564487 87 77 101
0.1016859 0.48513606 -0.86521357 82 72 94
0.10154004 0.48513243 -0.86502713 81 70 93
0.10352521 0.4850677 -0.86730683 98 90 114
0.10281888 0.47967431 -0.86538523 94 86 116
0.10330722 0.48215899 -0.86621833 94 88 113
0.10225732 0.48150003 -0.8650806 88 79 107
0.10256804 0.48209912 -0.86547375 89 82 108
0.10279662 0.48167932 -0.86564285 91 84 110
0.10335748 0.47860947 -0.86576957 98 91 123
0.10312463 0.47854233 -0.86551732 96 88 120
0.1037657 0.48059145 -0.8670156 98 93 120
0.10377764 0.48039433 -0.86702013 98 93 120
0.10355945 0.48056364 -0.86634749 98 91 120
0.10293397 0.47766694 -0.86535579 96 87 117
0.10327581 0.47727615 -0.86572814 99 92 121
0.10321101 0.47516277 -0.8657611 101 95 118
0.10289908 0.4754383 -0.86539954 98 91 115
0.10374261 0.47599098 -0.86672539 103 97 121
0.10391184 0.47603679 -0.86722219 102 95 121
0.10365592 0.47482014 -0.86650807 104 98 120
0.10376264 0.47785538 -0.8667019 101 95 123
0.10363395 0.47714514 -0.86634284 101 95 123
0.10341693 0.47303089 -0.86547512 109 103 128
0.1032882 0.47330007 -0.86540759 108 101 125
0.1031507 0.47332793 -0.8652516 106 99 123
0.1032954 0.47109401 -0.86470413 115 107 136
0.10283324 0.47108954 -0.86413717 111 102 129
0.10355573 0.47094512 -0.86504197 117 109 139
0.10368667 0.4712134 -0.86555737 115 108 137
0.10369889 0.47158167 -0.86569649 114 107 135
0.10424817 0.47112504 -0.86743933 112 108 132
0.10382499 0.47354439 -0.8666693 106 99 125
0.10377619 0.47404033 -0.86668563 105 98 123
0.10340199 0.46908718 -0.86465257 117 108 135
0.10340506 0.46843293 -0.86463577 117 107 134
0.10340066 0.46790171 -0.86461365 117 106 132
0.1029918 0.4668569 -0.86401403 111 99 124
0.10422111 0.46810549 -0.86699754 114 107 131
0.10429283 0.4699291 -0.8674078 113 109 133
0.10430653 0.46788856 -0.86723381 114 106 131
0.10394362 0.46743253 -0.86608452 115 106 131
0.10401002 0.46946603 -0.86648041 115 109 133
0.10359914 0.46902072 -0.86507213 117 109 136
0.10357969 0.46811339 -0.8649776 117 108 134
0.10334881 0.46536142 -0.86419153 112 102 127
0.1032555 0.46471301 -0.86392868 109 100 125
0.10286196 0.46619013 -0.86370671 108 96 121
0.1041069 0.46498713 -0.86613584 111 103 128
0.10407433 0.464636 -0.86596549 111 102 127
0.10443421 0.46438369 -0.86702341 110 102 124
0.10429279 0.46320745 -0.86635327 108 101 123
0.10388691 0.46411282 -0.86528397 110 102 127
0.10370651 0.46552685 -0.86503065 114 104 129
0.10368523 0.46674955 -0.86522347 117 106 131
0.10360209 0.46517953 -0.86464077 113 104 129
0.10414653 0.4663541 -0.86653978 114 104 130
0.10354391 0.46262124 -0.86387795 108 100 126
0.10438178 0.46088755 -0.86556882 103 97 117
0.10420237 0.45993751 -0.86454564 101 96 117
0.10367985 0.4623414 -0.86418056 107 100 125
0.10430015 0.46129218 -0.8655265 104 98 119
0.10451045 0.46262148 -0.866835 107 100 120
0.10495721 0.4605228 -0.86701238 101 97 113
0.10490751 0.46112591 -0.8671934 103 98 115
0.1046191 0.45966884 -0.86559302 100 96 114
0.10471269 0.46038401 -0.86624199 101 97 115
0.10484716 0.45980209 -0.86631358 100 96 113
0.10490279 0.46158093 -0.86742336 104 98 116
0.10551839 0.45636818 -0.86685026 94 90 105
0.10550401 0.45711479 -0.86707723 95 91 105
0.10534248 0.45588866 -0.86616284 95 90 106
0.10520338 0.45696324 -0.86614299 96 93 109
0.10521389 0.45645142 -0.86598933 96 92 108
0.10514284 0.45589536 -0.86558115 96 92 108
0.10444927 0.45633602 -0.86374348 99 95 114
0.10462217 0.45710793 -0.86452717 98 95 113
0.10504673 0.45847633 -0.86625248 97 95 110
0.10468016 0.45742697 -0.86481267 98 95 112
0.10460731 0.45806083 -0.86484462 98 95 113
0.10479355 0.45681363 -0.86490399 98 95 112
0.10612415 0.45239174 -0.86754036 85 80 92
0.10558209 0.45298421 -0.8662405 91 87 100
0.10497034 0.45131135 -0.86428726 93 92 106
0.10548759 0.45236295 -0.86586338 91 87 101
0.10532533 0.45206913 -0.86537647 91 89 102
0.105952 0.45184883 -0.86697572 86 81 93
0.10545058 0.45405927 -0.86606801 93 88 104
0.10525587 0.45308161 -0.86538404 93 90 105
0.10554052 0.45505556 -0.86644757 94 87 104
0.10479387 0.45288783 -0.86400968 96 94 109
0.10533917 0.45432678 -0.86577332 94 89 105
0.10564063 0.45464644 -0.86669266 93 87 102
0.10551542 0.44797972 -0.86459881 94 88 105
0.10608332 0.44745141 -0.86564261 97 93 107
0.10631531 0.44910493 -0.86687094 91 87 98
0.10653363 0.44759259 -0.8667106 97 94 105
0.10675365 0.44728881 -0.86707246 98 96 107
0.10614015 0.44782725 -0.86593103 95 91 105
0.10542339 0.44856122 -0.86458606 93 87 104
0.10499965 0.45100638 -0.86428058 93 92 105
0.10582472 0.45031375 -0.86621785 87 82 95
0.1057762 0.45068458 -0.86621284 87 83 95
0.10541067 0.44980121 -0.86496186 91 87 102
0.10560069 0.45094562 -0.86583823 88 85 97
0.10715262 0.44597733 -0.86735928 95 93 104
0.10646392 0.44455662 -0.86573744 89 86 98
0.10730442 0.44381499 -0.8667677 88 85 100
0.10697258 0.44419396 -0.86639363 89 86 99
0.10560118 0.44359732 -0.86402661 85 81 92
0.10581329 0.44391343 -0.86447769 87 82 93
0.10679373 0.44386587 -0.86598986 87 84 98
0.10550337 0.44456038 -0.86396515 88 83 96
0.10560314 0.44473705 -0.86420792 89 84 97
0.10563899 0.44393805 -0.8641994 87 82 93
0.10544347 0.44520053 -0.86390227 90 85 99
0.10596346 0.44590986 -0.86514431 93 89 101
0.10609532 0.44636568 -0.86548996 95 91 103
0.10730515 0.44288087 -0.86632746 84 81 96
0.10661138 0.44313517 -0.86538726 85 81 95
0.10747938 0.44334006 -0.86696786 87 84 100
0.1082527 0.43137729 -0.86736834 99 88 109
0.10809739 0.42973956 -0.86725789 99 88 106
0.10795201 0.42787832 -0.86586601 101 89 106
0.107999 0.42857793 -0.86670083 100 88 105
0.10807934 0.42937863 -0.86657566 100 89 107
0.10799635 0.42824998 -0.86552083 101 90 108
0.10787352 0.42466009 -0.86621201 70 55 72
0.10788684 0.424505 -0.86491621 70 56 72
0.10787963 0.42473915 -0.86577749 71 57 73
0.10788234 0.42568469 -0.86655474 80 66 82
0.10787355 0.42474222 -0.86629719 71 56 73
0.10793284 0.42677975 -0.86509538 93 80 97
0.1079154 0.42593735 -0.86493605 84 72 88
0.10792556 0.42627737 -0.86487329 88 75 92
0.10795971 0.42707905 -0.86431044 96 84 102
0.10793015 0.42568237 -0.8640725 83 70 87
0.10394052 0.42046738 -0.8665458 84 71 87
0.10452937 0.41992697 -0.86585844 82 71 87
0.10563706 0.42200729 -0.86716419 75 62 84
0.10479744 0.4217996 -0.86726701 81 68 89
0.10445771 0.42154047 -0.86712652 84 72 94
0.10544881 0.42133701 -0.86653888 82 71 94
0.10784295 0.42055205 -0.86421835 82 75 104
0.10699666 0.4181259 -0.86389869 95 84 117
0.10638577 0.41711429 -0.8640967 98 84 116
0.10552607 0.41712621 -0.8648172 92 80 106
0.10636784 0.41788119 -0.86440802 92 81 111
0.10678765 0.41877919 -0.86440557 89 80 110
0.10513381 0.41793439 -0.86536551 86 75 98
0.10414706 0.41674006 -0.86578828 87 74 93
0.10481597 0.41797104 -0.86553741 85 74 95
0.10519534 0.41809112 -0.86534619 86 75 98
0.10449974 0.41811579 -0.86571759 85 73 92
0.10490991 0.41880724 -0.86555845 84 73 93
0.1035878 0.41498381 -0.8654961 90 75 93
0.10408708 0.4159466 -0.86555666 91 76 97
0.10430344 0.41519254 -0.86505312 94 80 100
0.10415275 0.41546306 -0.86529458 93 78 98
0.10777925 0.46914655 -0.8818146 107 99 126
0.1077314 0.46958318 -0.88059837 109 102 128
0.10775462 0.46951836 -0.88152015 109 101 128
0.10784139 0.46657175 -0.88024038 98 87 109
0.10806304 0.46443135 -0.88017225 93 85 98
0.10788153 0.46536222 -0.87956011 94 85 103
0.10792302 0.46637803 -0.8806985 98 88 108
0.10811132 0.46313214 -0.8794803 89 83 91
0.10811536 0.46258238 -0.8797577 90 84 92
0.1081157 0.4627229 -0.87957156 89 83 91
0.10812306 0.46204084 -0.88062572 93 86 97
0.10811895 0.46246019 -0.87998462 91 84 94
0.10561112 0.45466119 -0.8818301 90 83 103
0.10530046 0.45454362 -0.88197237 87 80 100
0.10379417 0.45205104 -0.88104188 71 65 78
0.10527211 0.45388255 -0.881387 86 79 98
0.10546313 0.45411277 -0.88142562 87 80 100
0.10519768 0.45368984 -0.88127667 85 78 96
0.10360873 0.45272657 -0.8818357 72 64 77
0.10483682 0.45174229 -0.88044715 76 70 84
0.10450283 0.45213681 -0.88049358 76 70 85
0.10600145 0.45339924 -0.88049567 89 83 103
0.10618445 0.45222589 -0.88040376 84 78 95
0.10777634 0.45120496 -0.87976772 86 79 96
0.10747474 0.45298135 -0.88031191 93 86 108
0.10714877 0.44736794 -0.88031191 89 85 103
0.10600343 0.44876614 -0.88031197 88 81 102
0.10656022 0.44776177 -0.88031602 89 84 103
0.10546038 0.44915906 -0.88031542 89 80 102
0.10642997 0.44886157 -0.88030422 88 81 101
0.10589565 0.45098063 -0.88034153 80 72 88
0.10538653 0.45073843 -0.88036352 79 71 87
0.10518956 0.45054498 -0.88036913 79 72 88
0.10558737 0.45025292 -0.88033789 83 75 93
0.10444741 0.44889531 -0.8803634 86 78 99
0.10766042 0.44798684 -0.88008791 90 86 103
0.10747742 0.44966573 -0.88022959 87 81 98
0.10822963 0.44863212 -0.87953943 93 89 105
0.1056199 0.44406465 -0.88130194 99 91 110
0.1056985 0.44347993 -0.88112938 99 90 111
0.10735218 0.44520241 -0.88000149 90 85 105
0.10501587 0.44341671 -0.88171059 103 93 112
0.10712507 0.44639784 -0.88041186 91 86 104
0.10595105 0.44430891 -0.8810581 98 90 109
0.1072202 0.44562128 -0.88019073 91 85 105
0.10366949 0.44437626 -0.88231409 105 94 113
0.10407161 0.44413567 -0.88247001 105 96 113
0.10674394 0.44674999 -0.88066715 91 87 104
0.10458206 0.44579896 -0.88134128 97 89 109
0.10354116 0.44666874 -0.8807711 94 85 110
0.10543746 0.44677112 -0.88067299 92 86 106
0.10362791 0.44357306 -0.88285601 108 98 115
0.10744967 0.44694987 -0.88024139 89 85 103
0.10813612 0.44475809 -0.87946731 93 87 107
0.10813643 0.44573674 -0.87954766 93 89 107
0.10822915 0.44636682 -0.87951714 94 91 108
0.10710814 0.44179532 -0.87942052 93 87 107
0.10585089 0.4416748 -0.88013977 92 84 107
0.10573611 0.44075489 -0.87999731 92 86 106
0.10566955 0.44063303 -0.88000816 92 86 105
0.10647167 0.44040272 -0.87949097 93 87 105
0.10574422 0.44153503 -0.88016987 92 85 106
0.10543264 0.44320601 -0.88125968 100 91 111
0.1064474 0.44250351 -0.88001674 92 84 107
0.10531852 0.44207349 -0.8807748 95 87 109
0.10542293 0.44137087 -0.88032192 92 85 107
0.10572654 0.44256017 -0.88067156 96 87 109
0.10715289 0.44333905 -0.87983525 93 84 108
0.10490804 0.4414452 -0.8808071 94 87 108
0.10387222 0.44098794 -0.88147032 97 89 109
0.10366613 0.43674847 -0.8804943 90 82 110
0.1035661 0.43588063 -0.88052046 90 81 112
0.10473713 0.43870845 -0.88006872 92 86 106
0.10510057 0.43679836 -0.87931514 92 85 110
0.10411704 0.43790996 -0.8802011 92 85 109
0.10471656 0.43834049 -0.87997603 92 86 107
0.10423554 0.43884718 -0.88039881 92 86 106
0.10394258 0.43552178 -0.87998271 90 82 113
0 0 0 1 0 0 0 1 0 0 0 1 0 0 0 0 0 930 1 0 0
