ply
format ascii 1.0
comment PCL generated
element vertex 1078
property float x
property float y
property float z
property uchar red
property uchar green
property uchar blue
element camera 0
property float view_px
property float view_py
property float view_pz
property float x_axisx
property float x_axisy
property float x_axisz
property float y_axisx
property float y_axisy
property float y_axisz
property float z_axisx
property float z_axisy
property float z_axisz
property float focal
property float scalex
property float scaley
property float centerx
property float centery
property int viewportx
property int viewporty
property float k1
property float k2
end_header
0.11564264 0.71193838 -0.89833963 98 91 119
0.11500795 0.70574486 -0.89741766 101 92 128
0.11388218 0.70877975 -0.89555413 91 77 109
0.11394085 0.70856905 -0.8956551 92 78 110
0.11433437 0.70866418 -0.89622217 93 81 113
0.11518969 0.70812762 -0.89750886 97 90 122
0.11349589 0.7075215 -0.89500248 91 75 106
0.11372954 0.70719206 -0.89537805 93 78 110
0.11379101 0.70583987 -0.89549583 94 80 112
0.11458895 0.70537031 -0.89676851 99 88 123
0.11377803 0.70555365 -0.89547956 94 80 112
0.11550459 0.70698035 -0.89875919 100 92 126
0.11548299 0.70669383 -0.89870918 101 93 127
0.11558387 0.70885599 -0.89878279 96 88 119
0.11526078 0.70834237 -0.89765441 97 90 122
0.11493609 0.70384371 -0.89717937 103 94 129
0.11446138 0.70423234 -0.89647186 100 88 122
0.1151081 0.70482922 -0.89756721 103 94 131
0.11519308 0.70237666 -0.89741576 106 98 133
0.11421993 0.70398539 -0.89606005 98 86 119
0.11341693 0.7022441 -0.89529371 91 78 108
0.11357728 0.70431101 -0.89518672 94 79 110
0.11383163 0.70380437 -0.89552063 96 82 114
0.11453705 0.70172894 -0.89653575 101 91 124
0.11343786 0.70169109 -0.8953892 91 78 108
0.1155281 0.70144039 -0.89830965 111 102 140
0.11527023 0.70184517 -0.89759761 107 99 134
0.11523908 0.70312256 -0.8975929 106 98 134
0.11399306 0.70040411 -0.8963601 92 81 113
0.11417346 0.70079106 -0.8963877 96 85 117
0.11461069 0.69882333 -0.89766622 91 80 115
0.11488607 0.70066237 -0.89718795 102 93 127
0.11488083 0.69739306 -0.89833659 89 77 116
0.11407391 0.69768327 -0.89667255 87 74 111
0.11337875 0.69867849 -0.89538836 85 72 106
0.1132027 0.69844508 -0.89496577 85 71 105
0.11380809 0.69778854 -0.89612627 86 73 110
0.11390242 0.69935691 -0.89664215 87 75 108
0.1156035 0.70056134 -0.89874005 109 100 139
0.11529393 0.69805026 -0.89882731 94 84 123
0.11410525 0.6938082 -0.89738715 90 76 114
0.11415329 0.69382 -0.89748251 90 76 114
0.11437107 0.69408309 -0.89787704 91 78 116
0.11441404 0.6953603 -0.89773333 89 75 114
0.11443859 0.69346994 -0.89812499 93 80 118
0.11487252 0.69592619 -0.89856178 91 79 118
0.11386877 0.69603151 -0.89644903 86 71 110
0.11392573 0.69721758 -0.89628428 86 73 111
0.1136713 0.69694948 -0.8958059 85 71 109
0.11349829 0.69603151 -0.89565831 85 69 108
0.11465084 0.69664198 -0.89797091 88 76 115
0.11338397 0.69636422 -0.89533395 85 69 107
0.1142611 0.69109607 -0.89837176 91 76 114
0.11382867 0.68989843 -0.89774507 88 72 109
0.11323766 0.69022834 -0.89621288 88 74 108
0.11440103 0.69205552 -0.89837807 93 79 117
0.11410964 0.69162679 -0.89782584 91 78 115
0.11426168 0.69192135 -0.89808965 92 79 116
0.1139873 0.69314855 -0.89725757 90 76 114
0.11335123 0.69134355 -0.89621204 88 74 110
0.1126601 0.68975389 -0.89502537 86 71 105
0.11282524 0.69205379 -0.89504749 84 67 104
0.11318591 0.69316518 -0.89562833 85 68 106
0.1136862 0.69204623 -0.89679641 90 76 112
0.11387064 0.68825591 -0.89831406 90 73 110
0.11363954 0.68834072 -0.89780015 88 70 106
0.11309493 0.68715847 -0.89685428 88 70 105
0.11381187 0.68871719 -0.89809901 87 70 107
0.11292087 0.68684959 -0.89653873 88 69 104
0.11323383 0.68923992 -0.89654016 86 71 106
0.11258785 0.68938518 -0.89494157 86 71 104
0.11246046 0.68783975 -0.89514387 86 69 102
0.11349177 0.68820482 -0.89749974 87 69 105
0.11252227 0.68806732 -0.89521748 86 70 103
0.11265323 0.6882109 -0.89548463 86 70 103
0.1208373 0.74545366 -0.9140715 91 81 113
0.12026574 0.74621522 -0.91277748 93 83 115
0.12064124 0.74511904 -0.91350657 91 81 114
0.12076332 0.74644017 -0.91408437 92 82 112
0.12060534 0.74476933 -0.91334456 91 81 114
0.12035274 0.74501908 -0.91275501 92 82 115
0.11977158 0.74484414 -0.91121525 93 84 118
0.11988273 0.74519628 -0.91157752 93 84 117
0.12013753 0.7462787 -0.91064841 104 97 130
0.12049004 0.74723637 -0.91281611 98 89 119
0.12036268 0.74679172 -0.91266429 96 87 118
0.12051299 0.74071497 -0.91334724 96 86 115
0.12091067 0.74305308 -0.91411853 92 81 113
0.12074555 0.74259645 -0.91318262 93 83 116
0.12091361 0.7428543 -0.91438293 92 81 112
0.1206868 0.74121916 -0.9143042 95 83 112
0.12082455 0.74243444 -0.91408592 93 82 113
0.11990765 0.74194676 -0.91061574 96 87 121
0.12012981 0.74274671 -0.91148245 94 85 118
0.1197864 0.74390042 -0.91104984 93 83 118
0.12017634 0.74146938 -0.91111559 97 88 120
0.12004355 0.74203193 -0.9109925 96 87 120
0.1204106 0.74410135 -0.91270828 91 81 115
0.12003126 0.73832744 -0.91262794 94 83 110
0.11971588 0.7369175 -0.91197771 91 80 107
0.11995045 0.73710024 -0.91366482 90 78 105
0.11979675 0.73725915 -0.91217214 91 81 108
0.1198548 0.73682767 -0.91325212 90 78 105
0.12014981 0.73833424 -0.91359955 93 81 108
0.1197286 0.73792434 -0.9105593 94 85 114
0.12025493 0.73956913 -0.91266519 96 86 114
0.12036239 0.73960191 -0.91357785 96 84 112
0.12031293 0.73982424 -0.91277963 97 86 115
0.12014846 0.73930454 -0.91213071 96 86 115
0.11997606 0.73882407 -0.9113481 96 86 115
0.11934637 0.73499143 -0.91076779 88 77 106
0.11968146 0.73300868 -0.91373295 81 63 95
0.11955847 0.73484325 -0.91201746 86 73 102
0.11938441 0.73270917 -0.91227007 82 66 99
0.11981312 0.73548222 -0.91389555 86 72 101
0.11953405 0.73601478 -0.91140103 89 79 106
0.11974764 0.73327994 -0.91411883 81 63 95
0.11962202 0.7341584 -0.91277409 84 69 100
0.11981697 0.73412728 -0.91439813 82 66 97
0.1191361 0.72984165 -0.91074091 101 91 122
0.11933275 0.72902477 -0.91149366 106 97 126
0.12002916 0.72852713 -0.91375446 107 100 123
0.11970013 0.72894019 -0.9127633 105 97 123
0.11966991 0.72937244 -0.91284275 102 92 120
0.11982243 0.72884578 -0.91315722 105 97 123
0.11950694 0.72882289 -0.91202575 107 99 126
0.11958017 0.73235291 -0.91349983 80 62 96
0.11957196 0.73224115 -0.91344023 81 64 97
0.11925435 0.73122889 -0.91156435 91 77 110
0.11914255 0.72934866 -0.91070783 105 96 126
0.11915236 0.72985488 -0.91082692 101 91 122
0.11973266 0.72841871 -0.91265446 109 102 127
0.11962941 0.7256698 -0.91101754 114 111 133
0.11982985 0.72755414 -0.91259956 110 104 127
0.12019449 0.72832787 -0.91425073 107 100 122
0.11923343 0.72773075 -0.91056556 112 106 133
0.1203645 0.72585076 -0.91397512 113 107 130
0.12028003 0.72463572 -0.91316289 116 112 134
0.1204311 0.72591639 -0.91426963 113 107 130
0.12032483 0.72645098 -0.9140476 112 106 128
0.12026096 0.72475976 -0.91313386 116 111 134
0.12044542 0.72316372 -0.91417402 115 107 134
0.12008681 0.72138333 -0.91310865 114 103 134
0.12035576 0.72363836 -0.91365129 116 108 134
0.11990646 0.7222389 -0.91208488 114 105 133
0.12018599 0.72123426 -0.91358209 114 103 134
0.11994404 0.7211265 -0.9125585 113 102 134
0.12018585 0.72407168 -0.91287208 116 110 134
0.12009791 0.72370124 -0.91258591 115 109 134
0.11964481 0.72191048 -0.911089 114 105 133
0.11981865 0.7223773 -0.91170424 114 106 133
0.11972016 0.72386378 -0.9110297 115 112 134
0.119711 0.71734464 -0.91325092 107 99 131
0.11959577 0.71751618 -0.9123106 107 100 132
0.11973797 0.7180261 -0.91279697 108 100 132
0.11981493 0.71793699 -0.91340119 108 100 132
0.12008572 0.71954334 -0.91373372 111 101 133
0.11948237 0.7172156 -0.91182381 106 99 132
0.11952386 0.71888936 -0.91128963 109 101 132
0.11949376 0.71781778 -0.91142029 107 100 132
0.1195956 0.72008467 -0.9113102 111 101 133
0.11955106 0.72044623 -0.91102803 112 101 133
0.120049 0.7196902 -0.91338086 111 101 134
0.11964962 0.7138136 -0.91292465 116 113 146
0.11933928 0.71499795 -0.9114027 108 105 137
0.11923029 0.71526039 -0.91090637 106 102 134
0.11944377 0.71536458 -0.91172498 110 106 139
0.11932568 0.71495152 -0.91136038 108 105 137
0.11980162 0.7140255 -0.9135834 118 114 148
0.11985617 0.71489644 -0.9142018 115 109 143
0.11985276 0.7151171 -0.91424179 114 108 141
0.11955313 0.71547186 -0.91231489 111 107 140
0.11980726 0.71553606 -0.91405356 112 106 139
0.11905035 0.70950538 -0.91082615 114 105 143
0.11967494 0.71105027 -0.91317737 120 115 151
0.11957929 0.71100551 -0.91281402 120 114 151
0.11991435 0.71235573 -0.9141742 123 119 154
0.11962096 0.70973891 -0.91287816 119 112 150
0.11952736 0.71044654 -0.91257757 119 112 150
0.11952921 0.71233934 -0.91265994 115 113 146
0.11935612 0.71241635 -0.91197765 111 109 142
0.11955192 0.7124573 -0.91275352 116 113 146
0.11936066 0.71120203 -0.91195643 115 110 145
0.11897188 0.70783883 -0.911789 112 101 142
0.11834378 0.70664561 -0.91114628 107 95 134
0.11824808 0.70659524 -0.91091657 107 95 133
0.11819293 0.70595026 -0.91138858 104 92 131
0.11869091 0.70604098 -0.91275221 105 95 135
0.11830246 0.70657259 -0.91109741 107 95 133
0.118397 0.7060644 -0.91187191 105 93 133
0.1198049 0.70819885 -0.91430181 115 111 148
0.11916893 0.7061649 -0.9139452 107 99 138
0.11949228 0.70824236 -0.91308141 115 108 146
0.11926468 0.70752442 -0.91294372 112 103 142
0.11976527 0.70808268 -0.91426909 115 110 147
0.11908906 0.70354939 -0.91414356 105 97 140
0.11843438 0.70213723 -0.91190529 109 102 142
0.11828684 0.7016511 -0.9113279 111 104 143
0.11861877 0.70165682 -0.9121629 110 103 145
0.1190017 0.70347691 -0.91389978 105 97 140
0.11818681 0.70504457 -0.91221559 101 90 129
0.11814369 0.70503324 -0.91208601 101 90 128
0.11806689 0.70486629 -0.9118064 101 90 128
0.11794242 0.70424819 -0.91123742 103 92 130
0.11794673 0.7033239 -0.91094214 106 96 134
0.11927392 0.70262355 -0.91430938 102 93 137
0.11867225 0.70095688 -0.91217214 111 104 146
0.11891857 0.70036888 -0.91301388 109 102 145
0.11895213 0.70070273 -0.91297102 110 103 146
0.11850376 0.69961888 -0.91227162 109 102 140
0.11873876 0.69884729 -0.91315931 107 100 138
0.11819518 0.69963449 -0.91113704 109 101 140
0.11827064 0.69843417 -0.9114657 107 96 138
0.11858695 0.69838274 -0.91275495 106 98 137
0.11809775 0.69962573 -0.91074038 110 100 141
0.11841246 0.69876766 -0.91203743 107 99 138
0.1182905 0.69911987 -0.91153443 108 99 139
0.11936717 0.70110846 -0.91402376 100 92 137
0.10650963 0.68500799 -0.88710827 72 55 69
0.11749785 0.74468637 -0.902731 110 100 132
0.11729952 0.74461591 -0.90216553 110 99 131
0.1167656 0.74529606 -0.90056574 107 98 128
0.11722241 0.74626172 -0.90179634 109 99 128
0.11697467 0.74581259 -0.90112227 108 98 128
0.11701503 0.74519163 -0.90129405 108 98 129
0.11663256 0.74652719 -0.89918888 107 95 128
0.11670271 0.74654001 -0.89953566 107 96 128
0.11620481 0.74440557 -0.89897925 105 96 127
0.11706546 0.74765807 -0.90034831 108 97 128
0.11733513 0.74749553 -0.90187842 109 99 127
0.11715513 0.74801755 -0.90047175 109 97 128
0.11750769 0.74313247 -0.90264344 109 99 132
0.11661493 0.74105501 -0.90009511 104 97 128
0.1173142 0.74349523 -0.90221584 109 99 132
0.11754642 0.74085963 -0.90239149 105 98 130
0.1166591 0.7407974 -0.90016592 103 97 128
0.1175936 0.74190527 -0.90266973 107 99 131
0.11615901 0.74298638 -0.89889395 104 96 127
0.11618616 0.74342811 -0.89898223 104 96 127
0.11693479 0.74385309 -0.90114999 108 98 130
0.11673762 0.74246126 -0.90054983 106 97 129
0.11620539 0.74301404 -0.89902824 104 96 127
0.1172253 0.73669606 -0.90256476 96 84 118
0.11655043 0.73695034 -0.89994115 91 80 115
0.11747169 0.73895711 -0.90240943 101 93 125
0.11655297 0.73695862 -0.89994669 91 80 115
0.11685098 0.73747683 -0.90080702 94 84 118
0.11670333 0.74003959 -0.90018833 102 96 127
0.11639003 0.73734927 -0.89938354 92 81 116
0.11743663 0.73992884 -0.90201879 103 96 128
0.11742006 0.73952883 -0.90197408 101 94 126
0.11641007 0.73875737 -0.89944524 97 88 121
0.1161846 0.73738122 -0.89887071 91 81 116
0.11623793 0.7334156 -0.90083802 89 79 107
0.11677889 0.73326498 -0.9022581 92 85 111
0.11656613 0.73321277 -0.9017238 90 83 109
0.11541998 0.73245633 -0.89894873 85 74 101
0.11682159 0.73477674 -0.90203911 93 82 112
0.11629909 0.73307103 -0.90106976 89 81 107
0.11579189 0.73421943 -0.89902574 86 75 106
0.11655219 0.73496813 -0.90127641 91 79 111
0.11706497 0.73608738 -0.90232718 94 82 115
0.11661386 0.73548943 -0.90110862 92 79 112
0.11648101 0.73535621 -0.90071714 91 78 111
0.11692613 0.73615754 -0.90175873 93 81 115
0.11569637 0.72867 -0.89969617 83 70 100
0.11666699 0.73136282 -0.9022181 90 83 108
0.11616217 0.72945327 -0.90099049 86 74 102
0.1157425 0.72872782 -0.8998276 83 70 100
0.1156746 0.72853762 -0.89965147 83 70 99
0.11653434 0.72984594 -0.90206307 88 76 104
0.11629107 0.73134905 -0.90116632 88 81 106
0.11576004 0.73134887 -0.89980441 85 76 102
0.11579762 0.72972214 -0.89986449 84 74 102
0.11548227 0.73150265 -0.89909542 84 74 101
0.11566185 0.73228568 -0.8995735 86 76 102
0.11580241 0.73022074 -0.89988786 85 75 102
0.11634744 0.72655666 -0.90149713 90 77 104
0.11633421 0.72468638 -0.90243649 88 80 101
0.11641987 0.72593701 -0.90234041 89 77 102
0.11645696 0.72689402 -0.90206963 89 75 103
0.11623283 0.72616684 -0.90091825 91 79 106
0.11577014 0.72613645 -0.89919692 90 80 107
0.11601502 0.72628105 -0.89999098 91 80 107
0.11651946 0.72820032 -0.9021377 88 71 102
0.11595435 0.72755253 -0.90020633 87 74 103
0.11579176 0.727916 -0.89982402 85 72 101
0.11639673 0.72793704 -0.90167958 89 72 103
0.11628263 0.72302145 -0.90200448 88 80 101
0.11610409 0.72154093 -0.90093511 88 80 102
0.11618232 0.72176182 -0.90130347 89 80 102
0.11625519 0.72215885 -0.90169144 89 79 102
0.11615127 0.72129381 -0.90106821 89 80 102
0.11622585 0.72440934 -0.90179074 89 81 103
0.11606198 0.723737 -0.90086448 89 82 103
0.11584459 0.72370976 -0.89936733 92 85 107
0.11620327 0.72375363 -0.90183777 88 80 100
0.11588031 0.72448629 -0.89937389 93 86 110
0.1161403 0.72455531 -0.90115297 90 83 105
0.11588047 0.71699613 -0.89973736 92 75 111
0.11623538 0.71744365 -0.9011969 93 78 111
0.11636672 0.71774679 -0.90173954 94 79 110
0.11649068 0.72024792 -0.902291 91 76 106
0.11583577 0.71724337 -0.89955896 91 75 110
0.11645848 0.72035331 -0.90216357 90 77 106
0.11590816 0.7193284 -0.89990741 89 78 105
0.11584703 0.71893752 -0.89964902 89 78 106
0.11612812 0.71914977 -0.90079266 90 76 107
0.1157684 0.71940917 -0.89934391 89 79 104
0.1165368 0.71608835 -0.90244699 97 85 114
0.1163452 0.71335459 -0.9020502 98 88 119
0.11640789 0.71364015 -0.90237707 98 87 118
0.11638398 0.71482009 -0.90183538 98 87 116
0.116519 0.71486068 -0.90272528 97 85 116
0.11632379 0.71632844 -0.90145773 96 83 113
0.11606944 0.71412575 -0.89999765 98 89 117
0.1162719 0.7163974 -0.90125865 95 82 113
0.11590289 0.71608537 -0.89968991 93 79 113
0.11594055 0.71470636 -0.89958113 96 86 116
0.11632037 0.71588588 -0.90135938 96 84 114
0.11600132 0.70942348 -0.90084302 98 88 122
0.11633422 0.71209997 -0.90233248 98 88 120
0.11599493 0.70959997 -0.90079695 98 88 122
0.11590962 0.70933187 -0.90038311 97 88 121
0.11601041 0.7099871 -0.900846 98 88 121
0.11600362 0.71121651 -0.90060937 97 88 119
0.11578962 0.71018237 -0.89960659 97 88 119
0.11587312 0.71181047 -0.89949048 98 90 119
0.11570785 0.71044624 -0.89895034 97 89 119
0.11604656 0.71234423 -0.90042931 99 90 119
0.11594068 0.70561922 -0.90077621 106 99 133
0.11615267 0.70796782 -0.90182054 102 92 129
0.11581828 0.70655352 -0.90040696 103 95 131
0.11592421 0.7066744 -0.90082133 104 95 131
0.11617513 0.70808107 -0.90191734 102 92 129
0.11636742 0.70854014 -0.90269411 102 91 128
0.11627839 0.70884681 -0.90231591 100 90 127
0.11564285 0.70795083 -0.89926285 98 90 123
0.11565425 0.70723182 -0.899468 100 92 127
0.11561909 0.70839816 -0.8990503 97 89 121
0.11560739 0.70643961 -0.89939153 102 94 130
0.11593503 0.70225662 -0.89998704 113 105 141
0.11637157 0.70318472 -0.90268022 109 100 136
0.11629617 0.70256674 -0.90236735 108 99 137
0.11599196 0.70145303 -0.90064603 110 101 140
0.11606315 0.70145929 -0.90113342 109 99 139
0.11611074 0.70344692 -0.90093535 112 105 139
0.11614081 0.7035262 -0.90107042 112 105 139
0.11561807 0.70472598 -0.89940333 106 99 135
0.11575292 0.70213819 -0.89923114 112 104 141
0.11568318 0.70198417 -0.89892572 112 103 141
0.11526932 0.69758224 -0.89898944 92 81 120
0.11563212 0.69735432 -0.90085495 98 87 130
0.11582553 0.69829911 -0.90117562 105 94 138
0.11589231 0.69790071 -0.9017449 105 94 139
0.11562944 0.69850469 -0.90011424 102 92 133
0.1157071 0.69872344 -0.90034467 105 94 136
0.1160813 0.69831997 -0.90268946 106 94 140
0.11600602 0.69747716 -0.90256649 106 94 141
0.11586316 0.69944733 -0.90066147 110 99 142
0.11605813 0.69896269 -0.90222913 107 95 140
0.11616466 0.70089054 -0.90205884 107 96 138
0.11619058 0.70055509 -0.90239424 106 95 138
0.11510424 0.69556981 -0.89912754 92 80 119
0.11497917 0.69383299 -0.8991946 94 82 120
0.11574705 0.69415492 -0.90231198 93 78 119
0.11555539 0.69468433 -0.90113479 97 84 126
0.11557966 0.69339895 -0.9016726 91 76 115
0.1156126 0.6938929 -0.90168828 93 78 119
0.11538729 0.69510967 -0.90021551 95 83 123
0.11559977 0.69713748 -0.90078497 98 86 129
0.11565456 0.6963706 -0.9012115 99 87 131
0.11551628 0.69665861 -0.90049231 96 85 127
0.11553133 0.69497657 -0.90092844 98 85 127
0.11509719 0.6914621 -0.89975548 96 80 122
0.11493222 0.69294298 -0.89922738 95 82 121
0.11508152 0.68983036 -0.8999815 95 77 121
0.11462583 0.69075584 -0.89914554 92 76 116
0.11449711 0.6896534 -0.89918685 90 73 113
0.11584371 0.69042295 -0.9025262 103 86 132
0.11583969 0.69049895 -0.90252352 103 85 131
0.11551428 0.69082141 -0.90144545 96 78 121
0.11576262 0.69325936 -0.90265828 90 73 113
0.1154508 0.69238973 -0.90110874 93 77 117
0.11523901 0.69231725 -0.90000218 94 80 120
0.11540677 0.69292498 -0.90082127 93 78 118
0.11520095 0.68783146 -0.90093416 102 88 133
0.11531126 0.68812799 -0.90111923 103 88 133
0.11545962 0.68933153 -0.90110826 101 83 129
0.12057372 0.74420989 -0.91877431 68 58 76
0.11945923 0.7451694 -0.91936493 48 36 48
0.11993992 0.74578148 -0.91897994 60 46 63
0.12115474 0.74675167 -0.91850781 86 73 100
0.11962049 0.74740887 -0.9190219 58 41 59
0.12074702 0.74684703 -0.91864073 78 64 89
0.12043039 0.74741834 -0.91876733 74 58 82
0.11932056 0.74159867 -0.91936821 43 30 42
0.11999462 0.74058867 -0.91883641 58 42 61
0.12008989 0.74214149 -0.91890651 59 46 62
0.11968923 0.74328381 -0.91926885 50 39 51
0.12055378 0.74053007 -0.91846019 69 53 75
0.11918996 0.73788542 -0.91890025 47 30 49
0.11937842 0.73837179 -0.91883844 50 33 51
0.11934081 0.74002826 -0.91919953 45 30 44
0.11930734 0.74021924 -0.9192605 44 29 43
0.1193099 0.73558009 -0.91863263 54 37 59
0.11954423 0.73246562 -0.91910917 71 54 78
0.11932645 0.73588091 -0.91856229 54 36 58
0.11994664 0.72985172 -0.9189378 81 69 92
0.1194621 0.72977006 -0.91939092 65 54 73
0.11970743 0.72996032 -0.9191578 74 62 84
0.1203796 0.72965717 -0.91847479 87 75 99
0.12004026 0.73092949 -0.9187153 80 66 89
0.11991262 0.73131043 -0.9188199 77 63 86
0.11944035 0.72635996 -0.91977525 62 50 64
0.11926003 0.72799408 -0.91963708 52 43 57
0.11963677 0.72664386 -0.91927648 66 56 73
0.11991125 0.72594988 -0.91892266 76 65 85
0.11962808 0.72708321 -0.91919243 65 55 73
0.11960486 0.72827458 -0.91927654 62 53 70
0.12007776 0.72703397 -0.91877121 79 69 90
0.11971404 0.7230503 -0.91993111 76 62 74
0.11968338 0.72307974 -0.91996741 75 61 73
0.11995158 0.72378427 -0.91936469 82 68 85
0.1199072 0.72337145 -0.91950941 81 67 83
0.11997855 0.72259998 -0.91945821 84 71 86
0.12039308 0.72444415 -0.91836089 94 81 106
0.11975517 0.71835929 -0.91903371 75 64 83
0.12012423 0.71756428 -0.91868973 86 74 96
0.12017965 0.7184332 -0.91866738 88 76 98
0.12013974 0.71866 -0.9187088 87 75 97
0.12033547 0.71881127 -0.91854531 93 82 104
0.11803869 0.71552557 -0.91922808 64 51 61
0.11804158 0.71533746 -0.91923559 64 52 63
0.1191361 0.71307677 -0.91966587 68 65 84
0.11627882 0.71626121 -0.91863877 70 45 45
0.11748589 0.71505481 -0.91906774 68 53 61
0.11655167 0.71441787 -0.91848183 78 59 62
0.11596289 0.71621794 -0.91852671 71 45 44
0.11668427 0.71487731 -0.91865981 74 55 58
0.11796024 0.71375394 -0.91916662 72 62 73
0.1200117 0.71335286 -0.91881514 97 93 118
0.12032402 0.71317255 -0.91851932 109 105 132
0.11930488 0.71674186 -0.91939211 59 50 67
0.11954396 0.71583682 -0.91918606 71 63 83
0.12043663 0.71580452 -0.91840094 100 89 115
0.11814673 0.71110195 -0.91848749 78 65 82
0.11759122 0.71231687 -0.91856879 80 68 80
0.11885313 0.71270502 -0.91944206 71 67 84
0.1196456 0.71079701 -0.91848147 90 79 107
0.11932899 0.71219945 -0.91925949 76 71 94
0.11960752 0.71191561 -0.91889453 86 80 105
0.11904962 0.70852572 -0.91836083 73 56 84
0.1155421 0.70381886 -0.91861707 53 33 35
0.11587047 0.70452011 -0.91845393 55 32 37
0.11680112 0.70379299 -0.91864651 56 35 46
0.11564112 0.70244008 -0.91895157 53 35 37
0.11784841 0.70475072 -0.91843623 60 36 53
0.11813976 0.70449775 -0.91851419 60 37 56
0.11864492 0.70331508 -0.91870868 66 43 71
0.11736353 0.70201218 -0.91898847 62 43 62
0.11879689 0.70331281 -0.91869956 67 44 73
0.1188679 0.70461434 -0.91849524 62 39 64
0.11883248 0.70391423 -0.91860497 65 42 69
0.11888699 0.70255345 -0.91881061 70 47 81
0.11953288 0.70123762 -0.91852045 72 50 94
0.11790404 0.69844747 -0.91861796 73 56 83
0.11846684 0.69769704 -0.91839772 78 61 93
0.11800334 0.69954109 -0.91880971 71 54 82
0.11700449 0.70059252 -0.91904461 63 46 64
0.11746377 0.70023161 -0.91895676 67 49 72
0.11895549 0.69867402 -0.91860795 79 60 98
0.11803925 0.69941211 -0.91878629 72 54 83
0.11938414 0.69948113 -0.91843349 76 57 98
0.11133482 0.73197675 -0.8908028 70 46 74
0.11062734 0.71337247 -0.89036667 69 48 72
0.11111032 0.71383321 -0.89078629 71 50 74
0.11105163 0.71677697 -0.89074039 68 55 67
0.10984009 0.7112987 -0.88966078 68 45 68
0.11036785 0.71121228 -0.89007539 70 48 72
0.11098053 0.71215218 -0.89063847 72 49 76
0.11102397 0.71237284 -0.89069051 72 48 76
0.11109665 0.71144748 -0.89067584 72 52 78
0.11099113 0.70920825 -0.89041567 73 58 79
0.10914666 0.71268886 -0.88907945 64 42 62
0.10951242 0.71179909 -0.88938838 67 43 65
0.11135519 0.71166873 -0.89093333 73 52 80
0.110722 0.70704639 -0.8902756 73 57 76
0.11043221 0.70689154 -0.89003032 72 55 74
0.11032247 0.70566887 -0.89002502 72 54 72
0.11044408 0.70673215 -0.8900528 72 55 74
0.11139514 0.7084496 -0.89086348 75 61 82
0.11060096 0.70416397 -0.89031035 74 54 73
0.11021069 0.70026022 -0.89060593 71 51 77
0.11036276 0.69818872 -0.89095247 72 56 81
0.11042625 0.70051432 -0.89085674 73 52 79
0.1102506 0.69538456 -0.89078951 70 54 80
0.11036078 0.6948005 -0.89086074 70 53 81
0.10998608 0.69634306 -0.89059019 69 55 78
0.10945776 0.696715 -0.88996357 67 52 72
0.10981201 0.69712615 -0.89035124 69 54 76
0.10991058 0.69712472 -0.89047492 69 55 77
0.10740755 0.69026923 -0.88783151 73 58 73
0.10877243 0.69052392 -0.88925272 75 59 82
0.10869913 0.69029683 -0.88919616 76 59 82
0.10962246 0.69002318 -0.89028484 77 56 85
0.11007807 0.69046867 -0.89075238 76 54 86
0.11021233 0.68964368 -0.89100492 78 54 88
0.10924704 0.69096595 -0.88974237 75 57 83
0.10992202 0.69267446 -0.89032978 70 53 81
0.11019418 0.69327915 -0.89060336 68 50 80
0.10817513 0.69125205 -0.88859516 71 55 74
0.10677047 0.68903482 -0.88728154 74 58 71
0.10669283 0.68930435 -0.88720834 74 57 71
0.10676401 0.68578649 -0.88735777 72 57 71
0.10698842 0.68594879 -0.88754427 72 58 73
0.10972768 0.68753266 -0.89060217 78 59 87
0.10991009 0.68832529 -0.89075637 78 57 88
0.10949717 0.68570292 -0.89048243 78 65 87
0.10783762 0.68607223 -0.88839078 73 59 78
0.11016082 0.68915874 -0.89099169 79 55 88
0.107922 0.68717283 -0.88845897 75 60 79
0.10753907 0.68841982 -0.88799363 76 62 78
0.10806128 0.68939865 -0.88856924 78 61 81
0.10745527 0.6883018 -0.88790035 76 62 78
0.10863563 0.68920475 -0.88923031 78 59 83
0.10837492 0.68724144 -0.88897538 75 58 81
0.10722974 0.68395662 -0.88764399 74 58 75
0.10657474 0.68446749 -0.88712424 72 55 69
0.10935952 0.68375051 -0.89029139 80 64 88
0.10930064 0.68396384 -0.89020211 80 64 87
0.1083789 0.68275732 -0.88894665 78 61 82
0.10863026 0.68314505 -0.88928717 79 62 83
0.10956462 0.68219972 -0.89062762 84 64 91
0.10976556 0.68286568 -0.89088875 83 65 92
0.10805093 0.68458998 -0.88863343 75 61 80
0.10843384 0.68440872 -0.88909507 77 62 82
0.10751129 0.68536621 -0.88802058 73 60 77
0.10914548 0.68553501 -0.89005953 77 64 85
0.10802576 0.68509984 -0.88863927 75 61 80
0.10772839 0.68065327 -0.88800639 80 61 80
0.10801767 0.68129903 -0.88845307 80 60 81
0.11876845 0.74694598 -0.90471476 111 105 135
0.11900631 0.74498224 -0.90549481 109 107 139
0.11905436 0.74449277 -0.90567243 109 107 140
0.1178588 0.74751681 -0.90323108 109 102 130
0.1183272 0.74483776 -0.90429485 109 104 136
0.11863711 0.74532127 -0.90485376 109 105 136
0.11785974 0.74483609 -0.90340906 110 101 133
0.11776099 0.74548829 -0.90318358 110 101 132
0.11770157 0.74454963 -0.90312612 110 101 133
0.11926051 0.74483699 -0.90603942 109 108 140
0.11940081 0.74703091 -0.90592259 112 108 139
0.11947341 0.74628723 -0.90627038 111 109 140
0.11874301 0.74388808 -0.90522796 108 104 137
0.11900656 0.7435798 -0.9058544 106 104 136
0.11825681 0.74209344 -0.90500861 101 92 124
0.11855348 0.74093711 -0.90602118 96 87 119
0.11804827 0.74293631 -0.90428537 105 96 128
0.11894931 0.74218529 -0.90631044 100 95 127
0.11772387 0.74062282 -0.90283322 105 98 129
0.11770941 0.74259585 -0.9032445 107 97 129
0.11815571 0.74042106 -0.9044494 100 92 123
0.11831258 0.74051791 -0.90507674 98 90 121
0.11788318 0.74284607 -0.90397334 105 95 127
0.1184348 0.73915827 -0.90604085 94 84 116
0.11808475 0.73801035 -0.90528214 94 84 116
0.11784702 0.73668766 -0.90509182 94 84 117
0.1180876 0.73723739 -0.90575641 93 84 117
0.11845079 0.73908478 -0.90615082 94 84 116
0.11804656 0.73834068 -0.90492672 94 84 116
0.11758809 0.73860323 -0.90301913 100 91 123
0.1174044 0.73692721 -0.9031347 96 84 117
0.11744662 0.73704499 -0.90323955 96 84 117
0.11822904 0.74019724 -0.9047057 99 91 122
0.1174346 0.73736376 -0.90303665 97 86 119
0.1176779 0.73876393 -0.90328622 100 90 123
0.11780494 0.73380065 -0.90549487 91 82 112
0.11790724 0.73299545 -0.90578473 91 79 110
0.11731669 0.73318249 -0.90401918 92 85 112
0.11776022 0.73319411 -0.9053483 91 81 111
0.11750189 0.73407352 -0.90459251 92 86 113
0.11743534 0.73383576 -0.90438819 92 86 113
0.11781383 0.73524618 -0.90554857 92 85 116
0.11713606 0.73436975 -0.90305614 93 85 114
0.11752609 0.73477286 -0.90452588 93 85 115
0.11753667 0.73458719 -0.90463459 92 86 114
0.11708488 0.73405653 -0.90295434 93 86 113
0.11763018 0.73580444 -0.90459478 94 84 116
0.11720449 0.72935611 -0.90433198 91 75 105
0.11731269 0.72944146 -0.90470672 91 77 106
0.11751561 0.72950691 -0.90545619 93 81 108
0.11781038 0.72981292 -0.90644073 95 85 110
0.11706379 0.72917444 -0.90387964 90 73 104
0.11763263 0.7309823 -0.90518302 90 73 106
0.11800438 0.73210466 -0.90611523 90 76 108
0.11701719 0.73117912 -0.9033072 90 80 107
0.11737563 0.73181629 -0.90427804 91 80 108
0.11705084 0.73226506 -0.90323228 91 85 110
0.11762992 0.72791624 -0.90644014 97 91 112
0.11751395 0.72684908 -0.9060874 98 91 112
0.11759245 0.72718668 -0.90632045 98 92 112
0.11738081 0.72589463 -0.90568644 97 90 111
0.11682074 0.72568417 -0.90405637 91 84 105
0.11643395 0.72479218 -0.90291953 88 80 101
0.11662613 0.72712094 -0.90294653 89 74 102
0.11655601 0.72633016 -0.90291893 88 76 101
0.11660182 0.72581744 -0.90325272 89 79 102
0.11716048 0.72726613 -0.90496099 93 85 107
0.11680941 0.72604293 -0.90398341 91 83 104
0.11755876 0.72816348 -0.90622038 96 90 110
0.11759178 0.72334349 -0.90592164 102 93 117
0.11765698 0.72394907 -0.90627909 102 94 117
0.11771232 0.72401118 -0.90642726 103 95 118
0.11753459 0.72267044 -0.90555936 101 92 117
0.11729335 0.72115302 -0.90448517 99 87 115
0.11808239 0.72128516 -0.9063397 109 99 125
0.11670599 0.72442961 -0.90367693 91 83 105
0.11687245 0.72169375 -0.90370071 93 81 108
0.11737266 0.72445256 -0.90561736 99 91 113
0.11680578 0.7230916 -0.9037419 93 82 107
0.11740447 0.72435814 -0.90569389 99 91 114
0.11784492 0.71896195 -0.90601534 106 96 123
0.11719327 0.71770418 -0.90434837 101 89 117
0.11740763 0.71809858 -0.90490884 102 91 119
0.11789502 0.71844351 -0.90653014 104 95 123
0.11762184 0.7180832 -0.90572637 103 92 120
0.11709005 0.71862596 -0.90384376 100 88 116
0.11692309 0.72052884 -0.90347993 95 82 110
0.11705361 0.71903646 -0.90376431 99 86 115
0.11776093 0.71946639 -0.90539038 107 96 123
0.11670251 0.71783793 -0.90294731 96 83 112
0.11665928 0.71832705 -0.90285307 95 82 110
0.11724904 0.71295464 -0.9060297 104 92 129
0.11738935 0.71457708 -0.90617126 102 91 124
0.11675835 0.71370476 -0.90386206 99 88 120
0.1169647 0.71409166 -0.90459073 100 89 121
0.116915 0.7130596 -0.90465969 102 90 124
0.11741609 0.71464169 -0.90626192 102 91 124
0.11654039 0.71482611 -0.902816 98 86 116
0.11677279 0.71589273 -0.90349782 98 86 115
0.11691755 0.71565419 -0.90408725 98 87 117
0.11711687 0.71659184 -0.90466785 98 87 116
0.11694847 0.71643925 -0.90406066 98 86 115
0.11708968 0.70951718 -0.90552014 105 96 133
0.11725511 0.71112728 -0.90612751 105 95 132
0.11718494 0.70988518 -0.90588099 106 96 133
0.11670829 0.71023178 -0.90403205 102 91 129
0.11729629 0.71031576 -0.90630275 106 97 133
0.11646876 0.71155673 -0.90299088 100 89 123
0.11674885 0.71167976 -0.90410924 102 90 126
0.11678229 0.71090311 -0.9042908 102 91 128
0.11642691 0.71216196 -0.90278596 99 88 121
0.11647572 0.71194506 -0.90299529 99 88 122
0.11641145 0.71138716 -0.90277076 99 88 123
0.11689787 0.70594293 -0.90452087 111 103 137
0.11663534 0.70530879 -0.90341628 111 105 136
0.11719964 0.70576966 -0.90574074 112 101 140
0.11723171 0.70818537 -0.90600497 108 101 136
0.11711492 0.70566493 -0.90538979 112 102 140
0.11711845 0.70652068 -0.90545148 111 102 138
0.1164156 0.70875794 -0.90290213 101 91 128
0.11648318 0.70858294 -0.90314513 102 92 129
0.11687046 0.70784199 -0.9045648 107 99 134
0.11687981 0.70805222 -0.90462273 107 98 133
0.11657359 0.70736867 -0.90336835 106 98 132
0.11679897 0.70148027 -0.9063344 100 83 128
0.11721429 0.70405877 -0.90626895 110 97 140
0.11669872 0.70203942 -0.90485084 105 91 135
0.11657945 0.70197219 -0.90401518 106 94 137
0.11650409 0.70122951 -0.90437579 103 89 132
0.11693573 0.70384181 -0.90487099 111 99 140
0.11679076 0.70442027 -0.90416628 111 102 139
0.11662705 0.70383191 -0.90361542 110 101 138
0.11713482 0.70450962 -0.90555048 112 100 141
0.11669086 0.70410687 -0.90382111 111 101 138
0.11667227 0.69852626 -0.90626079 99 89 132
0.11670622 0.70045823 -0.90625703 99 83 128
0.1163918 0.69912565 -0.90464002 102 87 133
0.11669753 0.69935751 -0.90631843 99 87 130
0.11624943 0.69741517 -0.90401828 103 93 138
0.11670832 0.69843948 -0.90647006 99 90 131
0.11650646 0.70094627 -0.90458578 102 88 132
0.11626352 0.69978005 -0.90332323 104 92 136
0.11630879 0.70112032 -0.90296799 105 94 136
0.11653468 0.70110214 -0.90472174 102 87 131
0.11627634 0.69991088 -0.90335339 104 92 136
0.11647458 0.69354612 -0.90595806 105 87 133
0.11626986 0.69363493 -0.90499163 100 83 127
0.11663382 0.69683737 -0.90630031 98 92 132
0.11599434 0.69415599 -0.90364206 92 77 117
0.11646225 0.69458961 -0.90577334 101 87 131
0.1160727 0.69647413 -0.90331686 101 89 134
0.11605717 0.69520986 -0.90365732 95 82 124
0.11643645 0.69717038 -0.90510631 101 93 136
0.11609277 0.69580609 -0.90365416 98 86 128
0.11608586 0.69726253 -0.90312397 105 93 140
0.11613533 0.69709259 -0.90345669 103 93 138
0.11582505 0.69272345 -0.90282291 93 76 118
0.11587144 0.69147843 -0.90279239 99 82 126
0.1163329 0.69291633 -0.90523165 104 86 132
0.11585728 0.69218171 -0.90286589 96 79 122
0.1160239 0.69252765 -0.90371221 99 81 125
0.11945169 0.74422014 -0.90759146 104 103 136
0.12003001 0.74613273 -0.9090057 110 106 139
0.11968362 0.74485976 -0.90899903 102 98 131
0.11962311 0.74481285 -0.90784055 107 105 138
0.11978067 0.74501902 -0.91030282 98 91 125
0.11960357 0.74450189 -0.90941721 99 93 127
0.11990655 0.74590462 -0.90823597 111 109 141
0.119431 0.74453092 -0.90665323 108 109 141
0.12017872 0.74710822 -0.90895802 113 109 141
0.11994629 0.7477752 -0.90759486 113 109 141
0.12005344 0.74754995 -0.90818697 113 109 141
0.11981054 0.74699301 -0.90731478 112 109 141
0.11945566 0.74322271 -0.90720356 105 104 136
0.1195983 0.7403686 -0.90876472 99 91 122
0.12000684 0.74043441 -0.91005152 100 91 123
0.11935162 0.7415415 -0.90751916 101 96 127
0.11973907 0.74243712 -0.90889585 102 97 130
0.11976008 0.74248618 -0.90958393 99 93 126
0.11963906 0.74308866 -0.9088366 101 96 129
0.11986029 0.74196774 -0.91013169 98 90 123
0.11955567 0.74379379 -0.90937471 98 92 125
0.1190331 0.73920846 -0.9076916 94 86 116
0.11888324 0.73750699 -0.90816766 91 82 112
0.11873931 0.73882675 -0.9072243 92 84 115
0.11837037 0.73692662 -0.90696084 92 84 116
0.1189056 0.73669434 -0.90856206 90 82 112
0.11946978 0.73747629 -0.90985817 93 84 113
0.11947503 0.73704702 -0.91017324 92 83 111
0.11925051 0.73996353 -0.90784001 97 89 120
0.11958705 0.7401697 -0.90881401 98 90 121
0.11936438 0.73976648 -0.90830797 97 89 120
0.11923513 0.73931384 -0.90812755 96 87 118
0.11922067 0.73919582 -0.90814245 96 87 118
0.11847002 0.73618072 -0.90754426 91 83 115
0.11875816 0.7350685 -0.90879947 89 79 111
0.11852168 0.73553461 -0.90794772 91 81 114
0.11912294 0.73343503 -0.91047829 87 73 106
0.11881182 0.73311257 -0.90958881 87 73 108
0.11845761 0.73438758 -0.90794545 90 78 112
0.11829875 0.73469228 -0.90719974 91 80 113
0.1186509 0.7326957 -0.90880948 88 73 107
0.11857837 0.73271847 -0.90846521 88 74 108
0.11924321 0.73593593 -0.9099263 89 80 109
0.11807525 0.72929358 -0.90773696 96 88 112
0.11899555 0.73069769 -0.91036195 96 84 116
0.11816026 0.72961801 -0.90799338 95 86 111
0.11893056 0.73089987 -0.91019815 94 82 114
0.11899561 0.73099047 -0.91038305 94 82 115
0.11872706 0.72985971 -0.90956539 99 89 118
0.11842434 0.73231345 -0.90778881 89 74 108
0.11852734 0.73125011 -0.90892774 90 77 108
0.11810781 0.73127651 -0.90691566 92 80 109
0.11858034 0.73137212 -0.90910542 89 77 107
0.11887787 0.73214263 -0.91005081 87 72 106
0.11853204 0.73229861 -0.90831023 89 74 107
0.11870147 0.72572267 -0.90887856 110 106 129
0.11894356 0.72571355 -0.90934068 112 109 132
0.11872172 0.7264744 -0.90915006 109 104 129
0.11899649 0.72732306 -0.90994054 111 105 132
0.1188404 0.72667348 -0.90943968 110 105 130
0.11772315 0.7259776 -0.90667987 101 94 116
0.11817107 0.72770256 -0.9079327 103 96 120
0.11771814 0.72639352 -0.90667194 100 94 115
0.11785798 0.72774798 -0.90707451 100 94 115
0.11815771 0.72740316 -0.90789181 103 96 120
0.11863762 0.72730261 -0.90920681 108 101 127
0.11916558 0.72549087 -0.90970808 114 112 134
0.11918189 0.72497958 -0.90958899 114 114 134
0.11877695 0.72241813 -0.90855312 110 103 129
0.11845511 0.7229113 -0.90796328 108 101 125
0.11813949 0.72406834 -0.90742344 106 100 122
0.11901376 0.72186643 -0.90897632 112 105 132
0.11904034 0.72299927 -0.90909237 113 109 132
0.11812364 0.72258389 -0.90695316 107 99 124
0.11880814 0.72126269 -0.90840894 111 102 130
0.11790045 0.72398281 -0.90691227 104 97 120
0.11832555 0.72227228 -0.9074176 108 100 125
0.11944204 0.72115195 -0.91039771 113 103 133
0.11949915 0.72205645 -0.91046613 114 106 133
0.11920695 0.72349674 -0.90947026 114 111 134
0.11925443 0.72250152 -0.90952551 114 109 133
0.11897042 0.72008824 -0.90882188 111 103 131
0.11891739 0.72024542 -0.90861768 111 103 131
0.11894074 0.72021168 -0.90869731 111 103 131
0.1189179 0.72021037 -0.90862936 111 103 131
0.11850302 0.71899056 -0.90783262 108 100 128
0.11834645 0.71814352 -0.90779495 105 97 126
0.11872545 0.71778226 -0.90886867 105 98 128
0.11884615 0.71690333 -0.90952188 103 97 128
0.11843501 0.71748418 -0.90828013 103 96 126
0.11937033 0.72041929 -0.91025364 112 102 132
0.11923797 0.71861142 -0.9101904 108 100 131
0.118265 0.7167657 -0.90815043 101 93 123
0.11882222 0.71644044 -0.90957475 103 97 128
0.11849875 0.71457982 -0.90919238 101 97 126
0.11868539 0.71411836 -0.90974748 101 99 128
0.11779197 0.71661997 -0.90702361 100 91 120
0.11827887 0.71608722 -0.9083187 101 94 124
0.11749119 0.71400124 -0.90669888 104 92 127
0.11808037 0.71294165 -0.90840727 104 97 130
0.11867631 0.71312374 -0.90992433 102 100 130
0.11849988 0.71306217 -0.90947652 102 99 130
0.11747203 0.71376115 -0.90668952 104 93 128
0.11774094 0.71300757 -0.90751469 104 95 130
0.11865499 0.70911288 -0.9098677 114 104 142
0.11793906 0.70913976 -0.90806168 110 101 138
0.11871459 0.71208459 -0.91006416 103 102 132
0.11815909 0.71090937 -0.90864426 105 101 133
0.1185623 0.70987666 -0.90964568 111 103 139
0.11802515 0.71045119 -0.90829921 106 100 134
0.11771995 0.71068555 -0.90750903 106 99 133
0.1185713 0.71224797 -0.90969932 103 101 131
0.11762939 0.71014297 -0.90728104 106 99 134
0.11752544 0.70964187 -0.90701777 107 99 135
0.11813595 0.71274614 -0.90856206 104 98 131
0.11828036 0.70711935 -0.91017252 110 98 137
0.11795764 0.70624095 -0.9095847 108 96 135
0.11797422 0.70632815 -0.90930963 110 97 137
0.11788527 0.70595115 -0.91012698 105 93 131
0.11791214 0.7061671 -0.90913916 110 97 137
0.11752537 0.70698237 -0.90694684 111 100 140
0.11792121 0.70819587 -0.90798718 112 101 140
0.1175369 0.70577687 -0.90693468 113 101 143
0.1186782 0.70870382 -0.90991467 115 104 144
0.11759961 0.70629948 -0.90711081 113 101 142
0.11809419 0.70786023 -0.90841222 113 102 142
0.1179937 0.70166558 -0.91052568 111 103 141
0.1176844 0.7017765 -0.9096126 107 97 136
0.11744218 0.70285374 -0.90924567 103 89 129
0.1170445 0.70147955 -0.90753865 101 85 128
0.11723661 0.70131022 -0.90807045 103 89 131
0.1173803 0.70266593 -0.90898919 102 89 129
0.11735313 0.70441055 -0.90734959 109 95 137
0.11752313 0.7047044 -0.90997595 101 87 126
0.11750704 0.7046138 -0.90995008 101 87 125
0.11732429 0.70421767 -0.90741134 108 94 136
0.11748412 0.70462716 -0.90940809 103 89 128
0.11725882 0.70364195 -0.90804034 103 88 130
0.11745422 0.69827431 -0.90880328 104 96 137
0.11803971 0.70011055 -0.91050959 111 101 142
0.11698098 0.69781893 -0.90741086 101 95 135
0.11713996 0.69764704 -0.90788281 101 94 135
0.1179607 0.70043647 -0.91027194 111 103 142
0.11713794 0.70057952 -0.90775079 102 90 132
0.11674058 0.69835097 -0.9066506 99 90 131
0.11793133 0.70091504 -0.91017443 111 104 142
0.11723274 0.69965017 -0.90809387 104 95 135
0.11703509 0.69990784 -0.9074713 101 90 132
0.11774072 0.70110774 -0.90957701 109 100 139
0.11511832 0.74562961 -0.89460248 109 95 127
0.11523566 0.74456072 -0.89490038 108 94 127
0.11486756 0.74153203 -0.89454353 102 91 123
0.11450479 0.74061692 -0.89409494 98 87 119
0.11489858 0.74075013 -0.89461797 101 92 124
0.114752 0.74113214 -0.89440519 101 90 122
0.11463553 0.74028426 -0.89428437 99 89 121
0.11400763 0.73888779 -0.893677 93 82 111
0.11271396 0.73646683 -0.89228046 78 63 88
0.11418952 0.73789871 -0.8939777 89 79 108
0.11449832 0.73832822 -0.89432269 92 83 113
0.11381835 0.73708928 -0.89358604 84 73 101
0.11267573 0.73640138 -0.89223874 77 62 88
0.11271735 0.73819691 -0.89207929 83 67 94
0.11247649 0.73759872 -0.89186394 81 65 90
0.11300334 0.73799771 -0.89249915 85 71 98
0.11266009 0.73887694 -0.89187974 83 66 94
0.11269075 0.73835468 -0.89201516 83 67 94
0.11336042 0.73360938 -0.89375257 80 62 92
0.1118864 0.7325294 -0.89173073 73 50 80
0.11229049 0.73335063 -0.89199781 74 54 84
0.11262276 0.73333102 -0.89259744 76 56 86
0.11277707 0.7327317 -0.89319855 77 57 87
0.11360253 0.7332747 -0.8943646 81 64 94
0.11177325 0.73331785 -0.89134943 72 50 79
0.1125811 0.73514223 -0.89221185 76 59 86
0.11204109 0.73445576 -0.89159787 74 54 82
0.11225139 0.73341459 -0.89192897 74 53 84
0.11168791 0.73453599 -0.89115906 73 52 79
0.11200454 0.73501641 -0.89151359 74 55 81
0.11238471 0.72957224 -0.89281279 75 60 81
0.11327164 0.72854984 -0.89448792 78 70 90
0.11358041 0.73082423 -0.89489537 81 67 93
0.11221496 0.7296077 -0.8925029 74 58 80
0.11248706 0.72878969 -0.89305049 75 63 83
0.11265837 0.72859794 -0.89337367 76 65 84
0.11237707 0.73046649 -0.89274412 75 58 82
0.11172144 0.73237705 -0.89149904 72 49 79
0.11205551 0.73187751 -0.89211285 74 52 81
0.11229046 0.73167729 -0.89253795 75 54 82
0.11312496 0.73181897 -0.89401072 80 61 89
0.11304127 0.73211116 -0.89384961 79 59 88
0.1115286 0.73158699 -0.89119166 71 49 76
0.11318018 0.72622782 -0.89433342 77 63 89
0.11348739 0.72602731 -0.89490378 79 63 91
0.11277852 0.7256881 -0.89359534 75 59 86
0.11262181 0.7262156 -0.89330041 74 61 85
0.11166881 0.72785437 -0.89157867 71 56 75
0.11239184 0.72652864 -0.89287323 73 61 84
0.11208338 0.72609186 -0.89230931 72 58 82
0.11196843 0.72764564 -0.89211911 72 58 79
0.11306943 0.7208851 -0.89340174 77 60 84
0.11295138 0.72083354 -0.89324421 76 59 83
0.1122843 0.72076893 -0.8923474 72 51 76
0.1128839 0.72390395 -0.89356542 76 58 86
0.11369504 0.72164589 -0.89431322 82 68 91
0.11308785 0.72458416 -0.89416963 76 56 87
0.11375175 0.72170186 -0.89443684 82 68 92
0.11331756 0.7224884 -0.89389575 79 64 89
0.1126309 0.71959156 -0.89279276 76 60 80
0.11205702 0.71960539 -0.89201993 71 53 74
0.11251364 0.72050571 -0.89265412 73 55 78
0.11360388 0.71993381 -0.89411074 82 69 89
0.11248586 0.71866173 -0.89257765 76 62 79
0.11231799 0.71876955 -0.89235383 75 60 77
0.11388118 0.71993458 -0.89452398 84 71 92
0.1135273 0.71691358 -0.89428067 82 69 91
0.1130031 0.71684861 -0.89349604 79 66 86
0.11283664 0.71691656 -0.89323837 78 65 84
0.11402 0.7189427 -0.89482886 85 72 94
0.1139067 0.7202118 -0.89453584 84 71 92
0.11230573 0.71373779 -0.89252055 78 57 86
0.11292361 0.71324837 -0.89361185 82 63 92
0.1121527 0.71336031 -0.8923068 77 56 86
0.11358162 0.71547079 -0.89446312 84 68 95
0.11338156 0.71345854 -0.89435571 85 67 96
0.11178251 0.71335715 -0.89168656 75 52 82
0.11278473 0.71295911 -0.89341176 82 61 92
0.11143797 0.71667761 -0.89113992 71 58 70
0.11333507 0.71591258 -0.89400351 82 66 92
0.11140306 0.71391606 -0.8910926 72 51 77
0.11188701 0.71656346 -0.89181757 73 60 75
0.11199838 0.7140677 -0.89199042 75 55 83
0.1121824 0.71585119 -0.89226466 75 60 80
0.11136511 0.71479279 -0.89103359 72 53 74
0.11268268 0.70968258 -0.89331305 83 68 95
0.11341698 0.70918828 -0.89481628 89 73 104
0.1132002 0.71036595 -0.89425689 86 70 99
0.11304875 0.70942736 -0.89406347 86 71 99
0.11319958 0.71066993 -0.8942216 86 70 98
0.11274753 0.70965683 -0.89344382 84 69 95
0.11172153 0.71111709 -0.89154047 76 58 84
0.11239447 0.71147752 -0.89268827 80 63 89
0.11239514 0.71259612 -0.89275032 79 59 89
0.11158937 0.7109791 -0.89131147 75 57 82
0.11247719 0.71225703 -0.89286941 80 61 89
0.11185472 0.71019506 -0.89171356 77 62 85
0.11273161 0.70743674 -0.89357316 86 68 96
0.11312191 0.70783204 -0.89430475 88 72 101
0.11339925 0.70800012 -0.89482659 90 74 105
0.11328334 0.70581752 -0.89464635 91 75 105
0.11236312 0.70601052 -0.89290142 84 66 92
0.11240558 0.70513076 -0.89299756 85 68 93
0.11143314 0.70738077 -0.89102465 76 61 81
0.11145751 0.70554781 -0.89118379 78 59 80
0.11162984 0.7061879 -0.8914848 79 61 82
0.11312739 0.70849991 -0.89429748 88 71 100
0.11164349 0.70783663 -0.89141184 78 62 84
0.11162557 0.7082004 -0.89135444 77 63 84
0.11099119 0.70246303 -0.89118999 75 54 80
0.11097915 0.70201826 -0.89128768 75 54 81
0.11151779 0.70160669 -0.8921867 78 57 86
0.11283585 0.70127368 -0.8947283 85 72 99
0.11241396 0.70199305 -0.89376074 83 68 94
0.11223176 0.70216137 -0.89337867 82 66 92
0.11287687 0.70443475 -0.89404494 88 72 100
0.11259437 0.70471382 -0.89344329 86 69 96
0.11313383 0.70497417 -0.89440161 90 74 103
0.11292873 0.70487601 -0.89403707 89 72 101
0.11183959 0.70474243 -0.89200801 81 63 85
0.11279175 0.70404452 -0.89397764 87 71 99
0.11129155 0.69857872 -0.89186025 76 59 89
0.11131999 0.69952077 -0.89190912 76 57 88
0.11051869 0.69773334 -0.89113516 72 58 83
0.11150812 0.69751471 -0.8922022 76 63 93
0.11295842 0.69878203 -0.89462537 84 70 103
0.11262169 0.6990577 -0.89414543 83 69 100
0.11268819 0.69967312 -0.89433742 83 70 100
0.11283475 0.69764936 -0.89427012 83 68 103
0.11226035 0.69962889 -0.89365935 81 68 97
0.11243635 0.70104867 -0.89400715 83 67 96
0.11160057 0.6988619 -0.89241838 77 62 92
0.11233597 0.70108652 -0.89382052 82 66 95
0.11107539 0.69670105 -0.89163405 74 60 89
0.11062999 0.69713247 -0.89125419 72 59 84
0.11077627 0.69479084 -0.89126259 71 55 85
0.11064097 0.69493955 -0.89114219 71 55 84
0.11290951 0.69435328 -0.89480788 83 65 103
0.11237155 0.6950354 -0.89350736 79 62 99
0.11236607 0.69517291 -0.8934629 78 62 99
0.11309599 0.69612706 -0.89477789 83 67 105
0.11281327 0.69571936 -0.89427769 82 65 103
0.11150848 0.69443816 -0.89203203 73 56 92
0.11233107 0.69540983 -0.8933484 78 62 99
0.11201134 0.69665575 -0.89291406 78 63 97
0.11250941 0.69649506 -0.89367545 80 65 101
0.11166207 0.69429213 -0.89226222 74 57 93
0.11131517 0.69010383 -0.89217973 76 53 91
0.11087462 0.68953228 -0.89176762 78 54 90
0.11051201 0.69029123 -0.89126724 76 54 88
0.11219633 0.69070137 -0.89392763 82 62 99
0.1118276 0.68980509 -0.89328349 80 60 96
0.11185674 0.68945789 -0.89339292 81 61 97
0.11145148 0.68969923 -0.89251328 78 55 92
0.11192042 0.69265193 -0.89306098 77 57 95
0.1125684 0.69264585 -0.89443189 82 62 100
0.11209839 0.69215304 -0.89351237 79 59 97
0.11185949 0.69288576 -0.89289695 76 57 94
0.11147784 0.69013256 -0.89250451 78 54 92
0.11115113 0.68826813 -0.8922537 79 58 92
0.11130936 0.68863833 -0.89238155 79 56 92
0.11043432 0.68758166 -0.89149052 80 60 91
0.11096295 0.68620765 -0.89229888 82 64 94
0.11094866 0.68588597 -0.8923108 82 65 94
0.11220799 0.68817693 -0.89432776 85 70 102
0.11186244 0.68848228 -0.89353973 82 64 98
0.11138865 0.68729931 -0.89271438 81 62 94
0.11171141 0.68945181 -0.89309043 80 59 95
0.11193061 0.68844128 -0.89368767 83 65 99
0.1099662 0.68467253 -0.8911128 81 67 91
0.12125797 0.74461716 -0.91699666 87 76 104
0.12162539 0.74696159 -0.9174549 98 86 119
0.12165902 0.74703145 -0.91808385 97 85 116
0.1213645 0.74515474 -0.91770607 88 77 105
0.12130289 0.74461526 -0.91822267 84 74 99
0.12115743 0.74804646 -0.91586906 96 85 115
0.1215103 0.74767143 -0.91708028 98 86 119
0.12095846 0.74631828 -0.91460288 92 82 112
0.12112984 0.74536145 -0.91495818 92 81 114
0.12122029 0.74674684 -0.91571409 95 84 115
0.12152477 0.74663192 -0.91682202 97 85 119
0.12078006 0.74105483 -0.91802603 76 61 85
0.12063149 0.74051034 -0.91523105 92 80 106
0.12059994 0.74033886 -0.9149642 93 81 108
0.12081042 0.7415241 -0.91650134 87 74 99
0.12076562 0.74120396 -0.91657144 85 72 98
0.12070672 0.74090546 -0.91594726 89 76 102
0.12086923 0.7421158 -0.91570854 91 80 106
0.12086164 0.74238187 -0.91454041 92 82 112
0.12109628 0.74356437 -0.91662776 86 76 102
0.12117912 0.74395144 -0.91747463 84 74 99
0.120883 0.74250209 -0.91468483 92 81 111
0.12067572 0.74093211 -0.91474158 95 83 110
0.12039194 0.7389915 -0.91744965 74 58 82
0.12049416 0.73963618 -0.91829014 70 53 77
0.11982262 0.73667204 -0.91621482 75 59 85
0.12000287 0.73678499 -0.91492105 86 72 99
0.12021058 0.73832494 -0.9172523 73 57 82
0.12026388 0.73826766 -0.91534388 86 73 99
0.12036494 0.73885441 -0.91544509 87 73 100
0.12039685 0.73918486 -0.91449571 94 81 108
0.12032413 0.73850846 -0.91614151 82 67 93
0.1202242 0.73814249 -0.91459256 91 78 105
0.12041357 0.73921669 -0.91495317 91 78 105
0.11993696 0.73267454 -0.91668093 73 56 82
0.11987913 0.73374921 -0.91793191 67 49 73
0.12002338 0.73292357 -0.91794318 70 53 76
0.11978365 0.7329585 -0.91566712 74 56 85
0.11965186 0.73503506 -0.91788924 62 44 68
0.11976119 0.73400426 -0.91721386 67 49 75
0.11968802 0.73463446 -0.91584557 73 55 83
0.11978977 0.73550367 -0.91526639 79 64 91
0.11981033 0.73411185 -0.91456509 82 65 95
0.1196411 0.73471904 -0.91629356 69 51 79
0.11971946 0.73441178 -0.91548347 75 57 87
0.1197699 0.73337251 -0.91464835 79 61 93
0.12036968 0.73011637 -0.91784579 86 74 97
0.12030435 0.72953755 -0.91647643 94 84 106
0.12034394 0.72899878 -0.91624218 98 89 111
0.1203628 0.7285192 -0.91586387 102 94 116
0.1203239 0.72979838 -0.91699094 91 80 102
0.12007995 0.73149675 -0.91655141 81 66 91
0.11991757 0.73130703 -0.91474503 86 71 100
0.12007684 0.73031735 -0.91512406 92 80 105
0.11997411 0.73063648 -0.91450149 91 78 106
0.11980402 0.73225093 -0.91475713 79 61 93
