ply
format ascii 1.0
comment PCL generated
element vertex 971
property float x
property float y
property float z
property uchar red
property uchar green
property uchar blue
element camera 0
property float view_px
property float view_py
property float view_pz
property float x_axisx
property float x_axisy
property float x_axisz
property float y_axisx
property float y_axisy
property float y_axisz
property float z_axisx
property float z_axisy
property float z_axisz
property float focal
property float scalex
property float scaley
property float centerx
property float centery
property int viewportx
property int viewporty
property float k1
property float k2
end_header
-0.24696188 -0.013902912 -0.80687916 159 124 124
-0.24674878 -0.016720472 -0.8054589 155 117 135
-0.24711098 -0.014439771 -0.80711991 157 120 124
-0.2466557 -0.016450658 -0.80528891 156 119 135
-0.24845889 -0.018314663 -0.80805004 163 133 143
-0.24863979 -0.018248528 -0.80841666 170 143 152
-0.24885076 -0.021333013 -0.80783278 160 117 124
-0.24821053 -0.018178571 -0.80760062 157 124 136
-0.24848621 -0.019353742 -0.80776697 159 122 132
-0.24842353 -0.020914247 -0.80706662 158 115 124
-0.24772803 -0.019823294 -0.80619258 159 122 131
-0.24763413 -0.020153433 -0.80593735 160 122 130
-0.24741375 -0.019450702 -0.8057704 158 121 133
-0.24743149 -0.017648 -0.80635154 155 120 138
-0.24695209 -0.018184043 -0.805336 155 117 136
-0.24885941 -0.022848874 -0.80713463 171 136 145
-0.24825428 -0.022917515 -0.80580127 168 132 142
-0.24828863 -0.021742677 -0.80644476 159 116 124
-0.24850188 -0.022590959 -0.80649161 167 129 139
-0.24970306 -0.023647379 -0.80874646 177 145 153
-0.24974483 -0.023625851 -0.80885506 177 144 152
-0.24936146 -0.024635412 -0.80750912 183 157 167
-0.24897754 -0.023971036 -0.80688143 179 151 161
-0.24931541 -0.024115855 -0.80762291 180 151 161
-0.24947695 -0.024725467 -0.80774516 183 158 168
-0.24792257 -0.022050494 -0.80561686 160 120 128
-0.25328356 -0.03707131 -0.8088882 198 170 179
-0.25241333 -0.036111545 -0.80785888 201 180 182
-0.25244623 -0.036149815 -0.80789655 201 179 182
-0.25215152 -0.035191834 -0.80791992 206 186 188
-0.25169501 -0.03627412 -0.80665016 199 181 179
-0.25167906 -0.035181679 -0.8072753 206 188 188
-0.25169876 -0.035758276 -0.80695719 202 185 183
-0.25061136 -0.034653779 -0.80607599 207 191 194
-0.25136608 -0.034870099 -0.80711389 209 191 191
-0.25113681 -0.034624368 -0.80687743 209 192 193
-0.25095275 -0.034570508 -0.80662483 209 192 194
-0.25234953 -0.037987612 -0.80715555 194 173 174
-0.25254446 -0.03757368 -0.80751264 195 172 175
-0.25323492 -0.038616676 -0.80877626 197 168 179
-0.25294197 -0.037521683 -0.80824047 196 171 177
-0.25212756 -0.039310217 -0.8065148 190 156 170
-0.25310364 -0.040633738 -0.80849338 197 163 178
-0.2522963 -0.038073801 -0.8070575 194 173 173
-0.25214878 -0.038203031 -0.8067134 192 168 172
-0.25189716 -0.038601875 -0.80615652 189 159 170
-0.25070295 -0.037182309 -0.80510753 194 179 175
-0.25141817 -0.038474191 -0.80563915 190 161 170
-0.25303459 -0.042236824 -0.80822116 201 168 185
-0.25251588 -0.042075112 -0.80708236 195 155 179
-0.25246409 -0.041389354 -0.80700535 191 148 174
-0.25300336 -0.041795719 -0.80817628 199 164 182
-0.25233775 -0.042293448 -0.80669099 195 155 181
-0.2453897 0.010444861 -0.81702024 186 176 181
-0.24601948 0.010367418 -0.81986845 190 179 179
-0.24642618 0.0099923136 -0.82017934 193 184 187
-0.24597637 0.010460556 -0.82010776 189 178 178
-0.24809529 0.0068246648 -0.81949282 155 132 141
-0.24840878 0.006040419 -0.81810808 136 103 114
-0.24848454 0.0059792241 -0.81920737 143 113 124
-0.24669193 0.0090983184 -0.81871372 185 175 180
-0.24694702 0.0085806455 -0.8187412 179 168 174
-0.24733056 0.0083267931 -0.82016855 180 167 173
-0.24676371 0.0092649609 -0.81954688 188 179 184
-0.24739091 0.0077937967 -0.81815213 160 141 149
-0.24793799 0.0069272979 -0.81791282 141 113 124
-0.2477711 0.0070875376 -0.81697178 137 106 117
-0.24692887 0.0085298158 -0.81839514 177 165 171
-0.24771163 0.0072595156 -0.81775552 147 121 131
-0.24824411 0.0021465486 -0.82017243 116 100 101
-0.24841659 0.0026453238 -0.81770802 135 102 121
-0.24850981 0.0045241634 -0.81980526 143 117 128
-0.24837299 0.0023064786 -0.81787801 130 100 117
-0.24852321 0.0047518858 -0.82001638 145 119 129
-0.24853736 0.0049495185 -0.82014811 146 121 130
-0.24843554 0.0053776931 -0.81688076 126 87 101
-0.24848701 0.0049761841 -0.81820232 136 103 117
-0.24848953 0.0055063115 -0.81810588 135 100 113
-0.24847507 0.0058589149 -0.81766397 131 94 106
-0.24852547 0.0053087054 -0.81900424 141 110 123
-0.24907835 -0.0013890401 -0.81744331 171 159 163
-0.24865419 -0.0010100475 -0.8186546 157 147 152
-0.24817434 0.00097198412 -0.82047814 123 113 112
-0.24899516 -0.0011717612 -0.81772262 166 155 158
-0.24837478 -0.0010113271 -0.81937927 151 143 149
-0.24886848 -0.0003908177 -0.81772894 157 141 147
-0.24830134 0.0015846979 -0.82027698 118 106 103
-0.24830939 0.0018338006 -0.81897122 122 100 108
-0.24892682 -0.00066557236 -0.81779474 160 146 150
-0.24832606 0.0016351904 -0.8195402 122 105 107
-0.24899679 -0.0027268331 -0.81903565 177 167 176
-0.24959019 -0.0037306475 -0.81938791 189 174 185
-0.24908763 -0.0034191948 -0.8201431 179 168 180
-0.24940465 -0.0030303563 -0.81852204 185 171 181
-0.24910289 -0.0024970341 -0.81829828 179 168 176
-0.24975583 -0.0040553627 -0.81957328 192 176 188
-0.25000337 -0.0041242936 -0.81881452 197 178 189
-0.25062242 -0.0058410303 -0.82062191 210 186 203
-0.24971586 -0.0035914327 -0.81766587 189 173 180
-0.24994993 -0.0054015042 -0.81699246 188 170 173
-0.25033316 -0.0054733488 -0.81926948 201 180 192
-0.25041109 -0.005479008 -0.81974298 204 182 196
-0.2502071 -0.0096140383 -0.81846642 192 172 181
-0.25060257 -0.0061948905 -0.82051808 209 186 202
-0.25030059 -0.0082132211 -0.81883997 192 168 180
-0.25026941 -0.0090005212 -0.81877577 194 173 183
-0.2501688 -0.0091906525 -0.81812567 185 161 172
-0.25035986 -0.0089050755 -0.81937414 203 185 194
-0.25004509 -0.0075682942 -0.81717074 181 157 165
-0.2499862 -0.008235327 -0.81685734 175 150 159
-0.25000951 -0.0090342518 -0.81706017 172 145 156
-0.25021645 -0.0066644768 -0.81815946 191 169 178
-0.2502383 -0.0068619656 -0.81830871 191 168 178
-0.25032374 -0.0075689298 -0.81888753 191 165 179
-0.25071618 -0.013103255 -0.81891698 151 132 135
-0.25065708 -0.011860297 -0.81954247 180 165 168
-0.25090319 -0.012759879 -0.81827354 167 143 145
-0.25078958 -0.011584681 -0.81909674 192 174 176
-0.2507042 -0.013437457 -0.81886065 142 122 125
-0.25009167 -0.010094434 -0.81699622 169 140 151
-0.25079766 -0.01150653 -0.81874824 192 172 174
-0.25077367 -0.011335346 -0.81895566 196 177 180
-0.2504721 -0.010362831 -0.81900793 199 182 188
-0.25051504 -0.010368425 -0.81928867 204 188 193
-0.2509104 -0.01217825 -0.81806076 179 154 156
-0.25156027 -0.017222071 -0.81902701 190 170 178
-0.25120145 -0.016191255 -0.81961006 170 155 163
-0.25152108 -0.016190829 -0.82069838 190 183 191
-0.25086352 -0.015022934 -0.82050472 153 145 151
-0.25073472 -0.015370563 -0.81945807 144 128 135
-0.25083619 -0.015887845 -0.8180024 146 119 126
-0.25103763 -0.015255675 -0.81726646 153 121 125
-0.25058374 -0.014478588 -0.81917816 133 116 121
-0.25099027 -0.015600058 -0.81741709 151 121 126
-0.25086111 -0.015537204 -0.81794274 146 119 125
-0.25228027 -0.018972464 -0.81857562 199 181 189
-0.25220791 -0.019551056 -0.81768692 195 174 182
-0.25258651 -0.01831501 -0.81982005 204 191 197
-0.25250849 -0.01879151 -0.81916004 202 187 194
-0.2528643 -0.020342449 -0.81805605 205 189 195
-0.25289142 -0.020984316 -0.817375 206 189 195
-0.25366703 -0.021317251 -0.81878906 194 169 174
-0.25435269 -0.021062305 -0.82067597 182 150 154
-0.2529189 -0.019487692 -0.81917363 203 187 193
-0.25357947 -0.021060476 -0.81888348 195 171 176
-0.24835503 -0.020082748 -0.82032293 123 117 124
-0.24866505 -0.021166731 -0.81946337 125 119 125
-0.24883443 -0.021090675 -0.81968951 127 120 126
-0.25120348 -0.017852154 -0.81682587 163 129 137
-0.25164509 -0.01830679 -0.81768167 180 153 162
-0.25401121 -0.025334645 -0.81733114 187 154 159
-0.25437897 -0.024358889 -0.81856835 187 155 160
-0.25434822 -0.023215126 -0.81923258 183 149 154
-0.25472233 -0.022809383 -0.82012331 185 152 157
-0.25520056 -0.023350546 -0.82059801 191 161 167
-0.25440001 -0.025000317 -0.81820226 189 158 163
-0.255164 -0.023370991 -0.82052296 190 160 167
-0.25346693 -0.022540243 -0.81761312 195 170 175
-0.25321215 -0.022603486 -0.81699079 199 176 181
-0.2538932 -0.022981374 -0.81838596 187 156 161
-0.25321084 -0.022840567 -0.8168714 198 175 180
-0.25358227 -0.021990739 -0.8181504 194 169 174
-0.25368738 -0.021653514 -0.81855983 193 167 173
-0.24909908 -0.022084737 -0.82015276 126 121 127
-0.24811913 -0.02224279 -0.81947201 117 113 119
-0.24848303 -0.022130487 -0.8196674 120 116 122
-0.25710088 -0.027818684 -0.82065123 189 155 165
-0.25678518 -0.027401125 -0.82047552 192 161 171
-0.25594741 -0.026778866 -0.81962192 204 178 188
-0.25642529 -0.027832825 -0.81965297 198 169 179
-0.25647298 -0.026664346 -0.82048661 196 166 176
-0.25688145 -0.028824585 -0.81969196 193 161 171
-0.25548309 -0.028504753 -0.8177619 206 183 193
-0.2551122 -0.027473658 -0.8178091 202 176 185
-0.2552875 -0.025674382 -0.81925285 199 171 180
-0.25527123 -0.027456556 -0.81808722 203 178 187
-0.25399703 -0.025814539 -0.81699532 188 156 161
-0.2551637 -0.026612913 -0.81844538 200 174 182
-0.25475129 -0.027774055 -0.81701088 199 173 181
-0.25705442 -0.031701416 -0.81984192 190 160 170
-0.25764564 -0.031225272 -0.82069141 181 147 157
-0.25737265 -0.029670207 -0.820153 186 151 161
-0.25718501 -0.031273421 -0.82000303 188 157 167
-0.25617254 -0.03091481 -0.81827933 188 160 173
-0.2570219 -0.032142017 -0.8198002 187 158 168
-0.25686598 -0.031729702 -0.81954169 191 162 173
-0.25586036 -0.032669365 -0.81747586 150 116 138
-0.25588918 -0.031909134 -0.81761634 164 132 151
-0.25583008 -0.030927803 -0.81760406 180 152 167
-0.25556278 -0.032106087 -0.81694818 159 128 150
-0.25562868 -0.030744702 -0.81725943 183 155 172
-0.25620136 -0.034793809 -0.8169868 161 131 152
-0.25673103 -0.034902699 -0.81797063 174 144 161
-0.2562485 -0.034599107 -0.81723374 160 129 149
-0.2568841 -0.035319325 -0.81798875 181 152 168
-0.25748208 -0.033441916 -0.82041943 182 151 162
-0.25674513 -0.035684347 -0.81747174 180 152 168
-0.2579824 -0.036871776 -0.82019657 174 135 151
-0.25762391 -0.035424449 -0.81983727 181 147 160
-0.25743219 -0.035245333 -0.81934965 184 153 166
-0.25711909 -0.035817727 -0.81812394 190 162 176
-0.25760999 -0.034654513 -0.82017779 181 148 160
-0.24871233 -0.035310581 -0.82058966 147 141 148
-0.24908449 -0.036447261 -0.82023293 121 117 124
-0.24874465 -0.03519379 -0.82068002 150 144 151
-0.25914231 -0.040814321 -0.82030684 190 170 184
-0.25769183 -0.040180456 -0.81797171 189 162 173
-0.25820801 -0.039359905 -0.81941628 183 154 167
-0.25810388 -0.039466105 -0.81915969 184 155 167
-0.25844088 -0.040245432 -0.81933147 188 163 176
-0.2587699 -0.039180532 -0.82057017 181 152 167
-0.2579723 -0.038010191 -0.81974733 176 139 153
-0.25704122 -0.038367789 -0.81682831 194 169 183
-0.25802845 -0.037294183 -0.82015544 174 134 150
-0.25742486 -0.037718091 -0.8181988 186 155 170
-0.25770137 -0.039235797 -0.81852335 184 152 165
-0.25774249 -0.038836736 -0.81878024 182 150 162
-0.24876127 -0.037825454 -0.82037324 97 95 102
-0.25996414 -0.043661062 -0.82047856 202 184 199
-0.25881594 -0.044016924 -0.81853777 195 168 188
-0.25974315 -0.043383084 -0.82027823 197 178 195
-0.25960171 -0.04419202 -0.81975061 198 176 194
-0.25901008 -0.044280689 -0.81875622 196 170 190
-0.2592957 -0.042699937 -0.81981599 194 173 190
-0.25921059 -0.042419571 -0.81979913 193 172 188
-0.25870782 -0.043263528 -0.81866544 193 166 186
-0.25759557 -0.042333506 -0.81690854 194 167 181
-0.25823769 -0.042596631 -0.81802827 193 167 183
-0.25738385 -0.041264337 -0.81683272 194 171 181
-0.2586793 -0.041073062 -0.81930745 192 172 184
-0.25819093 -0.041079305 -0.81839412 193 172 183
-0.25872535 -0.042575136 -0.81894481 192 167 185
-0.26048276 -0.045468152 -0.82070249 215 199 211
-0.26031449 -0.045598254 -0.82047534 211 193 207
-0.25835854 -0.04495085 -0.81746459 196 163 186
-0.25770485 -0.0093505541 -0.83656836 165 136 161
-0.25789142 -0.0095884334 -0.83635026 164 130 160
-0.25961497 -0.0089775203 -0.83664328 138 91 129
-0.25707558 -0.01173888 -0.83840287 146 109 140
-0.25691009 -0.011197621 -0.8371774 167 138 163
-0.2571387 -0.011553496 -0.83752525 158 125 152
-0.25619566 -0.011089164 -0.83953494 144 113 143
-0.25758967 -0.01206123 -0.83754492 150 112 141
-0.25758222 -0.011863198 -0.83689362 160 125 151
-0.25778452 -0.011949016 -0.83641517 164 128 154
-0.25633141 -0.011369363 -0.83997548 135 99 132
-0.25847241 -0.013293864 -0.8383925 120 65 105
-0.25830236 -0.01324156 -0.83886009 115 59 102
-0.2579996 -0.012907305 -0.83887279 121 69 109
-0.25773272 -0.012561103 -0.83870858 129 82 119
-0.259882 -0.028737947 -0.83782232 90 88 90
-0.26018587 -0.027908782 -0.84015554 232 225 229
-0.26027155 -0.029175339 -0.83886701 150 145 147
-0.25988859 -0.028413668 -0.83827013 118 115 118
-0.24462089 -0.017465843 -0.80087668 166 120 151
-0.24436741 -0.018038291 -0.79996783 166 121 145
-0.24483421 -0.018341096 -0.80093336 167 124 151
-0.24822351 -0.037046567 -0.80054438 202 183 189
-0.24419597 0.010655116 -0.8150835 180 157 175
-0.24495088 0.010043967 -0.81534398 181 163 178
-0.24516466 0.010169533 -0.81596971 184 169 180
-0.24458189 0.010239188 -0.81502539 180 159 176
-0.24402852 0.010083036 -0.81379956 175 147 170
-0.24373804 0.0099656135 -0.81321281 172 141 165
-0.24350873 0.011021748 -0.81442988 170 145 160
-0.24295165 0.012072971 -0.81477022 166 145 152
-0.2445565 0.0087635312 -0.81297708 163 134 155
-0.24524558 0.0077159605 -0.81315356 153 126 140
-0.24542087 0.0083597004 -0.81410748 154 121 141
-0.24593616 0.0072191507 -0.81383413 143 113 126
-0.24587682 0.0068836277 -0.81339186 142 115 125
-0.24729639 0.0059323949 -0.81486183 124 88 97
-0.24615225 0.0074189599 -0.81440759 142 108 124
-0.24652267 0.0085223597 -0.81630599 164 144 152
-0.24629928 0.0079274476 -0.81521606 149 117 132
-0.24582635 0.0092867985 -0.81589568 175 159 169
-0.24631035 0.0076099671 -0.81487441 142 105 123
-0.24468796 0.0094566699 -0.81399328 171 143 165
-0.24612513 0.0078377919 -0.81479323 145 110 128
-0.24661 0.0086800372 -0.81663495 167 151 157
-0.24675041 0.0084498255 -0.81662196 163 144 151
-0.24387169 0.0096810823 -0.81292957 171 140 165
-0.24828456 0.0041865287 -0.81655246 125 86 103
-0.24813452 0.0036399022 -0.81580496 122 85 98
-0.24819474 0.0025770627 -0.81579214 125 91 105
-0.24827249 0.0028023792 -0.81637156 127 91 109
-0.24794456 0.0028600239 -0.81469578 120 88 94
-0.24768019 0.0021348034 -0.81375283 121 94 94
-0.24665909 0.0052263611 -0.81336701 130 103 106
-0.24684156 0.0038285584 -0.81295741 127 103 102
-0.24701336 0.0051009245 -0.81390995 126 96 100
-0.24708566 0.0057950681 -0.81439275 125 93 99
-0.2473015 0.0043504885 -0.81401634 123 92 95
-0.24821828 0.00048507116 -0.81352007 121 92 93
-0.24814186 0.00047248992 -0.81294739 118 90 87
-0.24846688 -2.3052329e-05 -0.81441784 128 95 104
-0.24844928 0.00053221639 -0.81511366 129 95 109
-0.24840167 0.00043124484 -0.81466353 127 94 105
-0.24870695 -0.0013620229 -0.8140139 136 105 111
-0.24883389 -0.0016757451 -0.81438524 145 118 123
-0.24845853 0.0011003532 -0.81600094 132 97 116
-0.24885814 -0.0008165742 -0.81580549 154 129 139
-0.24884897 -0.0011567791 -0.81524605 150 125 133
-0.24784847 0.0019190237 -0.81405902 121 93 96
-0.24922422 -0.0033380678 -0.81571776 175 164 167
-0.24918187 -0.0034957493 -0.81546003 173 162 165
-0.24920054 -0.0036748424 -0.81540543 173 162 164
-0.2495192 -0.0042099142 -0.81618005 180 166 169
-0.24972418 -0.005394958 -0.8161093 181 166 167
-0.24919109 -0.0037464506 -0.81532323 173 162 164
-0.24895582 -0.0024338537 -0.81458205 154 134 137
-0.2488852 -0.0030935728 -0.8138513 149 129 131
-0.24904007 -0.003694501 -0.81462228 164 152 153
-0.24910109 -0.0031216303 -0.81525487 169 156 159
-0.24921447 -0.0023696716 -0.81630319 178 166 170
-0.24988425 -0.0065095462 -0.81628591 186 169 171
-0.24997213 -0.0084170057 -0.8167876 174 149 157
-0.24971591 -0.0077553717 -0.81559175 183 165 169
-0.24965967 -0.007733522 -0.81533611 185 168 171
-0.24959104 -0.0087030651 -0.81507826 181 162 167
-0.24921979 -0.0063084532 -0.81392008 168 157 157
-0.24904114 -0.0073966458 -0.81309909 170 159 160
-0.24941596 -0.007932405 -0.81434566 183 170 172
-0.24938539 -0.0080715939 -0.81421304 183 170 172
-0.24913019 -0.0081476076 -0.81328988 177 165 167
-0.24969569 -0.0062338668 -0.81563038 181 166 167
-0.25007474 -0.012997098 -0.81445843 168 138 144
-0.25053456 -0.013245123 -0.81543678 163 131 135
-0.25040022 -0.011644641 -0.81639862 163 132 139
-0.25042066 -0.013330584 -0.81507444 164 133 137
-0.25067085 -0.01278278 -0.8161642 161 128 133
-0.24995944 -0.011325758 -0.81552708 168 139 148
-0.24984995 -0.011130646 -0.81538451 169 141 150
-0.24962354 -0.011027892 -0.81442934 174 150 157
-0.24974431 -0.011280936 -0.81480473 171 145 153
-0.24966803 -0.010737748 -0.81482702 173 149 157
-0.24954762 -0.012750629 -0.81291986 175 152 156
-0.2506794 -0.017340332 -0.81455892 159 122 120
-0.25060341 -0.016748201 -0.81405818 158 121 116
-0.25091466 -0.015036564 -0.81547058 157 121 119
-0.25100988 -0.01616887 -0.81615847 158 122 125
-0.25108349 -0.017455118 -0.81675392 159 123 131
-0.25038901 -0.014301926 -0.81443107 164 132 133
-0.25056526 -0.016506769 -0.81389219 158 122 115
-0.24991901 -0.014255659 -0.81324494 169 140 142
-0.25076357 -0.015626755 -0.81479722 157 121 117
-0.25059783 -0.013982129 -0.81511116 162 129 131
-0.2504459 -0.015420631 -0.8140741 161 127 125
-0.25234881 -0.021046752 -0.81611729 197 175 183
-0.25198132 -0.01990447 -0.81673372 188 163 172
-0.25160837 -0.021384489 -0.81386197 182 155 163
-0.25188649 -0.019960942 -0.8164174 186 160 169
-0.25148043 -0.020696178 -0.81435764 177 148 156
-0.25156194 -0.018858558 -0.81672651 175 145 154
-0.25084955 -0.019567199 -0.81295806 166 133 133
-0.25107986 -0.019818313 -0.81387651 167 135 140
-0.25108001 -0.018020377 -0.81618589 161 126 133
-0.25109151 -0.018143056 -0.81609035 161 126 134
-0.25098598 -0.018044248 -0.81564867 161 126 131
-0.25072041 -0.018097388 -0.81414974 161 125 124
-0.25196952 -0.02335576 -0.81327289 173 124 151
-0.25209984 -0.021669054 -0.81486207 192 167 177
-0.25261354 -0.022170093 -0.81567067 196 168 182
-0.25216946 -0.022529811 -0.81440192 186 150 169
-0.25281182 -0.024256658 -0.81480867 181 133 160
-0.25329471 -0.023992481 -0.81641626 191 159 168
-0.25316527 -0.023292152 -0.81647182 195 167 175
-0.2528967 -0.024573803 -0.81486177 180 130 157
-0.25283769 -0.024544092 -0.81470448 179 128 156
-0.25272438 -0.023611516 -0.81495476 186 141 167
-0.25187331 -0.02209685 -0.81397802 183 150 165
-0.25156412 -0.021775074 -0.81339383 178 147 158
-0.25372306 -0.027669284 -0.81517917 184 151 154
-0.25420207 -0.028399846 -0.8155573 191 162 167
-0.25377363 -0.027667625 -0.81527537 185 152 156
-0.25405636 -0.027472461 -0.81594598 189 158 163
-0.25403193 -0.027899938 -0.81559467 189 158 163
-0.25505525 -0.029237468 -0.81656188 204 181 190
-0.25361386 -0.02558006 -0.81638306 183 147 153
-0.25312442 -0.02554951 -0.81493926 176 125 148
-0.25280726 -0.027564341 -0.81289232 171 118 139
-0.25313917 -0.028640615 -0.81329483 175 136 140
-0.25352186 -0.026392249 -0.81566489 181 145 150
-0.25340053 -0.027053501 -0.81494164 179 142 147
-0.25389326 -0.032555155 -0.81354856 206 189 196
-0.25470409 -0.031646702 -0.81534928 191 168 181
-0.25426802 -0.031909119 -0.8144238 202 183 192
-0.25481394 -0.032849245 -0.81534177 171 144 162
-0.25465357 -0.030929826 -0.81538379 203 182 192
-0.25428262 -0.031746276 -0.814484 204 185 194
-0.25369155 -0.031345926 -0.8134616 196 172 177
-0.25399956 -0.031896774 -0.81390697 204 185 192
-0.25377041 -0.031850234 -0.81348771 200 179 185
-0.25359151 -0.031051626 -0.81334484 193 167 171
-0.25399342 -0.030803166 -0.81416005 197 173 179
-0.25378814 -0.030320967 -0.81389105 191 163 168
-0.25600007 -0.034807041 -0.81663829 161 132 153
-0.25615048 -0.036833573 -0.81595063 194 174 184
-0.25564292 -0.035225932 -0.81591171 170 144 161
-0.25487709 -0.03671287 -0.81398803 199 180 185
-0.2558465 -0.036081437 -0.81587744 183 162 174
-0.25576437 -0.033780225 -0.81678188 146 114 139
-0.25472981 -0.033272978 -0.8150807 169 143 161
-0.25498807 -0.033430252 -0.81554312 161 133 153
-0.25485563 -0.03387475 -0.81511831 169 142 159
-0.25507647 -0.034082826 -0.8154875 162 134 153
-0.25495797 -0.033396099 -0.81549489 162 134 154
-0.25513232 -0.034183592 -0.81556362 161 132 152
-0.25677994 -0.037985373 -0.81652498 196 172 185
-0.25695622 -0.038926385 -0.81661868 195 172 183
-0.25713271 -0.040885173 -0.81642956 195 172 182
-0.25615188 -0.039378472 -0.8149749 199 177 187
-0.25598273 -0.037777402 -0.8153944 199 182 189
-0.25606701 -0.03859343 -0.81517625 199 179 188
-0.25593603 -0.037999406 -0.81517839 199 181 189
-0.2558279 -0.040796205 -0.81356019 200 171 188
-0.25533167 -0.039133344 -0.8135938 201 178 188
-0.2551913 -0.038532134 -0.81365061 203 181 189
-0.25523937 -0.03742028 -0.81426793 203 186 191
-0.25506261 -0.038060948 -0.81366408 204 184 190
-0.255144 -0.039147153 -0.81327468 202 179 189
-0.25650766 -0.04194982 -0.81480098 198 175 187
-0.25642473 -0.043290935 -0.81439 198 180 192
-0.25681067 -0.041119456 -0.81562191 196 172 183
-0.25606081 -0.043349497 -0.81356108 199 180 194
-0.2561855 -0.041082785 -0.81422085 198 171 186
-0.25765502 -0.044738065 -0.81629598 195 163 185
-0.25703573 -0.043960404 -0.81536222 197 172 188
-0.25735226 -0.044222195 -0.81588042 196 167 186
-0.25685862 -0.043081451 -0.81529337 197 175 188
-0.25662684 -0.043479957 -0.81473571 198 178 191
-0.2572045 -0.042626925 -0.81608331 196 171 184
-0.25569451 -0.041160312 -0.81322575 200 171 187
-0.25706115 -0.045915488 -0.81490576 203 178 196
-0.25737861 -0.045276951 -0.81564236 198 169 189
-0.24840143 0.0059701912 -0.82920903 147 131 138
-0.26567641 -0.016579805 -0.83192092 167 122 128
-0.26434621 -0.017100932 -0.83226061 184 146 165
-0.26551494 -0.016933089 -0.83190393 169 125 133
-0.26498398 -0.016918223 -0.8320843 176 134 147
-0.26619828 -0.016439753 -0.83177477 160 112 114
-0.25640401 -0.017537931 -0.83171099 225 213 219
-0.2648313 -0.018924408 -0.83198935 177 135 153
-0.26429281 -0.021309182 -0.83200818 200 172 180
-0.26429737 -0.020515228 -0.83205104 196 165 176
-0.26488513 -0.018887458 -0.83197623 176 134 151
-0.26511693 -0.0196801 -0.8318671 176 134 147
-0.26323363 -0.021112842 -0.83233935 204 178 189
-0.25671139 -0.017623013 -0.83191252 217 203 209
-0.26521537 -0.024434065 -0.83154279 171 132 138
-0.26425302 -0.024833042 -0.83133757 178 150 156
-0.26547816 -0.024594909 -0.8315267 166 125 130
-0.26407751 -0.02216333 -0.83203304 202 178 184
-0.26495746 -0.022311293 -0.83190775 187 153 159
-0.26636839 -0.02270882 -0.83155739 160 111 115
-0.2601077 -0.023293464 -0.83180672 171 125 146
-0.25997862 -0.025073113 -0.82998049 180 143 152
-0.26120842 -0.022296822 -0.83235353 181 141 159
-0.25995255 -0.023928897 -0.83120513 172 129 147
-0.26183277 -0.02265374 -0.83168644 192 160 171
-0.26158348 -0.023145519 -0.83128113 191 160 170
-0.26341465 -0.024151741 -0.8313688 190 168 175
-0.26189259 -0.023695111 -0.83095032 193 165 173
-0.26060244 -0.025193604 -0.83009177 180 147 155
-0.26261964 -0.025176791 -0.83081257 181 155 163
-0.2630747 -0.023055751 -0.83154088 199 176 183
-0.26256791 -0.024544295 -0.83096325 186 161 168
-0.2649017 -0.027765939 -0.83140546 169 123 144
-0.26390123 -0.028801842 -0.83105671 181 128 163
-0.26474321 -0.026467226 -0.83141124 169 135 146
-0.26405695 -0.028437989 -0.83111942 179 129 160
-0.26554117 -0.027646903 -0.83160573 162 115 132
-0.26612115 -0.028790882 -0.83173513 157 98 123
-0.26710454 -0.026592042 -0.83167422 144 83 93
-0.26581272 -0.0257247 -0.83140206 156 111 118
-0.26726374 -0.028976792 -0.83207518 145 81 102
-0.26657754 -0.026477464 -0.8316018 149 95 104
-0.26573604 -0.025642889 -0.83138102 157 113 119
-0.25981113 -0.025719775 -0.82919818 170 129 139
-0.25991198 -0.025677495 -0.82959217 176 137 149
-0.26239592 -0.028505776 -0.82999682 177 124 159
-0.26174834 -0.027867215 -0.82978326 176 126 156
-0.26267213 -0.028659841 -0.83022678 178 125 161
-0.2605018 -0.026163373 -0.82992965 179 138 154
-0.26307303 -0.029250273 -0.83012986 177 120 162
-0.26119679 -0.025702391 -0.83023709 179 145 156
-0.26338181 -0.026324723 -0.83098698 180 149 164
-0.26255247 -0.026781062 -0.83067346 181 142 162
-0.26279056 -0.026094336 -0.83078665 180 148 162
-0.26228407 -0.026885793 -0.83057374 181 140 161
-0.26208079 -0.027189804 -0.83048886 181 137 160
-0.26400802 -0.030230241 -0.83090043 183 137 164
-0.26416302 -0.031662829 -0.83068955 186 155 165
-0.2637119 -0.03123715 -0.83062851 189 155 172
-0.26618177 -0.029567182 -0.83168381 158 97 123
-0.26648369 -0.029705424 -0.83175111 155 95 118
-0.26418743 -0.030273419 -0.83094746 181 135 161
-0.26322302 -0.031488489 -0.82989168 192 161 174
-0.26342729 -0.030703077 -0.83034235 189 149 172
-0.26343954 -0.030784694 -0.83034623 189 150 172
-0.26316905 -0.030409103 -0.83000904 186 142 170
-0.26255247 -0.030103929 -0.82914913 176 128 162
-0.26257679 -0.030535728 -0.82910424 180 137 165
-0.26255837 -0.031380132 -0.82891828 187 153 170
-0.26379329 -0.033253811 -0.83034343 194 181 176
-0.26277328 -0.036425862 -0.82889438 195 184 197
-0.26337314 -0.034774564 -0.82975566 197 187 189
-0.26360521 -0.034629971 -0.83003783 199 190 189
-0.26284108 -0.033748183 -0.82900733 198 187 183
-0.2632795 -0.034009784 -0.82967186 196 185 183
-0.26272434 -0.035598971 -0.82883936 196 184 192
-0.26373219 -0.038727533 -0.82945168 205 169 206
-0.26360491 -0.039929248 -0.82893068 204 143 204
-0.26327521 -0.037618365 -0.82924652 203 185 206
-0.26352447 -0.037841756 -0.82946557 206 185 207
-0.26327354 -0.039603785 -0.82863885 201 144 203
-0.24298272 0.0049016206 -0.8041479 131 102 108
-0.24354506 0.003348287 -0.80456769 134 102 103
-0.24317384 0.0043231575 -0.80426353 132 102 106
-0.2433279 0.0039942595 -0.80443031 132 102 104
-0.2455207 -0.017372988 -0.80275667 161 117 146
-0.24608421 -0.016957739 -0.80397749 158 119 140
-0.24535841 -0.017161246 -0.80247903 162 119 146
-0.24593632 -0.017432049 -0.80357563 158 116 143
-0.24641481 -0.015859591 -0.8048842 158 123 136
-0.24544802 -0.017257301 -0.80263698 162 118 146
-0.24476239 -0.017437987 -0.80121648 166 119 152
-0.24494688 -0.015933031 -0.80185288 174 138 158
-0.24576539 -0.014645983 -0.80383325 166 134 141
-0.2465871 -0.019281624 -0.80414027 160 124 140
-0.24650095 -0.020570703 -0.80343431 166 132 142
-0.2466802 -0.020713303 -0.80378997 165 129 139
-0.24649824 -0.01841902 -0.80427611 158 122 141
-0.24671078 -0.019201662 -0.804456 159 122 138
-0.24672471 -0.01865001 -0.80470538 157 119 137
-0.24531254 -0.017712697 -0.80223066 163 118 148
-0.24534066 -0.017784463 -0.80225307 163 118 148
-0.24622019 -0.018162409 -0.80383551 159 120 143
-0.24567944 -0.019220099 -0.8022536 166 131 150
-0.24639738 -0.018564239 -0.80400062 159 124 143
-0.24565722 -0.019599909 -0.80202985 168 134 151
-0.24734932 -0.021648394 -0.80497098 162 122 129
-0.24778482 -0.023345204 -0.80483836 168 137 146
-0.24771908 -0.02288416 -0.80494958 166 133 141
-0.24688016 -0.022644954 -0.80381936 168 135 143
-0.24714509 -0.022011414 -0.804497 165 127 134
-0.24922904 -0.036716789 -0.80257124 201 184 186
-0.24995276 -0.035917893 -0.80438912 201 185 187
-0.25013834 -0.035638615 -0.80489659 201 186 187
-0.24900235 -0.036621135 -0.80219364 202 185 188
-0.24955957 -0.036782797 -0.80316257 199 183 184
-0.25004023 -0.038626496 -0.80368483 201 183 183
-0.2488606 -0.037965108 -0.80154806 203 186 189
-0.24939661 -0.038043752 -0.80255663 202 185 186
-0.2498543 -0.038143821 -0.80341381 201 184 184
-0.25012937 -0.037873793 -0.80396974 199 183 181
-0.24985181 -0.038281277 -0.80339205 201 184 184
-0.24571966 0.010544691 -0.82137156 158 148 147
-0.24615656 0.010157299 -0.8211956 169 161 162
-0.24549805 0.010394852 -0.82221323 118 112 113
-0.24554616 0.010724845 -0.82138437 156 145 144
-0.24512418 0.011064661 -0.82162893 141 130 126
-0.2452883 0.01067322 -0.82209706 122 114 113
-0.24558428 0.0099681811 -0.82405341 86 82 85
-0.24598581 0.0098430496 -0.8232615 119 114 117
-0.24806161 0.0069524101 -0.82131326 170 156 162
-0.24854009 0.0059717968 -0.82277238 165 151 153
-0.24626862 0.0096292906 -0.82303613 137 131 134
-0.24615666 0.0092811761 -0.824543 106 103 105
-0.24745402 0.0079904366 -0.82303667 188 183 185
-0.24721879 0.0084840162 -0.82253212 186 180 183
-0.24713713 0.0086288732 -0.82243633 184 178 181
-0.24726409 0.0086185625 -0.82117236 187 177 181
-0.2475991 0.0078192698 -0.82220566 185 176 180
-0.24722959 0.0087115597 -0.82096165 187 176 181
-0.24790321 0.0071352343 -0.82273793 181 173 176
-0.24771886 0.0074791596 -0.82310623 186 181 183
-0.24818033 0.002911506 -0.82209384 136 129 124
-0.24810165 0.0026155412 -0.82194799 135 128 124
-0.24839704 0.0042210855 -0.82317555 151 145 139
-0.24823785 0.0023111461 -0.82095617 116 105 101
-0.24829943 0.0028960463 -0.82102007 123 110 107
-0.24842153 0.004096861 -0.82071733 134 115 118
-0.24862123 0.0056935269 -0.82405537 167 161 155
-0.24836746 0.003542159 -0.82109064 130 115 115
-0.25234047 -0.017220447 -0.82183981 193 182 190
-0.25216159 -0.017069893 -0.82187551 195 185 193
-0.25261545 -0.017011175 -0.82447034 176 166 171
-0.25301671 -0.017405046 -0.82342339 193 183 186
-0.2525503 -0.017095424 -0.82364643 181 170 176
-0.25455761 -0.021086885 -0.82145655 185 155 159
-0.25420687 -0.019182783 -0.82389331 200 184 187
-0.25505438 -0.020898584 -0.82403511 210 194 201
-0.25448844 -0.020381832 -0.82262588 193 170 174
-0.25390491 -0.018657755 -0.82366252 195 178 179
-0.25379094 -0.01820226 -0.82411337 197 183 183
-0.25327745 -0.017946528 -0.82256806 199 186 189
-0.25338155 -0.017779954 -0.8233124 199 188 189
-0.25328052 -0.017922442 -0.82262808 199 187 189
-0.25426427 -0.020344799 -0.82172918 185 157 160
-0.25360933 -0.017878627 -0.82402158 197 185 185
-0.25434783 -0.020725254 -0.82130611 183 153 157
-0.25590912 -0.023652898 -0.82316029 213 195 205
-0.25647616 -0.025340235 -0.8219592 200 174 185
-0.25641057 -0.025125157 -0.82212996 201 177 187
-0.2563577 -0.025312668 -0.82159173 201 175 185
-0.25607425 -0.023550045 -0.82389063 213 196 207
-0.25481987 -0.021609178 -0.82160932 189 159 164
-0.25486261 -0.021631727 -0.82176638 190 161 167
-0.25577211 -0.022875901 -0.82398748 215 200 209
-0.25511268 -0.022271685 -0.82189107 194 167 173
-0.25581962 -0.023504836 -0.8231042 212 194 203
-0.25510764 -0.022865133 -0.82081848 189 159 165
-0.25584939 -0.022783877 -0.82452083 219 206 216
-0.25580567 -0.023587584 -0.82289124 211 192 201
-0.25757331 -0.027134359 -0.82312357 187 155 169
-0.2584894 -0.028713791 -0.82347429 172 124 154
-0.25764114 -0.027203392 -0.82321429 186 153 169
-0.25778452 -0.02858961 -0.82172894 181 144 158
-0.25755915 -0.027221471 -0.82296729 187 155 169
-0.25768074 -0.028048167 -0.82217938 184 149 162
-0.25652951 -0.025616745 -0.82172334 198 172 182
-0.2571016 -0.026507119 -0.82244813 192 164 175
-0.25738761 -0.028310688 -0.82082832 186 150 161
-0.25704288 -0.027188102 -0.8212468 191 159 170
-0.25681823 -0.025964415 -0.82223767 196 168 179
-0.25659293 -0.025987264 -0.82140708 197 169 179
-0.2587648 -0.032577254 -0.82418275 192 162 187
-0.25796834 -0.032226793 -0.82170975 177 139 158
-0.25825933 -0.031681262 -0.82243496 175 133 158
-0.25885469 -0.031451393 -0.8241533 181 140 172
-0.25833759 -0.031370051 -0.82258648 172 128 155
-0.25792417 -0.032094218 -0.8215673 177 139 157
-0.2576873 -0.031715598 -0.82086813 180 146 157
-0.25760064 -0.032704316 -0.82077986 181 149 159
-0.25819218 -0.030763704 -0.82209694 174 131 154
-0.25864515 -0.029672718 -0.82316422 169 118 150
-0.25857231 -0.029751917 -0.82297826 170 120 151
-0.25990766 -0.035167683 -0.82456529 169 137 169
-0.2606225 -0.036839645 -0.82448727 151 114 149
-0.25935948 -0.036830273 -0.82289928 154 113 137
-0.25852385 -0.037029646 -0.82132989 166 124 142
-0.25969633 -0.035235632 -0.82426471 169 136 165
-0.25868368 -0.034939889 -0.82304025 186 154 175
-0.25882569 -0.03590513 -0.82248253 174 138 160
-0.2594026 -0.034690082 -0.82419235 179 148 176
-0.25846171 -0.033737194 -0.82317901 192 164 183
-0.25850761 -0.034664575 -0.82285851 188 157 176
-0.2582919 -0.034116097 -0.82248455 188 157 175
-0.2583158 -0.035285644 -0.82197881 182 147 165
-0.25775445 -0.033984948 -0.82094306 180 148 160
-0.25780952 -0.033783242 -0.82120717 182 151 163
-0.26094988 -0.038365852 -0.82428938 157 119 150
-0.26084548 -0.038907055 -0.82400936 160 121 148
-0.26111472 -0.040937584 -0.82323492 183 155 178
-0.26134881 -0.040087074 -0.82406461 171 136 163
-0.2617839 -0.040693287 -0.82434738 176 142 170
-0.25984889 -0.039373346 -0.82229733 170 142 162
-0.26141098 -0.040145256 -0.82412142 172 136 164
-0.26003078 -0.039620519 -0.82241917 172 144 164
-0.2597326 -0.038193565 -0.82280576 157 121 144
-0.25839666 -0.037549671 -0.82082313 172 132 149
-0.25858003 -0.037119083 -0.82138497 164 122 140
-0.25902802 -0.038351871 -0.82149154 169 135 153
-0.25907987 -0.038930766 -0.8212623 174 144 161
-0.25917205 -0.037853803 -0.82202142 161 124 144
-0.26006278 -0.043373432 -0.82071793 204 188 201
-0.26137313 -0.042462062 -0.82298678 193 166 188
-0.26109672 -0.042517077 -0.82256329 195 170 190
-0.26041967 -0.042777106 -0.82147604 200 181 197
-0.26076528 -0.043878131 -0.82153767 206 187 203
-0.26129732 -0.041679606 -0.8231895 187 160 183
-0.26139626 -0.042637657 -0.82295007 194 167 189
-0.26116452 -0.044617213 -0.82249826 212 194 205
-0.26078528 -0.044556662 -0.82148403 212 195 207
-0.26193938 -0.043003652 -0.82439941 197 170 187
-0.26165619 -0.042503797 -0.82359707 192 165 186
-0.26071376 -0.046520345 -0.82128966 213 195 206
-0.26078406 -0.045710832 -0.82149696 214 197 208
-0.26112258 -0.045825433 -0.82239419 214 196 205
-0.26137131 -0.046354614 -0.82304215 213 193 201
-0.2609669 -0.046162952 -0.82197177 213 195 205
-0.26106316 -0.045943964 -0.8222332 214 196 205
-0.25919047 -0.0096459361 -0.83631426 145 96 135
-0.26407009 -0.010004832 -0.83479279 181 139 149
-0.26368105 -0.012093761 -0.83414841 178 132 147
-0.26469117 -0.010730105 -0.8342334 169 123 129
-0.26010635 -0.010243716 -0.83596563 139 83 124
-0.26128027 -0.011825891 -0.83494735 151 97 128
-0.26302284 -0.013422163 -0.83379757 167 116 135
-0.2622596 -0.01312098 -0.83410984 161 109 131
-0.26318955 -0.013211358 -0.83386236 168 116 136
-0.26286113 -0.013442439 -0.83382332 166 115 134
-0.26263773 -0.010406328 -0.83513212 171 125 147
-0.26028329 -0.0097662434 -0.83611 142 88 128
-0.26304075 -0.011750454 -0.83448178 171 123 143
-0.26193359 -0.011278385 -0.8350085 159 107 135
-0.26082116 -0.010431486 -0.83568358 147 93 129
-0.26266387 -0.010630995 -0.83503616 171 124 146
-0.25765476 -0.011606699 -0.83559823 173 142 162
-0.25860384 -0.012559157 -0.83515769 159 119 142
-0.25881505 -0.012892093 -0.83557153 152 109 135
-0.25757471 -0.011485319 -0.83546287 175 145 164
-0.25783968 -0.010747424 -0.83579963 169 135 160
-0.25877067 -0.011498128 -0.83543801 156 113 141
-0.25766057 -0.010184962 -0.83607018 170 137 164
-0.25698337 -0.010201634 -0.83606267 181 156 178
-0.25900695 -0.012103535 -0.83514667 153 109 135
-0.25871024 -0.0099222958 -0.83619565 153 108 143
-0.26397455 -0.014374752 -0.83319712 173 124 140
-0.26472944 -0.014538203 -0.83282036 166 116 126
-0.26422414 -0.015943641 -0.83262825 179 136 153
-0.2644746 -0.015576529 -0.83262682 174 130 144
-0.26348034 -0.017481452 -0.83248246 191 156 180
-0.26333335 -0.014255842 -0.8334778 172 124 140
-0.26290175 -0.017307317 -0.83272803 184 150 170
-0.26267415 -0.016685884 -0.83298695 179 142 160
-0.26320222 -0.016924173 -0.83273935 185 149 170
-0.26220632 -0.016574968 -0.83317691 174 138 153
-0.2613776 -0.016461644 -0.83348906 165 130 140
-0.25984579 -0.016831329 -0.83381802 154 123 130
-0.26079389 -0.016303457 -0.83370298 159 125 133
-0.26151818 -0.013892561 -0.8339687 158 109 128
-0.26057321 -0.016745279 -0.8336736 159 127 133
-0.26197064 -0.014242711 -0.83380777 162 115 131
-0.26164266 -0.014102787 -0.83390439 159 111 129
-0.25966302 -0.014933797 -0.83465493 146 103 123
-0.25964358 -0.014084999 -0.83489597 144 95 120
-0.25964978 -0.015940022 -0.83454007 149 111 127
-0.25837395 -0.015618635 -0.83612651 176 144 163
-0.25943419 -0.0160276 -0.83490288 152 116 132
-0.25841597 -0.016750323 -0.83543813 183 159 169
-0.2588717 -0.015228291 -0.83588612 161 123 145
-0.25912982 -0.016171964 -0.83510399 161 128 143
-0.25688857 -0.017371694 -0.8325786 214 199 205
-0.26089543 -0.01951354 -0.83308923 167 125 144
-0.26186755 -0.018059557 -0.83293945 176 141 159
-0.26226336 -0.018032329 -0.83280981 180 145 165
-0.26172385 -0.019078745 -0.83286381 175 134 156
-0.26084217 -0.019881217 -0.83306241 167 122 143
-0.26090682 -0.019037936 -0.83314317 167 128 145
-0.26098734 -0.020856025 -0.83294386 171 126 146
-0.26182011 -0.020671535 -0.83273888 182 143 161
-0.26247329 -0.021373719 -0.83254153 194 163 175
-0.26050708 -0.021350583 -0.8330453 166 119 139
-0.26111957 -0.021524899 -0.83285892 176 134 151
-0.24318117 0.010325247 -0.81144619 161 136 154
-0.24243774 0.011644454 -0.81156003 166 148 158
-0.24339974 0.0099470019 -0.81144691 160 133 153
-0.24266556 0.011279412 -0.81166452 166 146 158
-0.24358401 0.0099742338 -0.81267744 170 140 163
-0.24414717 0.0086639822 -0.81025845 144 117 142
-0.24459761 0.0069614532 -0.80945128 145 118 145
-0.24421515 0.008765107 -0.81142116 157 128 154
-0.2456461 0.0067432085 -0.81278384 144 118 127
-0.24510248 0.0061554695 -0.81012642 146 119 141
-0.24523565 0.0065072998 -0.81113803 146 120 138
-0.2446451 0.0070594293 -0.81031716 154 126 152
-0.24469735 0.0083440691 -0.81270349 160 130 151
-0.24371029 0.0096272109 -0.81172794 161 132 155
-0.24408849 0.0088343471 -0.81053597 147 120 145
-0.24639803 0.0019843054 -0.81115359 142 119 118
-0.24629034 0.002505488 -0.81124288 143 120 120
-0.24693349 0.0019571998 -0.81210738 131 107 104
-0.24570201 0.0037307399 -0.81084651 151 129 132
-0.24634539 0.0020313654 -0.81108403 143 120 120
-0.24535134 0.0024470615 -0.80951256 163 142 145
-0.24551687 0.0040766578 -0.81042868 152 128 136
-0.24568592 0.0042781089 -0.8109867 149 126 131
-0.24529694 0.0035071473 -0.80962825 157 134 143
-0.24539496 0.0049425624 -0.8102712 147 123 137
-0.2455897 0.0048565422 -0.81083691 146 122 132
-0.24509783 0.0044005779 -0.80924481 154 129 146
-0.24805944 -0.0014657821 -0.81190693 126 95 100
-0.24787517 -0.0016532943 -0.8114723 129 98 105
-0.24797903 -0.00060102018 -0.81212598 123 94 96
-0.24777424 -0.00033064949 -0.81185049 125 95 98
-0.24731874 0.0014180494 -0.81241745 124 99 97
-0.24711311 0.00050503487 -0.8114593 130 103 106
-0.24714254 0.0017089749 -0.81232095 127 102 100
-0.24689637 0.0017935929 -0.81193197 132 108 106
-0.24654008 0.0019319651 -0.81137949 139 116 115
-0.24629566 0.0017940829 -0.81084567 145 122 122
-0.24706201 0.001940568 -0.81232929 128 104 101
-0.2486307 -0.0021425267 -0.81279474 129 97 100
-0.2482781 -0.0026592168 -0.81203973 133 106 111
-0.24862361 -0.0055337776 -0.81237859 151 138 137
-0.24871072 -0.0053283703 -0.81256825 151 139 139
-0.24833345 -0.0057479958 -0.81179905 147 131 131
-0.24771689 -0.0041940273 -0.81078434 135 107 111
-0.24863778 -0.0072418703 -0.81224418 161 148 149
-0.24833845 -0.0061839414 -0.81176674 149 134 134
-0.24813916 -0.007068336 -0.81117952 160 144 146
-0.24828532 -0.0093853176 -0.81099278 193 183 188
-0.24826244 -0.0090611754 -0.81101286 189 177 182
-0.24874775 -0.0086343223 -0.81230497 174 160 162
-0.24784434 -0.0072441678 -0.81049591 165 149 152
-0.24789134 -0.0076677008 -0.81049263 171 157 160
-0.24724336 -0.008491341 -0.80901182 184 167 172
-0.24786565 -0.0066415742 -0.81068754 155 137 139
-0.24893777 -0.010942999 -0.81207293 187 172 177
-0.24872611 -0.010585286 -0.81168461 191 177 183
-0.24842487 -0.010222685 -0.81107807 197 185 191
-0.24854235 -0.010340064 -0.81132346 195 182 188
-0.24838276 -0.011637688 -0.8106212 185 163 169
-0.24806207 -0.012700934 -0.80972797 169 137 140
-0.24915074 -0.012736314 -0.81198859 179 155 160
-0.24924843 -0.013628071 -0.81200331 169 139 143
-0.24868247 -0.011936697 -0.81118226 184 163 168
-0.24792637 -0.010370754 -0.80996877 196 182 188
-0.2477909 -0.012500008 -0.80933273 170 139 141
-0.24830861 -0.015290882 -0.80915082 165 134 137
-0.24879889 -0.01657947 -0.80945647 178 157 162
-0.24911323 -0.013694377 -0.81169999 167 136 140
-0.24848463 -0.015193867 -0.80956471 168 139 143
-0.24906616 -0.014807481 -0.81098902 172 145 150
-0.24893372 -0.015164052 -0.81051677 172 146 151
-0.24887902 -0.017010625 -0.80938607 180 162 168
-0.24999097 -0.015808955 -0.8127318 166 134 132
-0.24988601 -0.015787905 -0.81247258 167 137 136
-0.2499591 -0.017370798 -0.81195045 165 134 129
-0.24985908 -0.01514678 -0.81269103 168 139 139
-0.25012925 -0.016312314 -0.81286007 163 130 125
-0.25044709 -0.020478752 -0.81163025 166 131 133
-0.25046393 -0.019194998 -0.81230044 163 127 125
-0.25024956 -0.020201815 -0.81135726 165 128 129
-0.25058359 -0.0206079 -0.81184971 167 133 136
-0.25094494 -0.020987974 -0.81241179 170 139 143
-0.25026163 -0.020117169 -0.81142408 164 127 128
-0.24897048 -0.018159725 -0.80910856 179 158 164
-0.24921381 -0.018180409 -0.80972338 175 151 154
-0.24936287 -0.020937847 -0.80906427 166 126 132
-0.24925885 -0.019599883 -0.80930299 171 139 144
-0.24990112 -0.018716674 -0.81127954 163 127 124
-0.25020152 -0.017714242 -0.81242651 161 125 118
-0.25223652 -0.025240039 -0.81268537 167 99 143
-0.25136974 -0.024694847 -0.81147122 175 127 153
-0.25163758 -0.024260139 -0.81213337 172 121 149
-0.25107521 -0.02339207 -0.81158972 177 142 156
-0.25154704 -0.023409272 -0.81238669 172 127 149
-0.25055975 -0.024801906 -0.81002438 183 152 165
-0.25097537 -0.022596374 -0.81180626 177 149 157
-0.2501539 -0.022071725 -0.81030375 170 135 142
-0.2508992 -0.021511503 -0.81206113 172 140 147
-0.25045791 -0.022809468 -0.81065804 176 145 153
-0.25010341 -0.024663415 -0.80922675 184 157 165
-0.25024402 -0.022280602 -0.81041247 172 138 145
-0.25090322 -0.022282494 -0.81178021 176 146 154
-0.25281063 -0.028138855 -0.81272984 173 127 140
-0.25244063 -0.029002098 -0.81194556 183 146 152
-0.25264105 -0.028168939 -0.81246489 175 131 143
-0.25217906 -0.027297147 -0.81200266 177 128 150
-0.25151941 -0.028886076 -0.81071365 192 159 170
-0.25141028 -0.027597956 -0.81091869 186 143 166
-0.25128016 -0.029144244 -0.81035191 195 165 176
-0.25162008 -0.028613597 -0.81090897 190 154 167
-0.25150135 -0.025549013 -0.81137711 175 121 154
-0.25092793 -0.026247686 -0.81035763 184 143 166
-0.25066707 -0.026468111 -0.8098973 187 152 171
-0.25089258 -0.026512114 -0.81028688 185 145 168
-0.25081035 -0.026094485 -0.81015927 184 146 167
-0.2523326 -0.030705974 -0.81082499 197 167 170
-0.25218004 -0.029340483 -0.81145072 189 156 160
-0.25205529 -0.030531233 -0.81051916 199 171 175
-0.25328219 -0.032633111 -0.81217498 204 184 188
-0.25311777 -0.029608212 -0.81276882 177 142 142
-0.25276905 -0.033014584 -0.8106916 212 192 195
-0.25331342 -0.031035621 -0.81279999 189 161 164
-0.25280777 -0.032688633 -0.8109045 208 187 190
-0.25117826 -0.030560432 -0.80940878 207 183 192
-0.25105286 -0.030824635 -0.8090921 210 188 197
-0.25156561 -0.030215025 -0.8100971 202 175 182
-0.25146648 -0.029545546 -0.81038749 197 168 176
-0.25363088 -0.033498563 -0.81269556 206 189 196
-0.25403386 -0.036177773 -0.81239986 207 188 192
-0.25407213 -0.036898438 -0.81203902 206 186 190
-0.25398734 -0.03636501 -0.81207961 206 186 191
-0.25398302 -0.036459919 -0.81199455 206 186 190
-0.25409618 -0.036448844 -0.81245637 207 188 192
-0.25264406 -0.033596955 -0.80997807 213 193 197
-0.25338513 -0.034999687 -0.81079429 203 181 189
-0.25256678 -0.033931039 -0.80950296 213 191 195
-0.25303292 -0.035735082 -0.80926824 204 179 186
-0.25360554 -0.033260684 -0.81278759 207 190 196
-0.2534214 -0.034714546 -0.81112152 204 183 190
-0.25480303 -0.039677594 -0.81240058 202 176 187
-0.25387982 -0.039852217 -0.81059462 202 173 184
-0.2538245 -0.03952381 -0.81066883 202 175 185
-0.25477898 -0.03895928 -0.81274253 204 180 189
-0.25433233 -0.039717373 -0.81150633 202 175 186
-0.25486937 -0.039000921 -0.81288773 204 180 189
-0.25356245 -0.037628662 -0.80984366 200 173 182
-0.25353584 -0.040038131 -0.80973452 200 170 182
-0.25356635 -0.039516851 -0.80985743 201 171 182
-0.25358021 -0.038107079 -0.80991441 200 173 183
-0.25375336 -0.037786592 -0.81060934 202 177 185
-0.25343731 -0.038780659 -0.80934048 199 169 181
-0.25544176 -0.043185532 -0.81248468 202 180 194
-0.25345695 -0.041551325 -0.80915946 201 170 184
-0.25374198 -0.041198686 -0.80970418 200 167 182
-0.24817778 0.0066560684 -0.82677609 153 144 147
-0.24813461 0.0065510059 -0.82485253 181 178 177
-0.24880067 0.0059935004 -0.82704306 173 160 161
-0.24868129 0.0062746052 -0.82829326 164 148 153
-0.25690681 -0.025027085 -0.82479531 202 181 194
-0.2569001 -0.025189457 -0.82490855 203 183 195
-0.26164299 -0.028792389 -0.82847601 162 105 147
-0.26179081 -0.029063921 -0.82843679 163 104 149
-0.26142812 -0.028731776 -0.82829338 161 104 144
-0.26018515 -0.028093796 -0.827443 154 96 131
-0.2566987 -0.02556837 -0.82694262 216 199 208
-0.25972137 -0.025977496 -0.82849479 159 115 124
-0.2579073 -0.025744444 -0.82760251 193 165 174
-0.25959679 -0.026380632 -0.82797402 161 115 128
-0.25872293 -0.027207354 -0.82646912 175 132 156
-0.25847703 -0.026192857 -0.82736117 182 147 160
-0.25851017 -0.026612511 -0.8269425 180 142 160
-0.25892839 -0.028218651 -0.82555115 169 118 152
-0.25718358 -0.026636576 -0.8259564 205 178 199
-0.25599018 -0.02551681 -0.82627326 230 219 230
-0.25690532 -0.026339272 -0.8256098 209 185 204
-0.25702989 -0.025744004 -0.82509524 202 179 195
-0.25754607 -0.02711433 -0.82529879 195 162 188
-0.25968716 -0.028485045 -0.826509 152 91 130
-0.25961694 -0.02698257 -0.82739753 159 109 129
-0.26097789 -0.030215126 -0.82729226 163 111 147
-0.26204529 -0.029992491 -0.82844502 170 119 156
-0.26208124 -0.030084981 -0.82847053 171 121 157
-0.26098713 -0.03069381 -0.82723844 168 121 150
-0.26190796 -0.031279463 -0.82812959 180 143 163
-0.26057419 -0.03251598 -0.8265729 183 152 169
-0.2599549 -0.031650357 -0.82603627 171 128 158
-0.26080334 -0.032089572 -0.82686669 180 146 165
-0.2604163 -0.031266686 -0.82656723 170 126 154
-0.26006442 -0.032852318 -0.82599741 184 152 173
-0.25868443 -0.030558001 -0.82511926 175 130 164
-0.25639704 -0.032174431 -0.827842 196 177 181
-0.25867584 -0.0321698 -0.82494885 191 159 185
-0.25876856 -0.03229858 -0.8248167 192 161 187
-0.25867206 -0.031741712 -0.82500184 187 151 180
-0.25705975 -0.032469604 -0.8269673 197 177 186
-0.2584241 -0.030249478 -0.82548457 172 126 159
-0.25648564 -0.032594699 -0.82742101 202 186 190
-0.25626174 -0.032513112 -0.82773447 201 186 188
-0.25695673 -0.031299923 -0.82730448 185 156 170
-0.25927967 -0.029369174 -0.82514364 158 98 143
-0.25948277 -0.029470002 -0.82613033 151 88 134
-0.2583203 -0.032984775 -0.82713705 189 166 175
-0.25847873 -0.033140298 -0.82740349 188 165 171
-0.25737599 -0.031188976 -0.82758266 179 144 162
-0.25766566 -0.031590421 -0.82732725 181 149 166
-0.25754008 -0.032619424 -0.82728457 192 170 179
-0.25793245 -0.03200946 -0.82708573 184 154 170
-0.2568211 -0.031829029 -0.82789224 188 163 172
-0.25863823 -0.030354964 -0.82679915 163 113 147
-0.25698304 -0.032247473 -0.82772464 191 169 177
-0.26084366 -0.037036736 -0.82462126 149 112 149
-0.26012388 -0.035336822 -0.82473832 167 134 166
-0.26170969 -0.034972508 -0.82668203 177 153 166
-0.26093963 -0.034863126 -0.8259387 174 145 166
-0.26036993 -0.033622999 -0.82603699 184 157 174
-0.26160154 -0.033779241 -0.82723635 189 169 175
-0.26149884 -0.034501042 -0.82672536 181 157 169
-0.26190862 -0.03417417 -0.82733625 186 167 172
-0.26177427 -0.036400277 -0.8267644 175 152 174
-0.26228511 -0.035242409 -0.82797509 191 176 184
-0.26155588 -0.035677288 -0.82623786 170 143 163
-0.2625058 -0.035350006 -0.82850266 197 185 191
-0.26219979 -0.036310855 -0.82777929 187 170 187
-0.25793418 -0.033825431 -0.82580674 205 187 204
-0.25730276 -0.033983398 -0.82638222 209 194 207
