ply
format ascii 1.0
comment PCL generated
element vertex 1003
property float x
property float y
property float z
property uchar red
property uchar green
property uchar blue
element camera 0
property float view_px
property float view_py
property float view_pz
property float x_axisx
property float x_axisy
property float x_axisz
property float y_axisx
property float y_axisy
property float y_axisz
property float z_axisx
property float z_axisy
property float z_axisz
property float focal
property float scalex
property float scaley
property float centerx
property float centery
property int viewportx
property int viewporty
property float k1
property float k2
end_header
-0.24381086 -0.4745605 -0.7903465 162 130 135
-0.2435362 -0.47292742 -0.79047275 160 128 134
-0.24250358 -0.47269875 -0.79006064 159 126 132
-0.24292624 -0.4710739 -0.79047447 158 125 134
-0.24132587 -0.47157735 -0.7896983 157 125 132
-0.24142025 -0.47245234 -0.78961748 158 125 132
-0.2416967 -0.47070697 -0.78998369 157 124 133
-0.24102952 -0.47191939 -0.78951979 157 125 132
-0.2487381 -0.47511023 -0.79259038 163 135 143
-0.24935278 -0.47555357 -0.79286122 163 135 144
-0.24974494 -0.47533858 -0.79306757 163 135 145
-0.25000489 -0.47470358 -0.79323757 162 135 144
-0.24984579 -0.47780961 -0.79295337 164 135 145
-0.24878483 -0.47769338 -0.79244864 163 133 142
-0.24838561 -0.47830236 -0.79221785 163 131 141
-0.24877384 -0.47849408 -0.79239315 163 132 142
-0.24598536 -0.47730389 -0.79113227 162 130 137
-0.2442362 -0.47783104 -0.79020596 159 129 132
-0.24479763 -0.47813347 -0.79045624 160 129 133
-0.24518117 -0.47585788 -0.7908749 162 130 136
-0.24562001 -0.47826988 -0.79085332 160 129 135
-0.2459342 -0.47835365 -0.79100192 161 130 135
-0.24574082 -0.47493184 -0.79119945 163 132 138
-0.24707483 -0.47579205 -0.79176235 163 133 140
-0.24704607 -0.47523981 -0.79178363 163 133 140
-0.24741726 -0.47713846 -0.79183626 163 131 139
-0.2453326 -0.47504446 -0.79100364 163 131 137
-0.24729837 -0.47571778 -0.79187036 163 133 140
-0.24339727 -0.47744337 -0.78986347 160 130 133
-0.24388514 -0.4780362 -0.79002315 159 129 132
-0.24346472 -0.47645372 -0.78999263 161 130 134
-0.24356788 -0.47502774 -0.79019052 162 130 134
-0.24316487 -0.47661969 -0.7898469 161 130 133
-0.24204481 -0.47541758 -0.7894991 160 128 131
-0.25046596 -0.47886276 -0.79318875 165 135 146
-0.25082317 -0.48180661 -0.79319417 166 135 146
-0.25035837 -0.47941202 -0.79310566 165 135 146
-0.24874794 -0.47897509 -0.79235327 163 132 141
-0.24833177 -0.47954839 -0.79208446 164 131 141
-0.24818519 -0.4788036 -0.79208523 163 131 140
-0.24925378 -0.48146346 -0.79238003 166 134 144
-0.24858741 -0.48005608 -0.79216892 164 132 142
-0.24849425 -0.47922239 -0.79220855 163 131 141
-0.24532247 -0.48214349 -0.79036152 163 131 138
-0.24489479 -0.48189184 -0.79018056 163 130 137
-0.24541564 -0.48029011 -0.79054946 162 130 136
-0.24484272 -0.47929031 -0.79035872 160 129 134
-0.24547438 -0.48044184 -0.79056519 162 130 137
-0.24462382 -0.48236704 -0.79001659 163 130 137
-0.24731582 -0.47928447 -0.79159242 163 131 139
-0.24729779 -0.47995549 -0.79151052 163 131 140
-0.24631478 -0.47863853 -0.79116249 161 130 136
-0.24623881 -0.47915173 -0.79106885 161 130 137
-0.24686505 -0.47893527 -0.79140514 162 130 138
-0.24591348 -0.48025957 -0.79078609 162 131 137
-0.24401467 -0.47926378 -0.78997308 159 129 132
-0.24364908 -0.48093861 -0.78967351 162 130 134
-0.24333744 -0.47902852 -0.78968811 160 129 133
-0.25109673 -0.48550075 -0.79322213 170 144 151
-0.25084499 -0.48466244 -0.79310107 169 142 150
-0.2491774 -0.48303792 -0.7922222 167 136 146
-0.2500613 -0.48312193 -0.79270327 167 137 147
-0.24910748 -0.48440483 -0.79212904 169 140 149
-0.24900936 -0.48594144 -0.79198211 171 144 152
-0.24808763 -0.48445463 -0.7915234 169 139 149
-0.24960928 -0.48569617 -0.79235083 171 144 152
-0.24817398 -0.48408294 -0.79159594 169 138 148
-0.24926876 -0.48503011 -0.79218817 170 142 150
-0.24652058 -0.48535356 -0.79071462 169 140 149
-0.24648939 -0.48500136 -0.79073042 168 139 147
-0.24519312 -0.48509833 -0.79007363 167 137 147
-0.24752635 -0.48624429 -0.79113817 171 144 153
-0.24480496 -0.48400927 -0.7899766 165 134 142
-0.24480793 -0.48451436 -0.78993309 166 135 144
-0.24553029 -0.48266295 -0.79042333 164 132 139
-0.24649946 -0.48452851 -0.7907697 168 138 146
-0.24790631 -0.48243782 -0.7915501 166 133 144
-0.24761991 -0.48495942 -0.79127002 169 140 149
-0.2476206 -0.48375022 -0.79134023 168 137 147
-0.24576068 -0.48342004 -0.79048747 165 134 142
-0.24377649 -0.4825666 -0.78960359 163 130 136
-0.25079378 -0.48673114 -0.79300213 172 146 153
-0.2510291 -0.48840168 -0.79309064 173 146 156
-0.25078931 -0.48664334 -0.79300213 172 146 153
-0.25077194 -0.48723805 -0.79297388 172 146 154
-0.25132903 -0.48731023 -0.79330093 172 146 154
-0.24949509 -0.48911771 -0.7921536 173 145 157
-0.24901918 -0.48830941 -0.79189897 172 145 156
-0.24861021 -0.48762301 -0.79167974 172 145 155
-0.24835405 -0.48930752 -0.79146284 172 144 157
-0.2489197 -0.48739976 -0.79187351 172 145 155
-0.25035125 -0.48994297 -0.79263556 173 146 158
-0.24713868 -0.48869553 -0.79081011 170 141 154
-0.24602643 -0.4902198 -0.79015058 169 137 153
-0.24743311 -0.48828313 -0.79098505 171 142 154
-0.24686849 -0.48804849 -0.79068822 170 140 153
-0.24795422 -0.4874706 -0.79129779 172 144 154
-0.2451748 -0.4865174 -0.78994113 168 140 152
-0.24446593 -0.48715311 -0.78954053 167 138 151
-0.24606206 -0.48847982 -0.79024208 169 138 152
-0.24470077 -0.4879221 -0.78960204 167 137 151
-0.24597041 -0.48870251 -0.79018009 168 138 152
-0.25003338 -0.49034241 -0.792427 173 145 158
-0.25151804 -0.49183407 -0.79321897 174 149 162
-0.25153074 -0.49027041 -0.79332888 174 147 159
-0.25048164 -0.49198952 -0.79258782 174 148 162
-0.25136346 -0.49264127 -0.79307353 175 150 164
-0.25119868 -0.49302152 -0.79294997 175 150 165
-0.24817386 -0.49296921 -0.79117155 175 147 161
-0.24910891 -0.49156585 -0.79179716 174 146 160
-0.24822956 -0.49097115 -0.79131174 173 145 159
-0.24993336 -0.49346051 -0.79218036 175 149 164
-0.25057361 -0.49334243 -0.79256338 175 149 164
-0.25051174 -0.49298579 -0.79254615 175 149 164
-0.25004801 -0.49387446 -0.79222554 175 150 164
-0.24757659 -0.49113607 -0.79091692 173 144 158
-0.24735261 -0.49400458 -0.79063016 175 148 161
-0.24671021 -0.49272141 -0.79031873 173 146 159
-0.24630733 -0.49333858 -0.79004705 174 147 159
-0.24565293 -0.49092048 -0.78988713 169 138 154
-0.24567908 -0.49184486 -0.7898196 171 141 155
-0.24511313 -0.49082541 -0.78960329 168 136 152
-0.24648222 -0.49127737 -0.79030454 171 142 156
-0.24643379 -0.4903264 -0.79036242 170 139 154
-0.25038671 -0.49771491 -0.79238629 178 153 168
-0.24957907 -0.49766865 -0.79187047 178 153 168
-0.25035959 -0.49782062 -0.79237062 178 153 168
-0.24874726 -0.49796268 -0.79134434 178 153 168
-0.25159588 -0.49736038 -0.79315221 177 153 168
-0.25075993 -0.49762529 -0.79262298 178 153 168
-0.25043875 -0.49613598 -0.79239595 177 153 168
-0.24814694 -0.49460885 -0.7910766 176 149 163
-0.24815197 -0.49562642 -0.79104441 177 150 165
-0.24961568 -0.4951264 -0.79192281 176 151 166
-0.24892907 -0.49570021 -0.79149902 177 151 166
-0.24838628 -0.49450114 -0.79122114 176 149 163
-0.25112969 -0.49419841 -0.79284561 176 151 166
-0.24721877 -0.49714041 -0.79046828 178 152 166
-0.24721575 -0.49734747 -0.79045945 178 152 166
-0.24657744 -0.49694368 -0.79011732 178 152 165
-0.24757935 -0.49603933 -0.79070753 177 151 165
-0.24607643 -0.49621662 -0.78984267 177 150 163
-0.24749514 -0.49470842 -0.7907005 176 149 163
-0.24624534 -0.49622422 -0.78994256 177 150 163
-0.24629097 -0.49560648 -0.78997689 176 150 162
-0.25079355 -0.499935 -0.79262978 178 156 169
-0.2516534 -0.49824283 -0.79319698 178 154 169
-0.25121588 -0.49970922 -0.79290164 178 155 169
-0.25185373 -0.50052005 -0.7932995 178 156 169
-0.25148064 -0.50127023 -0.79305398 179 156 170
-0.24844421 -0.4986347 -0.79114282 179 154 169
-0.24862762 -0.5011211 -0.79119539 179 155 171
-0.24994211 -0.50174099 -0.79203838 179 156 171
-0.24905871 -0.50046051 -0.79149526 179 155 170
-0.24925272 -0.50159526 -0.79159141 179 156 172
-0.24839529 -0.49884847 -0.79110509 179 154 169
-0.25090772 -0.5016157 -0.79267341 179 156 171
-0.2473049 -0.49945557 -0.79039502 179 155 169
-0.24708441 -0.50149024 -0.79020143 179 156 171
-0.24695206 -0.50012881 -0.79015529 179 155 170
-0.24630477 -0.50160331 -0.78970903 179 156 171
-0.24626927 -0.49819374 -0.78989768 179 153 167
-0.24748762 -0.49867353 -0.79054606 179 154 169
-0.24606775 -0.49894789 -0.78973603 179 154 167
-0.24564396 -0.49832678 -0.78954017 179 153 166
-0.24864766 -0.50558335 -0.79113972 179 160 174
-0.25036812 -0.50427538 -0.79231709 179 159 173
-0.24968289 -0.50582033 -0.79189736 179 160 175
-0.25104827 -0.50318205 -0.79275489 179 158 172
-0.25160232 -0.50445646 -0.79321545 180 159 174
-0.24902177 -0.50501019 -0.7913819 179 160 174
-0.24942961 -0.50399667 -0.79165918 179 158 173
-0.25033718 -0.50338203 -0.7922644 179 158 172
-0.25088114 -0.50288701 -0.79262942 179 157 172
-0.24895518 -0.50463843 -0.79133689 179 159 173
-0.24877468 -0.50500691 -0.7912119 179 160 174
-0.25077221 -0.50266057 -0.79256237 179 157 171
-0.24716629 -0.50506318 -0.79021734 179 159 174
-0.24741897 -0.50358671 -0.79039335 179 157 173
-0.24690637 -0.50533944 -0.79005939 179 159 174
-0.24648713 -0.50231594 -0.78981525 179 157 171
-0.24756666 -0.5025816 -0.79049367 179 156 173
-0.2462081 -0.50224853 -0.78963989 179 157 171
-0.24626836 -0.50481558 -0.78968638 179 159 174
-0.25145796 -0.50646371 -0.79321557 179 158 174
-0.2496478 -0.5061484 -0.79189152 178 159 174
-0.25140595 -0.5082894 -0.79328924 173 149 170
-0.25071874 -0.50852954 -0.79280847 172 148 170
-0.24999939 -0.50787133 -0.79224986 173 151 171
-0.25018719 -0.50675195 -0.79231709 177 156 173
-0.24979661 -0.50826603 -0.79211521 172 149 170
-0.24891429 -0.50732648 -0.79141861 175 154 172
-0.24920142 -0.50910211 -0.79168296 170 145 169
-0.24833842 -0.50803804 -0.79099792 172 150 171
-0.24976081 -0.50819814 -0.79208618 172 150 170
-0.25030503 -0.50953722 -0.79253531 169 143 168
-0.24757789 -0.5093857 -0.7904821 169 144 170
-0.24771336 -0.50901198 -0.79056734 170 146 170
-0.2469874 -0.50904149 -0.79006022 170 147 171
-0.24610457 -0.50756133 -0.78952682 174 153 173
-0.24609604 -0.5082128 -0.78950202 172 151 172
-0.24654503 -0.50633162 -0.789823 177 158 174
-0.25101495 -0.5111357 -0.79308468 166 142 166
-0.25133729 -0.51204723 -0.79333198 164 142 165
-0.25064406 -0.50997126 -0.79279989 168 142 167
-0.25088349 -0.51174372 -0.7929855 165 142 165
-0.25110915 -0.5102942 -0.79315501 167 142 167
-0.25097403 -0.51058131 -0.79305249 167 142 167
-0.24858691 -0.51057589 -0.79122669 167 142 168
-0.24847765 -0.51110071 -0.79112077 169 144 169
-0.24975452 -0.51196539 -0.79211843 165 143 166
-0.2485061 -0.51243258 -0.79109794 172 148 170
-0.24949777 -0.51165944 -0.79192239 165 143 166
-0.24817137 -0.51231843 -0.79083252 173 149 171
-0.24723449 -0.51169693 -0.7902084 173 149 171
-0.24626574 -0.51361513 -0.78949237 178 156 173
-0.24767573 -0.51083356 -0.7905342 170 145 170
-0.24713546 -0.51119304 -0.79015243 172 147 171
-0.24763185 -0.51057684 -0.79051256 170 145 170
-0.24675073 -0.51040608 -0.78989977 170 145 170
-0.2494825 -0.51475513 -0.79185933 178 159 177
-0.25119412 -0.51592773 -0.79325634 179 164 182
-0.25122833 -0.51503831 -0.79326886 172 156 174
-0.25028974 -0.51484007 -0.79251033 175 157 176
-0.25010478 -0.5144974 -0.79235572 173 154 173
-0.25058722 -0.51381868 -0.79273242 166 146 166
-0.24954802 -0.51654661 -0.79191422 188 173 188
-0.2487933 -0.51579678 -0.7912901 185 168 183
-0.24841584 -0.51642406 -0.79096842 188 173 186
-0.24849616 -0.51435816 -0.7910552 179 158 176
-0.2495923 -0.51747066 -0.79194254 192 180 192
-0.24719118 -0.51577067 -0.7900514 186 168 182
-0.24744441 -0.51547241 -0.79023612 184 166 180
-0.24668507 -0.51452082 -0.78974682 181 161 177
-0.24692424 -0.51516736 -0.7898882 184 164 179
-0.24697246 -0.51613462 -0.78989202 187 170 183
-0.24951136 -0.51936167 -0.79190552 197 186 198
-0.25037861 -0.51882231 -0.79262131 195 184 198
-0.24875575 -0.51802224 -0.79124969 193 182 193
-0.25040936 -0.51835626 -0.79263872 194 182 197
-0.25113034 -0.51972419 -0.79326612 197 186 202
-0.25004551 -0.51779556 -0.79232442 192 181 194
-0.25011638 -0.52132738 -0.79246736 201 189 206
-0.24834991 -0.52035958 -0.79099405 198 185 200
-0.25007817 -0.52046824 -0.7924059 199 188 203
-0.24933065 -0.51974541 -0.79177135 197 186 199
-0.24930641 -0.51928687 -0.79173541 196 185 198
-0.24915859 -0.52115887 -0.79168111 200 187 204
-0.24784842 -0.52037686 -0.79060376 198 185 200
-0.24661864 -0.52127218 -0.78974283 199 185 202
-0.24723151 -0.52082443 -0.79017186 198 185 201
-0.24714243 -0.51889861 -0.79004127 195 182 194
-0.24750458 -0.51850027 -0.79028875 194 182 193
-0.24627061 -0.52115667 -0.78948689 199 184 201
-0.24853902 -0.52209359 -0.79122877 198 184 202
-0.24896257 -0.52186924 -0.79155874 199 186 203
-0.24843861 -0.52196103 -0.79113805 198 184 202
-0.24977781 -0.522802 -0.79228556 196 182 200
-0.24904057 -0.52280194 -0.79168493 195 181 199
-0.2508395 -0.52497739 -0.79329658 188 172 192
-0.24967887 -0.52534199 -0.7923857 190 174 195
-0.24937394 -0.52451879 -0.79207939 192 176 196
-0.24959838 -0.52390474 -0.79221523 192 177 196
-0.25036427 -0.52513206 -0.79292268 188 172 193
-0.24924065 -0.52504146 -0.79201037 191 176 197
-0.24775228 -0.52450538 -0.7907595 195 181 201
-0.2468089 -0.52442932 -0.78995538 196 183 202
-0.24802214 -0.52441448 -0.79098123 195 181 201
-0.24644741 -0.52403587 -0.7896626 197 183 202
-0.24774522 -0.52161807 -0.7905699 199 186 203
-0.24632737 -0.52201533 -0.78954655 199 184 202
-0.24758269 -0.52148491 -0.79045004 199 186 203
-0.25029507 -0.52717137 -0.79290432 181 156 186
-0.2499212 -0.52632201 -0.79259419 185 165 191
-0.2496893 -0.52655387 -0.79240966 185 164 190
-0.24960107 -0.52660304 -0.79233903 185 163 191
-0.24975455 -0.52661008 -0.79246283 185 163 190
-0.24896646 -0.5290224 -0.79184455 175 144 177
-0.24820639 -0.52655882 -0.79121125 188 169 193
-0.24973515 -0.52882832 -0.79246646 175 143 179
-0.24836148 -0.52692145 -0.79133952 186 165 191
-0.2491838 -0.52849156 -0.7920171 177 148 181
-0.2476694 -0.52639771 -0.7907843 190 172 195
-0.24662662 -0.52871424 -0.78998125 183 157 182
-0.24712087 -0.52771991 -0.7903626 186 163 188
-0.24792324 -0.52572328 -0.79097909 192 177 199
-0.24762484 -0.52547157 -0.79071987 194 179 200
-0.24640608 -0.52760279 -0.78977275 188 166 189
-0.24637392 -0.52595693 -0.78968024 193 177 198
-0.24986102 -0.52989495 -0.79262823 174 142 177
-0.25045681 -0.5324291 -0.79335064 180 152 185
-0.24982069 -0.53040487 -0.79264367 176 144 179
-0.24921162 -0.53105366 -0.79221112 178 150 180
-0.24898727 -0.5294131 -0.79187429 174 142 175
-0.24890663 -0.53166825 -0.79199737 178 150 181
-0.2489825 -0.53303748 -0.7921555 180 152 184
-0.24874218 -0.53278661 -0.79193294 179 150 183
-0.2495295 -0.53300565 -0.79262096 181 153 185
-0.24789312 -0.5304898 -0.79105341 176 147 177
-0.24792498 -0.53177398 -0.7911675 178 148 180
-0.24665312 -0.53235793 -0.79014242 184 156 185
-0.24793997 -0.52980542 -0.79104602 175 146 176
-0.24631563 -0.52980924 -0.78976041 182 154 181
-0.24681644 -0.5306409 -0.79018521 181 153 181
-0.24653749 -0.53173649 -0.79000753 184 156 184
-0.24990317 -0.53486794 -0.79310256 179 152 186
-0.24873672 -0.5339278 -0.79202139 179 149 184
-0.24995476 -0.53345126 -0.79302019 181 155 186
-0.24967332 -0.53625298 -0.79302973 177 148 186
-0.24834156 -0.53610981 -0.79182708 178 150 182
-0.24863148 -0.53482562 -0.7920019 178 149 183
-0.24827959 -0.5356589 -0.79174107 178 150 182
-0.24803872 -0.53440565 -0.79144055 178 149 182
-0.24798875 -0.53701258 -0.79157227 178 152 181
-0.24785253 -0.53693718 -0.79144955 178 153 181
-0.24793291 -0.53498363 -0.79138792 178 151 182
-0.24653533 -0.53348136 -0.7901153 185 158 187
-0.24739568 -0.53366178 -0.79084468 181 153 184
-0.24601583 -0.53426611 -0.7897197 186 162 187
-0.24625576 -0.53575343 -0.78999519 184 162 185
-0.24938108 -0.53814566 -0.79291743 178 150 187
-0.24884318 -0.53907996 -0.7925123 180 153 187
-0.24950391 -0.53842026 -0.79305124 179 151 187
-0.24902862 -0.54057753 -0.79282779 178 148 186
-0.24829456 -0.54061413 -0.79221141 170 136 177
-0.24901649 -0.53981209 -0.79273605 180 152 187
-0.24654612 -0.54034889 -0.79069388 171 142 176
-0.24625781 -0.53994346 -0.7904048 173 146 178
-0.24661097 -0.54071218 -0.79078782 170 140 175
-0.24522364 -0.54099047 -0.78963423 172 146 177
-0.24773051 -0.53869027 -0.79152745 174 145 178
-0.24772616 -0.53859091 -0.79151314 174 145 178
-0.24557982 -0.54001462 -0.78983194 174 150 179
-0.24554303 -0.53894353 -0.78967732 179 156 181
-0.2472419 -0.53747183 -0.79097545 179 154 181
-0.24591123 -0.537157 -0.78979033 184 165 185
-0.24583536 -0.53917772 -0.78995657 177 153 180
-0.24880737 -0.54224682 -0.79276687 176 133 181
-0.24900715 -0.54223651 -0.79293501 178 136 184
-0.24937747 -0.54274029 -0.79328042 183 138 188
-0.24900709 -0.54443043 -0.79306078 183 122 184
-0.24849032 -0.54292566 -0.79252344 176 125 179
-0.24625827 -0.54390085 -0.79063827 172 140 183
-0.24558178 -0.54463303 -0.79009604 173 145 186
-0.24649417 -0.54389644 -0.79083437 173 137 183
-0.24664879 -0.54387295 -0.79096234 174 136 183
-0.24748796 -0.54178327 -0.79160154 168 134 176
-0.24709243 -0.54483986 -0.79135865 180 127 185
-0.2464316 -0.54251206 -0.79073548 169 141 179
-0.24551375 -0.54356939 -0.79000092 171 147 184
-0.24544735 -0.54299057 -0.78991789 171 147 182
-0.24548076 -0.54392767 -0.78998911 171 148 185
-0.24490374 -0.54383296 -0.78949267 172 151 185
-0.24924926 -0.54712695 -0.79331142 188 138 187
-0.24922416 -0.54536933 -0.79328352 186 125 186
-0.24873647 -0.54531145 -0.79281628 185 122 185
-0.24836315 -0.54706717 -0.79250205 187 135 186
-0.24776231 -0.54695994 -0.79198128 185 134 185
-0.24719688 -0.54701948 -0.79149121 181 134 185
-0.24644516 -0.54854625 -0.7908923 179 147 185
-0.24788693 -0.54783332 -0.79212153 188 142 186
-0.24651444 -0.54876477 -0.79096061 180 149 186
-0.24629463 -0.54500329 -0.79069757 177 136 186
-0.24609317 -0.54591089 -0.79053366 175 137 185
-0.24570559 -0.5465194 -0.7902137 173 141 185
-0.24651271 -0.54659671 -0.79088545 176 132 184
-0.24611776 -0.54548436 -0.79055238 176 137 186
-0.24582401 -0.54498553 -0.79030597 175 141 187
-0.24905552 -0.55155015 -0.79323465 197 180 197
-0.24830921 -0.5523836 -0.79244101 204 196 205
-0.2488597 -0.55203414 -0.79305744 199 186 200
-0.2465401 -0.55067927 -0.79101753 194 168 193
-0.24696486 -0.55227548 -0.79129308 202 192 202
-0.24769393 -0.55023938 -0.79195791 196 168 194
-0.24699254 -0.55057788 -0.79138345 195 169 193
-0.24570499 -0.55244327 -0.79027879 199 188 199
-0.24607763 -0.55247211 -0.79057562 200 191 201
-0.24488057 -0.54907101 -0.7895456 170 151 185
-0.24544008 -0.54912835 -0.79003388 175 152 185
-0.24529551 -0.55103779 -0.78994757 188 171 192
-0.24545661 -0.55174631 -0.79010254 195 178 195
-0.24581334 -0.55058372 -0.79038894 189 167 191
-0.24528722 -0.54965204 -0.78991163 178 157 187
-0.24623998 -0.55575037 -0.79080224 207 202 209
-0.24540657 -0.55664033 -0.79020411 210 204 212
-0.24667497 -0.55451328 -0.79114348 210 206 211
-0.24765992 -0.55440426 -0.79181492 202 196 205
-0.24544556 -0.55660129 -0.790232 210 204 212
-0.24713115 -0.55571645 -0.79140729 200 193 203
-0.24494056 -0.55323327 -0.78969556 201 193 201
-0.2470637 -0.55292267 -0.79136866 206 200 206
-0.24546535 -0.55493885 -0.79025102 212 208 213
-0.24749832 -0.55281007 -0.79170728 206 201 207
-0.24582532 -0.55456924 -0.79050946 211 207 212
-0.24482593 -0.55436194 -0.78969377 207 201 208
-0.24500068 -0.55785453 -0.78993392 203 196 206
-0.24477418 -0.40010896 -0.80483264 124 87 85
-0.24550101 -0.39975205 -0.8050248 124 89 89
-0.24348572 -0.39952639 -0.80490702 122 87 82
-0.24309528 -0.39910409 -0.80501223 121 86 81
-0.24043953 -0.39991322 -0.80449641 120 86 83
-0.24152061 -0.39924026 -0.80482107 120 86 81
-0.23665003 -0.40026012 -0.80425429 119 82 80
-0.23930389 -0.39963332 -0.80454296 120 84 81
-0.23849213 -0.39924717 -0.80464745 119 83 79
-0.23702662 -0.39892951 -0.80475312 118 81 80
-0.23678927 -0.39995936 -0.80436558 119 82 80
-0.23900029 -0.39836746 -0.80497539 118 83 79
-0.23567002 -0.39866465 -0.80488855 117 80 81
-0.23415633 -0.40019837 -0.80440617 116 80 79
-0.23506129 -0.39906472 -0.80477583 116 80 80
-0.23348987 -0.39860958 -0.80506444 115 80 79
-0.23374929 -0.39934763 -0.80475479 115 80 79
-0.2296256 -0.40001258 -0.80483466 112 80 82
-0.22992432 -0.39987037 -0.80486453 112 80 81
-0.23037747 -0.3995477 -0.80495572 112 81 81
-0.25127542 -0.40336859 -0.80501568 143 118 119
-0.24882711 -0.40378264 -0.80434936 139 111 115
-0.2492163 -0.40346935 -0.80452162 139 111 115
-0.24820943 -0.40330496 -0.80433238 136 107 113
-0.25020975 -0.40358776 -0.80471992 141 115 118
-0.24807389 -0.40179175 -0.80469888 131 99 107
-0.24839133 -0.40369841 -0.80427086 138 109 114
-0.24486749 -0.40185729 -0.80433816 128 94 93
-0.24570438 -0.40328369 -0.80402738 132 101 104
-0.24525164 -0.40289423 -0.80408305 131 99 100
-0.24480733 -0.40299922 -0.80399442 130 98 100
-0.2441535 -0.40288174 -0.80394393 129 96 97
-0.24477175 -0.40404472 -0.80368221 132 102 106
-0.24778922 -0.40240845 -0.80450511 133 101 108
-0.2453111 -0.40068719 -0.80471271 126 90 89
-0.24628346 -0.40236005 -0.80436897 131 99 100
-0.24660425 -0.40197176 -0.80450279 130 98 100
-0.24778351 -0.40372634 -0.80415797 137 107 112
-0.24547021 -0.40141031 -0.80453831 128 93 93
-0.24141043 -0.4016566 -0.80405033 124 91 91
-0.24204545 -0.40424126 -0.80328512 129 101 108
-0.24219859 -0.4027918 -0.80377716 127 96 98
-0.24164891 -0.40271926 -0.80373293 126 95 98
-0.24026002 -0.40292832 -0.80349302 125 96 101
-0.24082951 -0.40341195 -0.80340552 127 98 104
-0.24343087 -0.40308025 -0.803819 128 97 99
-0.241302 -0.40137962 -0.80412483 123 90 90
-0.24306209 -0.40311289 -0.80377567 128 97 99
-0.24346448 -0.40137184 -0.80432463 125 90 89
-0.24338269 -0.40082055 -0.80447936 124 88 85
-0.24296245 -0.40040034 -0.80456454 123 87 83
-0.23808457 -0.40306598 -0.80335456 123 93 97
-0.23736651 -0.40402323 -0.80297345 122 93 96
-0.23796584 -0.40358672 -0.80316305 123 94 98
-0.23707883 -0.40287495 -0.80336386 121 90 92
-0.23634002 -0.40175694 -0.80371737 120 85 85
-0.23670939 -0.40119424 -0.80393839 120 85 85
-0.23740675 -0.40080112 -0.80409944 121 84 84
-0.23888862 -0.40199295 -0.80375481 123 91 94
-0.23828027 -0.40107206 -0.80403721 121 87 87
-0.2401607 -0.40229765 -0.80369347 124 94 97
-0.23815712 -0.40140361 -0.80392528 122 88 89
-0.23348209 -0.40410811 -0.80290061 115 83 81
-0.23500291 -0.40374744 -0.80304623 117 87 87
-0.233156 -0.40245482 -0.80358499 115 82 80
-0.23271948 -0.40375629 -0.80304784 114 80 78
-0.2325145 -0.40050024 -0.8043946 114 80 79
-0.23486151 -0.40365225 -0.80308598 117 87 87
-0.23567295 -0.40146846 -0.803859 118 84 83
-0.23563299 -0.40322378 -0.80323905 118 88 89
-0.23621662 -0.40338939 -0.80314463 119 89 90
-0.23354085 -0.40140438 -0.80401218 115 83 82
-0.23552765 -0.4005686 -0.804187 118 82 81
-0.22919159 -0.40240103 -0.80392468 111 80 81
-0.23017223 -0.40235907 -0.80383134 112 80 80
-0.23084246 -0.40346608 -0.8033253 112 80 79
-0.22882587 -0.40416005 -0.80328065 109 80 79
-0.23104413 -0.40334412 -0.80335015 112 80 79
-0.22959301 -0.40403122 -0.80324495 110 80 79
-0.23104836 -0.40130761 -0.80418164 113 80 80
-0.23091759 -0.40194455 -0.80392975 113 80 80
-0.22877179 -0.40049237 -0.80471861 112 80 83
-0.23099507 -0.40095127 -0.80433369 113 80 80
-0.22953014 -0.4006424 -0.80458999 112 80 82
-0.23143426 -0.40168744 -0.80399072 113 80 79
-0.22496942 -0.40272835 -0.80445087 104 79 78
-0.22607556 -0.40163532 -0.80470955 107 80 80
-0.22539267 -0.40327585 -0.80412179 105 79 78
-0.22761005 -0.40087849 -0.80474371 110 80 82
-0.22780322 -0.40064722 -0.80480772 110 80 82
-0.22645716 -0.4038541 -0.80373162 106 79 78
-0.22705506 -0.40308335 -0.80394548 107 79 80
-0.22526653 -0.40375209 -0.80394322 104 79 78
-0.22770871 -0.40297964 -0.80389148 108 80 80
-0.2253091 -0.40426221 -0.80373842 104 79 77
-0.22122411 -0.40425977 -0.80467194 93 61 64
-0.22296588 -0.40380982 -0.8044458 98 70 71
-0.22375479 -0.40286914 -0.80467194 101 75 75
-0.22184037 -0.40395379 -0.80465734 95 65 67
-0.22403982 -0.40318391 -0.80446172 102 76 76
-0.22115998 -0.4038538 -0.80487436 93 61 65
-0.25393063 -0.40664944 -0.80504829 156 127 136
-0.25233772 -0.40577003 -0.80475807 149 125 129
-0.25232729 -0.40480092 -0.80494583 148 125 126
-0.2526978 -0.40634748 -0.80474931 151 125 131
-0.25207326 -0.40804803 -0.80423254 150 124 133
-0.24891679 -0.40563622 -0.80396682 141 113 120
-0.24855553 -0.40721521 -0.80355471 141 109 118
-0.24815997 -0.40749139 -0.80340278 140 107 117
-0.25025201 -0.40750563 -0.80390221 145 117 126
-0.24890681 -0.40756449 -0.80356705 142 110 120
-0.24933623 -0.40809408 -0.80356103 143 112 122
-0.25019515 -0.40539518 -0.80431384 144 118 123
-0.24975103 -0.4046641 -0.8043552 142 117 120
-0.25116691 -0.40686491 -0.80424887 147 121 128
-0.24960454 -0.40566891 -0.80412358 143 116 122
-0.2516762 -0.40729776 -0.80428129 148 123 131
-0.24926691 -0.4044821 -0.80427927 141 115 118
-0.24745436 -0.40761366 -0.80327314 138 105 115
-0.24566193 -0.40772328 -0.8028689 133 102 114
-0.2448944 -0.40737981 -0.80280679 131 101 112
-0.2474075 -0.40817222 -0.80310464 138 105 116
-0.24419449 -0.40798509 -0.8024891 128 100 113
-0.24434921 -0.40734914 -0.80270201 129 100 112
-0.24748218 -0.40674078 -0.8034569 138 106 115
-0.24655189 -0.4050599 -0.80368227 136 106 112
-0.24730389 -0.40614897 -0.80355567 138 106 114
-0.24783732 -0.40447104 -0.80397081 138 110 115
-0.24765229 -0.4059923 -0.80363327 138 107 115
-0.24278618 -0.40700439 -0.80258459 127 100 112
-0.24228123 -0.40659598 -0.80263537 127 100 112
-0.24253656 -0.40816006 -0.80218393 127 99 112
-0.24340716 -0.40803167 -0.80235749 127 99 113
-0.24041146 -0.40653268 -0.80236906 126 99 110
-0.24075918 -0.40485835 -0.80294734 127 101 111
-0.24386606 -0.40606141 -0.80299062 129 101 109
-0.2421094 -0.40611663 -0.8027578 128 101 112
-0.24298498 -0.40619242 -0.80284446 128 101 111
-0.24124321 -0.40485165 -0.80301017 128 101 110
-0.24066152 -0.4045997 -0.80300981 128 101 111
-0.24211217 -0.40596554 -0.80280101 128 101 112
-0.2371919 -0.4071064 -0.80192536 122 94 99
-0.23699133 -0.40749386 -0.80177414 122 94 99
-0.23896608 -0.40694788 -0.80213755 124 96 104
-0.23642749 -0.40623114 -0.80215877 121 93 95
-0.23953664 -0.40780997 -0.80189145 125 97 107
-0.23647045 -0.40515268 -0.80253398 120 92 94
-0.23892334 -0.40533894 -0.80264002 124 97 104
-0.23850727 -0.40568072 -0.80250871 123 96 102
-0.23829958 -0.40492144 -0.80273473 123 96 101
-0.23967537 -0.40498477 -0.80279487 126 99 108
-0.23979001 -0.4074944 -0.80201441 125 97 108
-0.24000853 -0.40685681 -0.80222708 126 98 109
-0.2345082 -0.40802905 -0.80140615 119 90 92
-0.23244853 -0.40793797 -0.80128801 115 85 87
-0.23280504 -0.40644607 -0.80194575 115 84 84
-0.23356718 -0.40783709 -0.80141574 117 88 89
-0.23279828 -0.40535447 -0.80240661 115 82 80
-0.23294333 -0.40506932 -0.80253816 115 82 80
-0.23570512 -0.40616646 -0.80217367 120 91 92
-0.23616235 -0.40480286 -0.80264217 120 91 92
-0.23618256 -0.40667498 -0.80199748 120 93 95
-0.23310432 -0.40448639 -0.80275822 115 82 80
-0.23460808 -0.40600979 -0.80223012 118 88 88
-0.22879805 -0.40809873 -0.80155057 107 82 81
-0.23152117 -0.40739536 -0.80161422 114 84 86
-0.22862822 -0.40675536 -0.80216169 107 81 80
-0.22990756 -0.4070304 -0.8019231 110 82 83
-0.23045576 -0.40790448 -0.8014856 111 83 84
-0.22900419 -0.40572131 -0.8025859 109 81 81
-0.2323885 -0.40516812 -0.80246049 114 81 79
-0.23219554 -0.40718004 -0.80163169 115 84 85
-0.2298782 -0.40463451 -0.80296695 110 80 79
-0.23099594 -0.40479472 -0.80277419 112 80 79
-0.23179179 -0.40615246 -0.80211121 114 82 82
-0.23210877 -0.40706879 -0.80168843 115 84 85
-0.22571953 -0.40728843 -0.80223376 102 77 75
-0.22726925 -0.40722731 -0.80212742 105 80 79
-0.22507094 -0.40746954 -0.80220056 101 76 74
-0.22789606 -0.40774155 -0.80181521 106 81 80
-0.22482213 -0.40518412 -0.80336404 102 78 76
-0.22655751 -0.40769592 -0.80195618 103 79 77
-0.2273131 -0.40456849 -0.80331528 107 79 79
-0.22695242 -0.40627298 -0.80261153 105 80 79
-0.22713101 -0.40511164 -0.80310071 106 80 79
-0.22808708 -0.40725774 -0.80201107 106 81 80
-0.22543086 -0.40472183 -0.80351895 104 79 77
-0.22259992 -0.40677449 -0.80305552 97 69 68
-0.2232289 -0.40803224 -0.8022458 99 74 71
-0.22152387 -0.40766433 -0.80278909 98 74 70
-0.2215572 -0.40591583 -0.8037318 95 66 66
-0.2220398 -0.40718588 -0.80294496 97 71 69
-0.22221038 -0.40788084 -0.80253321 99 74 71
-0.22316761 -0.40618554 -0.80323583 97 69 69
-0.22349823 -0.40664393 -0.80292588 98 70 70
-0.22198865 -0.40463039 -0.8043015 95 65 67
-0.22449544 -0.40633678 -0.80283493 101 76 73
-0.22335637 -0.4048751 -0.80384415 99 71 71
-0.22292903 -0.40635332 -0.8032105 96 68 68
-0.21727742 -0.40626079 -0.80491543 86 58 48
-0.21890394 -0.40497798 -0.80503684 87 54 54
-0.21696666 -0.40636513 -0.80496991 86 57 46
-0.21943377 -0.40524498 -0.80470592 91 60 58
-0.21806262 -0.40672249 -0.80438012 92 67 55
-0.21836051 -0.407673 -0.80376244 95 73 59
-0.21798527 -0.40810153 -0.80365986 95 75 58
-0.22051176 -0.40564787 -0.80411583 94 65 65
-0.21989816 -0.40589091 -0.80419666 94 65 62
-0.21813376 -0.40737161 -0.80400473 94 71 57
-0.21814895 -0.407841 -0.80374461 95 74 58
-0.22058462 -0.40794325 -0.80284411 99 75 70
-0.21665803 -0.40675458 -0.80489379 86 59 46
-0.25674152 -0.4119845 -0.80495995 177 162 163
-0.2530534 -0.4082984 -0.80446768 154 126 137
-0.2545507 -0.40944961 -0.8046751 163 139 147
-0.25515917 -0.40997037 -0.80475134 167 144 151
-0.25542521 -0.41117325 -0.80460232 171 155 157
-0.25477183 -0.41023976 -0.80459046 166 146 151
-0.25202495 -0.40830702 -0.80416632 150 124 134
-0.25230864 -0.4110308 -0.80360574 159 135 141
-0.25427797 -0.41127494 -0.80421543 167 150 152
-0.25268021 -0.4110226 -0.80373389 160 138 143
-0.25243279 -0.40933594 -0.80405664 155 131 138
-0.25337523 -0.41178626 -0.80378568 165 146 148
-0.24845441 -0.41081101 -0.8027097 142 114 124
-0.24915089 -0.41164541 -0.8026765 145 120 129
-0.2500734 -0.41059244 -0.8031413 150 123 130
-0.24860072 -0.41184029 -0.80250138 142 118 127
-0.25020897 -0.41070843 -0.80314577 151 124 131
-0.24825415 -0.40968424 -0.80292839 141 110 121
-0.24985111 -0.40979502 -0.80327827 149 119 127
-0.25077912 -0.40860316 -0.80378854 148 119 129
-0.25046623 -0.40883678 -0.80365711 147 119 128
-0.24971856 -0.40943092 -0.80333424 147 117 126
-0.24990025 -0.40969518 -0.80331415 148 119 127
-0.24720356 -0.4120746 -0.8021785 138 113 123
-0.24463575 -0.41209337 -0.80176079 133 105 117
-0.24495837 -0.41000775 -0.80220687 131 104 117
-0.24643408 -0.41199437 -0.80206949 136 110 121
-0.244818 -0.40978083 -0.80222708 131 103 116
-0.24475548 -0.40945065 -0.80227941 130 103 116
-0.24664985 -0.40922591 -0.802697 135 106 118
-0.24522661 -0.40909848 -0.80243081 131 103 116
-0.24616446 -0.40842494 -0.8027848 134 103 116
-0.24727668 -0.41051894 -0.8025226 137 110 121
-0.24724191 -0.41004339 -0.80262744 137 109 120
-0.24425773 -0.40824836 -0.80242962 128 100 114
-0.24064562 -0.41101024 -0.80125552 127 100 111
-0.24185111 -0.41164565 -0.80134827 129 101 112
-0.2410188 -0.40962344 -0.80164647 127 99 111
-0.24229236 -0.41112104 -0.80155021 129 101 113
-0.2428491 -0.40837115 -0.80218655 127 99 112
-0.24227977 -0.40956789 -0.80187327 128 100 112
-0.24319474 -0.41063464 -0.80181175 130 102 114
-0.24286659 -0.40940562 -0.80199373 128 100 113
-0.24272797 -0.40899986 -0.80204922 128 100 112
-0.23650546 -0.40902674 -0.80124253 122 95 98
-0.23991883 -0.40854004 -0.80171233 125 98 109
-0.23796542 -0.40865546 -0.80151224 123 96 103
-0.23882893 -0.40895286 -0.80152041 124 97 105
-0.23919775 -0.40851679 -0.80165362 125 97 106
-0.23419034 -0.40844375 -0.80123419 118 90 92
-0.22906673 -0.40830675 -0.80143845 108 82 82
-0.23026091 -0.40823823 -0.80135727 111 84 84
-0.22477651 -0.40891394 -0.80158931 99 74 71
-0.2264009 -0.40870884 -0.80151635 103 77 75
-0.22519493 -0.40946931 -0.80133939 99 74 71
-0.22797096 -0.40869477 -0.80138141 106 80 79
-0.22734597 -0.40830043 -0.80159432 104 79 78
-0.22215995 -0.40961239 -0.80179834 97 73 70
-0.22123477 -0.40999249 -0.80180103 96 72 70
-0.22168931 -0.40903348 -0.80213028 98 74 70
-0.22273082 -0.41004092 -0.8015129 97 72 69
-0.22151023 -0.40903756 -0.8021605 98 74 70
-0.22422118 -0.40912834 -0.80160153 98 73 70
-0.22411083 -0.4097093 -0.80140299 98 72 69
-0.21883987 -0.41190439 -0.8015241 95 72 73
-0.22059298 -0.40903854 -0.80233073 98 75 71
-0.21916191 -0.41087317 -0.80188793 97 74 73
-0.21764065 -0.41182616 -0.80184412 98 75 76
-0.22008553 -0.40993902 -0.80206674 97 74 71
-0.2181787 -0.41122153 -0.80197412 98 75 75
-0.22021812 -0.40831563 -0.8027699 99 76 70
-0.21955645 -0.40849346 -0.80290425 98 76 68
-0.21826598 -0.40911937 -0.8030166 97 76 66
-0.21758023 -0.41033295 -0.8026045 97 76 70
-0.21698561 -0.41107911 -0.80241114 97 76 72
-0.21818939 -0.40928122 -0.80295652 97 76 66
-0.21383801 -0.4092125 -0.80499268 80 50 36
-0.21304862 -0.41038311 -0.80464071 78 49 34
-0.2140896 -0.40999025 -0.80431306 83 58 39
-0.21454611 -0.41005507 -0.80401403 85 63 43
-0.21375708 -0.41068125 -0.80402863 82 59 39
-0.21659938 -0.41189125 -0.80212337 97 75 74
-0.21658887 -0.40943947 -0.80344087 94 74 58
-0.21670988 -0.40950364 -0.80335647 95 75 60
-0.21483116 -0.41198739 -0.80280346 89 67 57
-0.21548226 -0.40998679 -0.80360556 90 69 50
-0.21524957 -0.41163197 -0.80282068 91 69 59
-0.21220468 -0.41168466 -0.80421346 76 48 35
-0.21164836 -0.41183758 -0.80441576 73 43 34
-0.25614506 -0.41242948 -0.80462772 176 164 163
-0.2576617 -0.4139584 -0.80505997 178 160 167
-0.25757903 -0.4156332 -0.804775 177 156 168
-0.25644127 -0.41578558 -0.80426258 174 152 166
-0.25591111 -0.41524395 -0.80411375 173 153 165
-0.25612074 -0.41525722 -0.80420202 174 153 165
-0.25235745 -0.4156976 -0.80285478 168 146 156
-0.25224283 -0.41296384 -0.80320132 163 139 145
-0.25270841 -0.41576681 -0.80296212 169 146 157
-0.25234845 -0.41463205 -0.8030017 166 143 152
-0.25292552 -0.41464055 -0.80319303 167 144 153
-0.25460756 -0.41214371 -0.80412108 171 155 155
-0.25461683 -0.41409075 -0.80383867 169 148 157
-0.25314754 -0.41313162 -0.80348057 164 141 148
-0.25482273 -0.41233405 -0.8041662 171 156 157
-0.25424406 -0.41384238 -0.80374855 168 146 155
-0.25466534 -0.4123731 -0.80410707 171 155 156
-0.24943121 -0.41558042 -0.80205989 156 125 141
-0.24958806 -0.41528404 -0.80215681 156 127 141
-0.2515378 -0.41586468 -0.80258816 166 143 154
-0.24820413 -0.41327676 -0.80213964 144 116 129
-0.25105941 -0.41538224 -0.80254394 163 139 150
-0.24853835 -0.41493288 -0.8019315 150 118 135
-0.24828616 -0.41216275 -0.8023566 141 117 127
-0.25181788 -0.4140422 -0.80292112 164 141 148
-0.25075623 -0.4131594 -0.80279619 156 133 140
-0.25003144 -0.41248009 -0.80272162 151 127 135
-0.25127956 -0.41419917 -0.80277264 161 138 146
-0.24565919 -0.41573772 -0.80117714 140 107 125
-0.24592698 -0.415043 -0.80138582 141 108 125
-0.24670961 -0.41555238 -0.8014313 145 110 129
-0.24588346 -0.41447222 -0.80150455 141 108 125
-0.24555887 -0.41242191 -0.80185002 136 108 120
-0.24791792 -0.41324288 -0.8020817 143 115 128
-0.24793184 -0.41521585 -0.80172646 149 114 132
-0.24603708 -0.41337788 -0.80175388 140 109 123
-0.24538724 -0.41262662 -0.80178517 136 107 120
-0.24315943 -0.41212714 -0.80148786 131 103 114
-0.24317349 -0.41319558 -0.80125529 131 102 115
-0.21856713 -0.41280764 -0.80119407 94 68 73
-0.21745424 -0.4126249 -0.801539 96 72 75
-0.21666071 -0.41365203 -0.80127865 93 68 74
-0.21600054 -0.41412422 -0.80127668 89 62 68
-0.21562386 -0.41260993 -0.80213791 92 68 66
-0.21340236 -0.41237786 -0.8031832 82 59 43
-0.21439208 -0.41226125 -0.80283713 87 65 53
-0.21638787 -0.41248107 -0.80189192 96 72 73
-0.21481828 -0.41288537 -0.80232137 88 63 57
-0.21199629 -0.41272619 -0.80365604 76 51 35
-0.21248165 -0.41249499 -0.8035298 79 55 36
-0.21236235 -0.41387704 -0.80283386 75 47 36
-0.21199907 -0.41418859 -0.80283928 74 45 35
-0.21229634 -0.41308519 -0.80329633 77 52 36
-0.21215227 -0.41399172 -0.80287266 75 46 36
-0.21192931 -0.41408232 -0.80293071 74 45 35
-0.25838506 -0.41689247 -0.80494577 178 156 169
-0.25757065 -0.41753513 -0.80450684 175 153 168
-0.2589297 -0.41886374 -0.80490994 177 155 170
-0.25845093 -0.41694677 -0.80496669 178 156 169
-0.25669843 -0.41969031 -0.80379725 176 153 167
-0.25795147 -0.41843072 -0.80454445 175 153 168
-0.25862128 -0.41941357 -0.80469412 177 154 169
-0.25613725 -0.41908661 -0.8036387 175 152 166
-0.25828049 -0.41961277 -0.8045125 177 154 169
-0.25689971 -0.41843134 -0.80407661 175 152 167
-0.25206602 -0.41734183 -0.80249196 171 149 160
-0.25395671 -0.41804162 -0.80303758 172 150 161
-0.25208056 -0.41791514 -0.80240083 173 150 161
-0.25217721 -0.41822708 -0.80238229 173 151 162
-0.2519778 -0.41763371 -0.80241203 172 150 160
-0.25479013 -0.41950902 -0.80308348 175 152 165
-0.25492835 -0.41685662 -0.80354083 172 149 163
-0.25577649 -0.4162164 -0.80392027 173 150 165
-0.25360864 -0.41683739 -0.80310351 171 148 160
-0.25513139 -0.41678748 -0.80361897 172 150 164
-0.25567439 -0.41831818 -0.80356932 174 151 165
-0.25415248 -0.41800362 -0.80310899 172 150 162
-0.24830736 -0.41877225 -0.80119091 169 145 151
-0.24911819 -0.41895518 -0.80139518 170 146 154
-0.24908856 -0.4183023 -0.80149865 166 138 150
-0.24952559 -0.41904902 -0.80149257 171 146 155
-0.24895124 -0.41889009 -0.80135983 169 145 153
-0.2505016 -0.41616881 -0.80224991 163 135 149
-0.24853368 -0.41637489 -0.80167365 154 118 138
-0.24897459 -0.41624478 -0.80181682 156 122 140
-0.24892357 -0.41668683 -0.80172861 157 122 141
-0.24913844 -0.41696826 -0.80174041 158 125 143
-0.24788469 -0.41647181 -0.80148613 154 118 137
-0.24755681 -0.41687706 -0.80134749 155 122 138
-0.25995731 -0.42334017 -0.80480802 175 153 168
-0.25875008 -0.42143846 -0.80448765 176 153 168
-0.25843155 -0.42103127 -0.80439562 176 153 168
-0.25938302 -0.42075863 -0.80485058 177 155 169
-0.25793672 -0.42084855 -0.80419832 176 153 167
-0.25838655 -0.42220959 -0.80423307 175 152 166
-0.25734538 -0.42162555 -0.80383819 175 152 166
-0.2559678 -0.42361245 -0.80292708 170 144 163
-0.25763878 -0.42361602 -0.80369735 172 148 164
-0.25631663 -0.42325729 -0.80313724 171 146 163
-0.25918007 -0.42351651 -0.80442196 174 151 166
-0.25586283 -0.41996461 -0.8033849 175 152 165
-0.25224668 -0.42203608 -0.80184221 173 151 163
-0.25279209 -0.42126182 -0.80213112 175 151 164
-0.25268143 -0.42178264 -0.80202472 174 151 164
-0.2535201 -0.42207459 -0.80227435 173 149 164
-0.25477839 -0.42294043 -0.80259264 171 146 163
-0.25269616 -0.42251122 -0.80193412 172 150 163
-0.25551221 -0.42051616 -0.80318499 175 151 165
-0.25507122 -0.42102581 -0.8029595 174 150 165
-0.25366256 -0.42027777 -0.80256927 176 153 165
-0.25390702 -0.42146549 -0.80249023 174 150 164
-0.25481364 -0.4207814 -0.80290312 175 151 165
-0.25108767 -0.4236443 -0.80128968 169 149 160
-0.25183538 -0.42222291 -0.80168408 173 151 163
-0.25022703 -0.42067924 -0.80143911 175 154 161
-0.25142831 -0.4203226 -0.8018204 176 154 164
-0.25137556 -0.42068288 -0.80175841 176 154 164
-0.25018588 -0.4220188 -0.80125195 172 152 160
-0.26048017 -0.42525721 -0.80490577 174 152 166
-0.26032755 -0.42682728 -0.8046881 173 150 163
-0.26025397 -0.4274191 -0.80459595 172 149 162
-0.25760585 -0.42721128 -0.80334383 168 145 157
-0.25617969 -0.42556882 -0.80283248 168 143 159
-0.25674927 -0.42749795 -0.80291641 166 143 155
-0.25858882 -0.42694384 -0.80382848 170 147 160
-0.25586602 -0.42755097 -0.80249858 165 142 153
-0.25634718 -0.42554495 -0.80291301 168 143 159
-0.25650731 -0.42392796 -0.80313718 170 145 163
-0.25947422 -0.42665574 -0.80426461 172 149 162
-0.25854465 -0.4239254 -0.80407709 173 149 165
-0.25954446 -0.42471477 -0.80446851 174 150 165
-0.25859705 -0.4257426 -0.80394071 172 148 162
-0.25784743 -0.42530423 -0.80363369 171 146 162
-0.25207669 -0.42483872 -0.80140734 168 147 159
-0.25376838 -0.42656109 -0.80182457 166 144 155
-0.2524929 -0.42711875 -0.80124122 166 143 154
-0.25254536 -0.42680746 -0.80130702 166 143 155
-0.25230473 -0.42592841 -0.80133975 167 145 157
-0.25298175 -0.42630553 -0.80155176 167 144 156
-0.25283262 -0.42395568 -0.80179596 169 147 161
-0.25436932 -0.42442617 -0.80227906 169 145 161
-0.25363711 -0.42415348 -0.80205339 169 146 161
-0.25457731 -0.42452893 -0.80234081 169 145 160
-0.25532693 -0.42431504 -0.80261838 169 144 161
-0.25256026 -0.42410776 -0.80168802 169 148 161
-0.25163791 -0.42424026 -0.80135709 169 148 160
-0.26100221 -0.42950812 -0.80481339 172 149 162
-0.26089418 -0.42853019 -0.80484295 172 150 162
-0.26023999 -0.42991447 -0.80430108 171 148 160
-0.25977412 -0.43127805 -0.80381656 171 148 160
-0.26003823 -0.42992941 -0.80417126 171 148 160
-0.25789094 -0.43049598 -0.80301464 169 145 157
-0.25941321 -0.43156612 -0.80359542 170 147 159
-0.25819826 -0.43142256 -0.8030048 170 146 158
-0.2562322 -0.43013445 -0.80223787 168 144 155
-0.25620225 -0.42890942 -0.8024419 166 143 154
-0.25800624 -0.43147835 -0.80289733 170 146 158
-0.25880745 -0.42954883 -0.80360377 169 146 158
-0.2594623 -0.42814174 -0.8041054 171 148 160
-0.25640485 -0.4282122 -0.80266666 165 142 153
-0.25856352 -0.42821476 -0.80367517 169 146 158
-0.25674406 -0.42842963 -0.80279499 166 143 154
-0.25774395 -0.42800853 -0.80332083 168 145 156
-0.25570509 -0.43099573 -0.80183429 170 145 155
-0.2556797 -0.43156776 -0.80172199 171 146 156
-0.25500259 -0.43117064 -0.80152839 171 147 156
-0.25519851 -0.42871574 -0.80204338 167 143 154
-0.25325111 -0.42901617 -0.8012228 168 144 154
-0.2534261 -0.42958421 -0.80119079 169 145 154
-0.25330094 -0.42918292 -0.80121279 168 144 154
-0.26219437 -0.4346436 -0.80479676 167 146 160
-0.26234961 -0.43475443 -0.80487657 167 146 160
-0.26170349 -0.43248898 -0.80484605 170 148 161
-0.2599853 -0.43442506 -0.8035199 168 145 158
-0.26006913 -0.43550438 -0.80342567 167 145 158
-0.26170832 -0.43429723 -0.80455428 168 146 159
-0.2600382 -0.43200046 -0.8038739 170 147 159
-0.26127237 -0.43519723 -0.80417705 167 145 159
-0.25650623 -0.4344466 -0.80172276 169 145 155
-0.25715026 -0.43340898 -0.80219626 169 145 156
-0.25792205 -0.43481952 -0.80239671 168 145 156
-0.25737187 -0.43355125 -0.80229014 169 145 156
-0.25787842 -0.43550438 -0.80227971 167 145 156
-0.25749674 -0.43539044 -0.80209982 168 145 155
-0.25762126 -0.4321467 -0.80260569 170 146 157
-0.25935751 -0.43432784 -0.80319607 168 145 158
-0.25879753 -0.43171549 -0.80325979 170 147 158
-0.25851846 -0.43269435 -0.80298793 169 146 158
-0.25947824 -0.43207133 -0.80355769 170 147 159
-0.25926435 -0.4340589 -0.80318457 168 145 158
-0.25504407 -0.4334228 -0.80121213 171 146 155
-0.25564152 -0.43215618 -0.80162215 171 146 155
-0.25507602 -0.43229678 -0.80138159 171 147 156
-0.26229253 -0.43812409 -0.80447614 166 141 155
-0.26173854 -0.43634582 -0.80432618 166 144 157
-0.26286876 -0.43795308 -0.80483347 166 141 156
-0.26348996 -0.43921134 -0.80507493 166 139 154
-0.26071697 -0.43632603 -0.80372494 166 143 157
-0.26316708 -0.43938625 -0.80485964 166 139 153
-0.26010284 -0.43897921 -0.80302781 166 138 153
-0.26063812 -0.43810931 -0.80346298 166 140 154
-0.26234066 -0.43832791 -0.80448169 166 140 155
-0.26009762 -0.43787938 -0.80315918 166 140 155
-0.26045021 -0.4378027 -0.80338508 166 141 155
-0.25685316 -0.437038 -0.80156213 167 142 153
-0.25747457 -0.43725774 -0.80185676 168 141 153
-0.25740653 -0.43722519 -0.80182558 168 141 153
-0.25782922 -0.43765613 -0.80198938 167 141 153
-0.25730869 -0.4393771 -0.80149484 165 138 152
-0.25796783 -0.43623385 -0.80223554 167 143 155
-0.25846976 -0.43601513 -0.8025195 167 144 156
-0.25880763 -0.43833214 -0.80240905 167 140 153
-0.25716826 -0.43556452 -0.80190778 168 144 155
-0.25916034 -0.43733716 -0.80271155 167 141 155
-0.25759467 -0.43720326 -0.80192572 168 142 153
-0.26370925 -0.44215414 -0.80493122 162 136 149
-0.26290944 -0.43951595 -0.80468702 166 138 153
-0.26283991 -0.44184878 -0.80442303 163 137 149
-0.26294777 -0.44122663 -0.80454713 163 137 150
-0.26133326 -0.44003087 -0.80366939 165 138 152
-0.26155472 -0.44039693 -0.80377096 165 137 151
-0.26173908 -0.44289196 -0.80366182 164 137 150
-0.26175991 -0.44209397 -0.80374306 164 137 150
-0.2601738 -0.44080287 -0.80289376 166 138 152
-0.26288879 -0.44311404 -0.80433881 162 136 148
-0.26062995 -0.44158372 -0.80310279 166 137 151
-0.25978017 -0.44009718 -0.80271614 167 138 153
-0.26121172 -0.44096997 -0.80350786 164 137 150
-0.25871113 -0.44186121 -0.80199128 166 138 151
-0.2584402 -0.44248572 -0.80179256 166 138 151
-0.25899172 -0.44119745 -0.80219859 166 138 152
-0.25845852 -0.4422501 -0.80182266 166 138 151
-0.25733471 -0.43972522 -0.8014726 165 138 152
-0.25879294 -0.43979889 -0.80222404 166 138 152
-0.25674257 -0.43963167 -0.80117351 165 138 151
-0.25735441 -0.43991548 -0.8014648 165 138 151
-0.25906327 -0.44000027 -0.80234545 166 138 152
-0.2643179 -0.44577849 -0.80501914 157 131 138
-0.26457876 -0.44725013 -0.80506194 155 129 133
-0.26426885 -0.44684511 -0.80487639 156 131 136
-0.26205927 -0.44626668 -0.80353898 163 137 144
-0.26065341 -0.44564804 -0.80277145 166 139 146
-0.2600247 -0.44676673 -0.80232537 168 140 143
-0.26012877 -0.44440964 -0.80255938 168 139 150
-0.26077718 -0.44544265 -0.80285817 166 138 147
-0.2598176 -0.44425914 -0.80239052 168 139 151
-0.26171967 -0.44725057 -0.80327004 163 138 141
-0.26220584 -0.44467515 -0.80377156 163 137 147
-0.26301992 -0.44537199 -0.80419421 161 136 145
-0.26320511 -0.4435643 -0.8044886 161 136 147
-0.26357731 -0.44640008 -0.80442798 159 136 142
-0.26251963 -0.44598016 -0.80382991 162 136 145
-0.26294735 -0.44618005 -0.80406874 161 136 143
-0.26341221 -0.44555312 -0.80441344 160 136 144
-0.25949997 -0.44674182 -0.80202144 168 140 143
-0.25925645 -0.44534725 -0.80198127 168 138 147
-0.25896773 -0.44468239 -0.80187327 167 138 148
-0.25904825 -0.44483566 -0.8019017 167 138 148
-0.2584531 -0.44351804 -0.80170918 167 138 151
-0.2643263 -0.44793773 -0.80479479 155 130 135
-0.26435941 -0.44869798 -0.80472714 155 130 134
-0.26369619 -0.44898406 -0.80421913 156 131 136
-0.26433375 -0.44944939 -0.80462116 154 129 133
-0.26384348 -0.44857672 -0.80437076 156 132 136
-0.2605933 -0.44981167 -0.80230254 165 137 140
-0.26266819 -0.45116219 -0.80335855 157 129 133
-0.25981653 -0.44801313 -0.80207306 168 140 142
-0.26210472 -0.45105344 -0.80303872 160 131 135
-0.26285675 -0.45062298 -0.8035394 157 129 132
-0.25986159 -0.4475607 -0.80215782 168 140 141
-0.25979489 -0.45091823 -0.80168766 168 139 143
-0.26005402 -0.44732961 -0.80229831 168 140 141
-0.26307282 -0.44801518 -0.80396593 159 134 139
-0.26092055 -0.44792119 -0.80273193 165 137 139
-0.26347467 -0.45034659 -0.80393213 155 128 132
-0.2622613 -0.44969198 -0.80330515 159 131 134
-0.26246816 -0.44851527 -0.80355906 160 134 137
-0.25969535 -0.45023838 -0.80171496 168 140 143
-0.25929374 -0.45085403 -0.80139261 168 138 143
-0.25870943 -0.44856033 -0.80134785 167 138 141
-0.25865686 -0.44754833 -0.80145055 167 138 140
-0.26496014 -0.45285487 -0.80470443 149 120 126
-0.26513946 -0.45222554 -0.80489504 150 121 126
-0.2649928 -0.45194012 -0.80481869 150 121 127
-0.26468951 -0.45419616 -0.80434054 150 119 127
-0.26429296 -0.45417884 -0.80403602 151 121 129
-0.26375473 -0.45315039 -0.80375516 153 124 130
-0.26476192 -0.45361656 -0.80447298 149 119 127
-0.26140785 -0.45473939 -0.8020463 161 133 140
-0.26034564 -0.45479479 -0.80135506 164 138 144
-0.26079923 -0.45355818 -0.80186939 164 135 141
-0.26274389 -0.45482552 -0.80288744 157 127 135
-0.26334733 -0.45506537 -0.80323106 155 125 133
-0.26130903 -0.45340899 -0.80222332 162 133 139
-0.26339126 -0.4531076 -0.80353051 155 126 131
-0.26175156 -0.45190707 -0.80271739 161 132 137
-0.26348498 -0.45233357 -0.80368805 154 126 131
-0.26308686 -0.45377514 -0.80326217 156 126 133
-0.26115066 -0.45203593 -0.80234438 163 134 139
-0.26034254 -0.45129836 -0.80196291 166 137 141
-0.25960484 -0.45203742 -0.80138379 168 139 144
-0.26582554 -0.45766023 -0.80476815 145 114 120
-0.26572913 -0.45566276 -0.80495274 146 114 123
-0.26558205 -0.45743769 -0.8046087 146 115 121
-0.26439285 -0.45573664 -0.8039093 151 120 128
-0.26605624 -0.45846197 -0.80484283 144 113 118
