ply
format ascii 1.0
comment PCL generated
element vertex 1034
property float x
property float y
property float z
property uchar red
property uchar green
property uchar blue
element camera 0
property float view_px
property float view_py
property float view_pz
property float x_axisx
property float x_axisy
property float x_axisz
property float y_axisx
property float y_axisy
property float y_axisz
property float z_axisx
property float z_axisy
property float z_axisz
property float focal
property float scalex
property float scaley
property float centerx
property float centery
property int viewportx
property int viewporty
property float k1
property float k2
end_header
-0.056966502 -0.16793132 -0.70188665 50 34 40
-0.059494335 -0.16867957 -0.70214546 48 32 38
-0.059432499 -0.16846867 -0.70217454 48 32 38
-0.058001116 -0.16718714 -0.70217818 50 33 40
-0.060148835 -0.16774353 -0.70242667 49 34 39
-0.060122509 -0.16930731 -0.70213169 47 31 37
-0.059932299 -0.16914017 -0.70213157 47 31 37
-0.053236321 -0.1695784 -0.70110947 42 28 36
-0.054638062 -0.16795172 -0.70152837 47 33 41
-0.054101013 -0.16912244 -0.70128632 44 30 38
-0.056194372 -0.16972484 -0.70146012 48 34 38
-0.05370234 -0.16909228 -0.7012406 44 30 37
-0.053725336 -0.1669724 -0.70156026 46 32 42
-0.053679854 -0.16642143 -0.70165008 47 32 43
-0.055704571 -0.16884857 -0.70153266 48 34 40
-0.055741794 -0.16757584 -0.7017619 49 34 41
-0.054267842 -0.1669995 -0.70163822 47 33 42
-0.053948049 -0.16712546 -0.70156735 47 32 42
-0.048871063 -0.16707501 -0.70082396 49 32 41
-0.049391765 -0.1696686 -0.70051146 44 29 37
-0.051246408 -0.16885158 -0.70092517 44 29 37
-0.051402494 -0.16887167 -0.70094651 43 29 37
-0.04911679 -0.16727163 -0.70083249 48 32 41
-0.050850641 -0.16613078 -0.70127106 48 32 43
-0.051682543 -0.16654253 -0.70133728 46 31 42
-0.051888965 -0.16833204 -0.70110232 44 29 38
-0.050047666 -0.16710168 -0.70100325 48 31 40
-0.051916309 -0.1665234 -0.70137602 46 31 42
-0.051557634 -0.1681087 -0.70108479 44 29 38
-0.046085447 -0.16736802 -0.70052278 50 37 45
-0.045986693 -0.16724165 -0.70053285 51 37 46
-0.045890354 -0.16806534 -0.7004025 49 35 44
-0.04596011 -0.16847959 -0.70034736 49 34 43
-0.046475567 -0.16802287 -0.70046008 49 35 44
-0.047114253 -0.1678533 -0.70054239 49 35 43
-0.046311125 -0.16679931 -0.70062906 51 37 46
-0.04811335 -0.16676444 -0.70079905 50 34 43
-0.048668098 -0.16912028 -0.70049208 45 31 39
-0.048000198 -0.16689725 -0.70076853 50 34 43
-0.045460317 -0.16622977 -0.70063776 53 39 48
-0.041577049 -0.16747886 -0.70023859 55 38 43
-0.041045465 -0.16709596 -0.70026886 57 39 43
-0.042550154 -0.16913506 -0.70003939 53 36 45
-0.042158056 -0.16789559 -0.7002058 54 37 43
-0.041226424 -0.16817746 -0.70011544 57 39 46
-0.042858914 -0.16878892 -0.7001074 52 36 43
-0.042061914 -0.16682507 -0.70036143 54 38 41
-0.044921927 -0.16837707 -0.70027161 50 35 44
-0.04358789 -0.1682729 -0.70022178 51 35 41
-0.04443286 -0.16607071 -0.700589 54 40 48
-0.043396175 -0.16639259 -0.70049065 54 39 45
-0.038312603 -0.1694787 -0.69981354 58 40 48
-0.039709572 -0.16865838 -0.69999349 56 39 50
-0.037981428 -0.16740683 -0.70012772 55 38 48
-0.038395166 -0.16983517 -0.69976038 59 41 48
-0.040330596 -0.16940856 -0.69989789 57 39 51
-0.04017501 -0.1682706 -0.70006579 56 39 48
-0.040451605 -0.16718158 -0.70023787 56 39 45
-0.039308812 -0.16798544 -0.70008326 55 39 49
-0.040156338 -0.16827187 -0.70006508 56 39 48
-0.039667521 -0.16615953 -0.7003687 55 39 43
-0.033581175 -0.16875538 -0.69979119 63 44 52
-0.034732614 -0.16766396 -0.69998109 63 44 51
-0.036264829 -0.16935039 -0.69976544 61 42 47
-0.034843035 -0.16831234 -0.69988692 62 43 50
-0.035788253 -0.16978267 -0.69968975 60 42 47
-0.036761705 -0.16701898 -0.70014602 55 39 48
-0.036953241 -0.16957963 -0.69974899 59 41 46
-0.0344554 -0.16648725 -0.70015657 62 43 53
-0.036027193 -0.16648877 -0.70020622 57 40 49
-0.034164283 -0.16656494 -0.70013511 63 44 53
-0.032084234 -0.167724 -0.70000917 66 46 55
-0.032098103 -0.16716616 -0.70009148 67 46 55
-0.031885013 -0.16763403 -0.70003557 67 46 55
-0.033186231 -0.16901621 -0.69974446 63 45 52
-0.032580502 -0.16764723 -0.69998825 65 46 54
-0.032462724 -0.16623054 -0.70018959 66 46 55
-0.029351529 -0.16834556 -0.70004332 68 48 53
-0.030888887 -0.16807751 -0.70002586 68 47 55
-0.029447148 -0.16615856 -0.70029277 66 47 51
-0.030056689 -0.16824707 -0.70003247 68 47 54
-0.028480655 -0.16955586 -0.69997686 68 47 54
-0.026494468 -0.16824339 -0.70028996 66 41 54
-0.025857383 -0.16853087 -0.70032984 64 40 51
-0.026202638 -0.16843455 -0.70030314 65 41 53
-0.027983846 -0.16893829 -0.70007992 68 45 55
-0.028517146 -0.16709083 -0.70024538 67 45 54
-0.028922044 -0.16715187 -0.7002095 67 46 53
-0.028455621 -0.16612083 -0.70036173 66 45 53
-0.029279409 -0.16884197 -0.69998896 68 48 53
-0.028830821 -0.1681626 -0.70009935 68 47 54
-0.024962207 -0.16965893 -0.70030969 66 45 48
-0.06847772 -0.17223564 -0.70339954 57 37 38
-0.066652201 -0.1705312 -0.70328599 52 36 38
-0.067831635 -0.17326285 -0.70306122 59 37 37
-0.066857293 -0.17204057 -0.70306039 55 37 37
-0.067570493 -0.17182782 -0.70326018 56 37 38
-0.064910486 -0.17283714 -0.70247978 54 34 37
-0.064541265 -0.17007384 -0.7028898 49 35 37
-0.064723782 -0.1713638 -0.70270067 51 35 37
-0.064483687 -0.17019582 -0.70285505 49 35 37
-0.067705825 -0.17326665 -0.70303214 59 37 37
-0.066043124 -0.17183147 -0.70291406 54 36 37
-0.060734514 -0.17124547 -0.70190281 46 30 36
-0.062804513 -0.17287606 -0.70203608 51 31 37
-0.062184837 -0.17241071 -0.70199233 49 31 37
-0.062078279 -0.1733226 -0.70181924 49 31 37
-0.063008882 -0.17278157 -0.70209181 51 32 37
-0.063796565 -0.17281975 -0.70224375 53 32 37
-0.063479975 -0.17005543 -0.70267141 48 34 36
-0.062203605 -0.17157456 -0.70213562 50 31 36
-0.063871518 -0.17305356 -0.70221764 53 32 37
-0.06376633 -0.17062785 -0.70262867 49 34 37
-0.059677988 -0.17346023 -0.70135903 45 30 37
-0.057252888 -0.1733892 -0.70098031 46 30 36
-0.056806557 -0.17226671 -0.70110434 47 31 37
-0.059269335 -0.17311664 -0.70135319 45 30 37
-0.058589105 -0.17260087 -0.70133352 46 31 37
-0.058904551 -0.17337573 -0.70124906 45 30 37
-0.056985851 -0.17005278 -0.70151812 48 34 38
-0.060117271 -0.17173558 -0.70171827 46 30 37
-0.058997165 -0.17165825 -0.70155913 46 32 38
-0.058544822 -0.17060106 -0.70166612 47 32 37
-0.060221452 -0.17206223 -0.70167977 46 30 37
-0.057975098 -0.17050289 -0.70159495 48 33 38
-0.052996613 -0.17209759 -0.70064038 42 28 34
-0.053577092 -0.17255473 -0.70063418 42 28 34
-0.053600926 -0.17279488 -0.70059437 43 28 34
-0.056208875 -0.17343941 -0.70081824 45 29 35
-0.054895785 -0.17368165 -0.70060426 44 29 34
-0.054826565 -0.17139831 -0.70100081 44 29 36
-0.055302989 -0.17147359 -0.7010476 45 30 36
-0.055107884 -0.17018062 -0.70124882 45 31 37
-0.055835925 -0.17239618 -0.70095366 45 30 36
-0.054861791 -0.17066519 -0.70113319 44 30 36
-0.054124776 -0.17052764 -0.70106441 43 29 35
-0.050018813 -0.17139371 -0.70032299 43 29 36
-0.049340513 -0.17124546 -0.7002719 44 30 37
-0.049139146 -0.17272402 -0.70006615 45 31 37
-0.049852788 -0.17240438 -0.7001794 44 30 36
-0.050707649 -0.17313358 -0.70017594 44 30 35
-0.049141429 -0.17025758 -0.70037514 43 29 37
-0.052077491 -0.17196554 -0.70052731 42 28 34
-0.052429739 -0.17054264 -0.7008366 41 27 34
-0.052318688 -0.17149779 -0.70064855 42 28 34
-0.052278228 -0.17133287 -0.70067167 42 28 34
-0.051892813 -0.17122927 -0.70063001 42 28 34
-0.045605768 -0.17236425 -0.69974929 48 31 39
-0.046142038 -0.17284742 -0.69973743 47 31 39
-0.047239531 -0.1736642 -0.69973886 47 31 38
-0.048107404 -0.17351303 -0.69986135 47 31 38
-0.045874123 -0.17135727 -0.69993359 47 31 40
-0.046539985 -0.17004317 -0.7001695 46 31 39
-0.047752868 -0.17061071 -0.70020461 45 30 38
-0.047953814 -0.17024212 -0.70026839 45 30 38
-0.048709776 -0.17018355 -0.70034188 44 30 38
-0.046600711 -0.17097883 -0.70005769 47 31 39
-0.046590183 -0.17050435 -0.70011616 46 31 39
-0.041305438 -0.17089075 -0.69973195 57 39 50
-0.042359933 -0.17166227 -0.69966853 55 37 47
-0.043178365 -0.17069557 -0.69983512 52 35 45
-0.042765077 -0.17079523 -0.69979864 53 36 46
-0.042970281 -0.1707806 -0.69981146 53 35 46
-0.04356024 -0.17014547 -0.69993877 51 34 44
-0.037582003 -0.17041203 -0.69965154 60 41 46
-0.040360827 -0.17069927 -0.69972306 58 40 50
-0.037855037 -0.17010817 -0.69970435 59 41 47
-0.039815862 -0.17011955 -0.69977415 58 40 50
-0.035440177 -0.17011829 -0.69963247 61 42 48
-0.031527035 -0.1709287 -0.6996488 67 48 53
-0.030866345 -0.17059825 -0.69971448 68 48 53
-0.031426147 -0.17079048 -0.69966483 67 47 53
-0.030981291 -0.16999975 -0.69974786 67 47 53
-0.030426739 -0.17121717 -0.69970083 70 49 54
-0.026896359 -0.17369959 -0.69992197 73 50 54
-0.02782003 -0.17317377 -0.6998359 73 51 55
-0.028723547 -0.17062211 -0.69989091 70 49 54
-0.028090576 -0.17223467 -0.69986439 72 50 54
-0.027929373 -0.17185304 -0.69991171 71 49 54
-0.027986484 -0.17109735 -0.69995159 70 48 54
-0.027993722 -0.1707295 -0.69996464 69 47 53
-0.026201935 -0.17205182 -0.70009643 68 46 51
-0.025907863 -0.17147197 -0.70014781 67 44 49
-0.026508987 -0.17224137 -0.70005822 69 47 53
-0.026863188 -0.17064068 -0.7000823 67 45 50
-0.023179721 -0.17300265 -0.70035368 70 47 54
-0.022671055 -0.17335711 -0.7004137 71 46 52
-0.02252792 -0.1726408 -0.70042396 70 47 54
-0.023111988 -0.17276622 -0.70035934 70 47 54
-0.022836113 -0.1736989 -0.70039797 71 46 51
-0.025252134 -0.17273165 -0.70016229 68 46 52
-0.025348542 -0.17028889 -0.70024711 63 41 46
-0.024754029 -0.17201097 -0.70022243 68 45 52
-0.024877731 -0.1702085 -0.70028156 64 42 47
-0.021177061 -0.17372729 -0.70056939 72 46 50
-0.019489415 -0.17303371 -0.70067507 73 48 55
-0.018623674 -0.17158622 -0.70076644 73 51 58
-0.018499933 -0.17124879 -0.70078397 72 52 59
-0.018356949 -0.17318372 -0.70072502 74 48 57
-0.02097775 -0.17155886 -0.70057839 70 48 57
-0.019071836 -0.17010321 -0.70073974 71 52 62
-0.020809401 -0.17192514 -0.70059669 70 48 56
-0.020849727 -0.17297143 -0.70060158 71 47 52
-0.02011667 -0.17060545 -0.70064884 70 50 60
-0.01734075 -0.17258677 -0.7007935 75 50 60
-0.070106246 -0.17524607 -0.70335656 65 43 43
-0.070663728 -0.17618793 -0.70336729 68 47 47
-0.068867438 -0.17490298 -0.70306158 67 44 42
-0.070612326 -0.1767229 -0.70327413 72 51 49
-0.069079079 -0.17612235 -0.70294189 75 52 48
-0.068492047 -0.17559169 -0.70285851 74 50 46
-0.068791375 -0.17577827 -0.70291328 74 50 47
-0.070294909 -0.17616209 -0.70326895 70 48 47
-0.066149645 -0.1759291 -0.70226192 72 48 47
-0.065414928 -0.17479597 -0.70227522 64 41 42
-0.064783476 -0.17444098 -0.7021755 59 36 40
-0.066733606 -0.17754346 -0.70212317 82 57 52
-0.065128021 -0.17567694 -0.70204258 66 42 43
-0.06673561 -0.17390248 -0.70270282 59 36 38
-0.067572244 -0.17586529 -0.70260513 75 51 48
-0.065108471 -0.17448321 -0.70225209 61 38 41
-0.067293234 -0.17652294 -0.70244658 80 55 51
-0.068013541 -0.17704894 -0.70253205 86 60 54
-0.067654774 -0.17450447 -0.70282197 65 41 41
-0.062818445 -0.17688741 -0.70136046 62 39 42
-0.062556244 -0.17738307 -0.70124936 62 38 42
-0.062851936 -0.17657965 -0.70140916 61 39 42
-0.063418865 -0.17690501 -0.70145237 64 41 43
-0.061820444 -0.17658071 -0.70124686 57 35 40
-0.063454635 -0.17686927 -0.70146304 64 41 43
-0.061934564 -0.17504415 -0.7014882 53 35 40
-0.062277377 -0.17438084 -0.70167458 51 33 39
-0.064245664 -0.17408819 -0.70211262 55 33 38
-0.063340619 -0.17410205 -0.70193285 53 33 38
-0.062925436 -0.17555858 -0.70158982 58 37 41
-0.063822106 -0.17433742 -0.70198488 55 34 39
-0.057189524 -0.17648926 -0.70052236 49 29 33
-0.057051007 -0.17560017 -0.70062393 48 29 34
-0.056987137 -0.17529951 -0.70065558 47 29 34
-0.05919065 -0.17736587 -0.70071918 52 30 36
-0.056945503 -0.17516765 -0.70066726 47 29 34
-0.058539778 -0.17759556 -0.70058364 52 29 34
-0.058760148 -0.17383176 -0.7011463 45 30 37
-0.059276775 -0.17516343 -0.70104176 48 30 37
-0.059017736 -0.17537749 -0.70096976 49 30 37
-0.058116231 -0.17408411 -0.70100683 46 30 36
-0.058537111 -0.17523552 -0.70091224 49 30 37
-0.059761126 -0.17512338 -0.7011255 48 30 37
-0.05489463 -0.17612363 -0.70025665 47 28 31
-0.052921042 -0.17549442 -0.70006579 46 30 35
-0.053257499 -0.17673515 -0.6999225 48 31 36
-0.055568248 -0.1768592 -0.70024097 48 28 31
-0.055549767 -0.17705019 -0.7002086 48 28 31
-0.05592021 -0.17685314 -0.70029074 48 28 30
-0.056306023 -0.17580748 -0.70048624 47 28 32
-0.056535397 -0.17743626 -0.70028967 49 28 30
-0.054758072 -0.17509006 -0.70038474 45 28 32
-0.056302372 -0.17407906 -0.70072609 45 29 35
-0.055902813 -0.17547083 -0.70048064 47 28 32
-0.049927142 -0.17522293 -0.69977945 48 32 38
-0.049522173 -0.17468685 -0.69982684 47 32 38
-0.049931884 -0.17444699 -0.69991326 47 31 37
-0.049640272 -0.17451257 -0.69987315 47 32 38
-0.050304797 -0.17524746 -0.69982737 48 32 38
-0.051439155 -0.17517303 -0.6999554 47 31 36
-0.050860826 -0.17399378 -0.70007896 45 30 35
-0.048656527 -0.17387325 -0.69986731 47 31 38
-0.028865157 -0.17387995 -0.69965249 76 53 55
-0.028371841 -0.17462322 -0.69970715 79 55 57
-0.026817035 -0.17442116 -0.69991535 75 52 56
-0.026211536 -0.17538507 -0.69998175 79 54 58
-0.028951002 -0.17456028 -0.69961685 79 56 58
-0.023074435 -0.17433387 -0.70036519 73 48 52
-0.024728326 -0.17547612 -0.7001633 78 52 57
-0.025259845 -0.17386612 -0.70012617 71 48 53
-0.023345437 -0.17482615 -0.70032781 75 50 54
-0.023414489 -0.17409347 -0.70033032 72 47 52
-0.017783057 -0.17409463 -0.70072937 75 48 58
-0.020782528 -0.17447901 -0.70057875 74 48 52
-0.072530143 -0.18028952 -0.70323575 73 47 61
-0.073502347 -0.18145584 -0.70332313 73 46 63
-0.070059426 -0.17850019 -0.70284963 83 58 58
-0.068618312 -0.17793557 -0.70254791 90 64 58
-0.071120679 -0.17825779 -0.70317942 78 55 56
-0.070825629 -0.17857192 -0.70304739 80 55 57
-0.071883336 -0.17820948 -0.7033959 74 53 55
-0.070340231 -0.18008345 -0.70266753 83 56 63
-0.070609525 -0.17999162 -0.70275599 81 52 62
-0.065843239 -0.17777699 -0.70185113 78 53 50
-0.068149939 -0.17782615 -0.7024408 91 65 57
-0.067332633 -0.17777021 -0.7022382 86 60 55
-0.061083857 -0.17937875 -0.7007373 66 43 49
-0.0629007 -0.17905881 -0.7011078 71 49 50
-0.062143091 -0.17866085 -0.70103258 66 43 47
-0.058484301 -0.17988613 -0.70022118 63 43 47
-0.05717871 -0.17996402 -0.69999874 62 42 45
-0.0581658 -0.1798231 -0.70017982 63 42 46
-0.05842923 -0.17990832 -0.70020878 63 43 47
-0.060195658 -0.17931776 -0.70058239 63 40 47
-0.060134478 -0.17866392 -0.70067406 59 36 43
-0.058233581 -0.17901494 -0.70031691 58 37 41
-0.060339585 -0.17944522 -0.70058554 63 41 49
-0.060208682 -0.17859577 -0.70069647 59 36 43
-0.059890714 -0.17883374 -0.70060891 60 37 44
-0.052986424 -0.17802536 -0.6996817 52 35 40
-0.055605244 -0.18035516 -0.69969934 64 46 49
-0.054924905 -0.17973237 -0.69969767 61 43 47
-0.054825891 -0.17824909 -0.69991595 53 34 37
-0.055074427 -0.1787924 -0.69986701 56 37 40
-0.055374801 -0.17819329 -0.70000488 52 32 35
-0.074171811 -0.18233249 -0.7034207 71 45 61
-0.074044414 -0.18281968 -0.70333934 70 44 60
-0.074555345 -0.18429348 -0.70334971 66 41 54
-0.073156647 -0.18386385 -0.70296735 71 43 62
-0.073848218 -0.18492231 -0.70306337 69 42 59
-0.072865508 -0.18289128 -0.70298535 71 42 62
-0.072419725 -0.18247597 -0.70289385 73 43 64
-0.073499314 -0.18361032 -0.70310116 69 42 59
-0.075148471 -0.1867101 -0.70327085 64 41 48
-0.075376801 -0.18621501 -0.70339423 63 41 48
-0.075030558 -0.18776427 -0.70312071 66 41 44
-0.075482182 -0.18747325 -0.70329165 64 40 43
-0.074959956 -0.18776594 -0.70309871 66 41 45
-0.073355228 -0.18684477 -0.70270944 71 43 58
-0.0725725 -0.18916799 -0.70232153 63 40 59
-0.072736494 -0.18655483 -0.70256066 72 43 63
-0.0724115 -0.18806514 -0.70235908 67 41 62
-0.072855756 -0.18700662 -0.70255995 71 42 61
-0.072486721 -0.1878406 -0.70239645 68 42 62
-0.071159162 -0.18890561 -0.70197749 78 54 66
-0.071998343 -0.18814914 -0.70224237 69 43 64
-0.07260824 -0.1908666 -0.70226252 61 40 58
-0.072304271 -0.1929637 -0.70212501 61 43 59
-0.073592223 -0.18964927 -0.70257127 62 39 51
-0.070926592 -0.18955131 -0.70188993 83 61 67
-0.071372814 -0.18966766 -0.7019943 76 54 65
-0.071954206 -0.19035555 -0.70211488 67 45 62
-0.071986981 -0.19150317 -0.70208985 66 46 61
-0.069011115 -0.19670969 -0.70131093 71 48 64
-0.070511334 -0.19715326 -0.70169556 65 43 55
-0.071601234 -0.19684312 -0.70196807 66 50 52
-0.069838054 -0.19691333 -0.70152253 68 46 59
-0.071893655 -0.1935112 -0.70201057 65 48 61
-0.06777069 -0.19607249 -0.70100677 76 52 68
-0.070960201 -0.1981694 -0.70177412 64 42 51
-0.068695232 -0.19727267 -0.70123684 66 39 63
-0.096619055 -0.17340781 -0.71183133 107 86 76
-0.095737502 -0.17434682 -0.71135139 112 94 79
-0.096700326 -0.17587417 -0.71157181 103 84 72
-0.097490937 -0.17704627 -0.71176374 96 76 66
-0.096198469 -0.17462915 -0.71151376 109 90 78
-0.096545786 -0.17713059 -0.71134526 101 83 66
-0.096452683 -0.1746325 -0.71162301 107 88 77
-0.096592858 -0.17392632 -0.71175981 107 87 76
-0.097325362 -0.17983028 -0.71136999 84 61 59
-0.096820325 -0.17781141 -0.71137816 97 79 63
-0.097871102 -0.17826279 -0.71178097 89 68 62
-0.042428929 -0.17365898 -0.69942105 56 37 45
-0.043601859 -0.17347749 -0.69947296 53 34 43
-0.042500038 -0.17312911 -0.69949406 55 37 45
-0.042039324 -0.17308038 -0.69948655 56 38 47
-0.040974554 -0.17254706 -0.69951928 59 41 50
-0.039580714 -0.17299072 -0.69939119 62 43 50
-0.039269336 -0.17330772 -0.69933611 63 44 50
-0.037932985 -0.17176569 -0.69947898 62 43 48
-0.040253002 -0.17204456 -0.69954467 60 42 50
-0.037372194 -0.17128371 -0.69952017 62 43 47
-0.038985938 -0.17130966 -0.69958901 60 41 48
-0.038638934 -0.17147881 -0.69955015 61 42 48
-0.035723928 -0.17157859 -0.69943696 64 45 50
-0.036703806 -0.1727678 -0.69929498 66 46 50
-0.035334598 -0.17109488 -0.6994949 63 44 50
-0.034921285 -0.17041944 -0.6995787 62 44 49
-0.036359236 -0.1730402 -0.6992498 66 47 51
-0.034298655 -0.17260417 -0.69932532 69 50 53
-0.036095496 -0.17315228 -0.69924158 67 48 52
-0.033984356 -0.17329396 -0.69926208 72 52 53
-0.035710789 -0.17326139 -0.69923711 68 49 52
-0.034439247 -0.17345697 -0.69923854 72 52 53
-0.031037848 -0.17204405 -0.69960481 71 50 54
-0.03127433 -0.17306592 -0.69948268 74 53 55
-0.031093568 -0.1720743 -0.69959825 71 50 54
-0.031684145 -0.17280667 -0.69946903 73 52 54
-0.030146487 -0.17298262 -0.69959921 74 52 55
-0.03128875 -0.1736782 -0.69942063 76 55 55
-0.048940554 -0.17535773 -0.69960785 50 34 40
-0.0497775 -0.1760373 -0.69959563 50 34 40
-0.049954109 -0.17682107 -0.69946837 52 35 42
-0.045685042 -0.17400099 -0.69950044 49 31 39
-0.046935532 -0.17473961 -0.69949764 50 32 40
-0.047871012 -0.17622763 -0.69931388 54 36 43
-0.046994071 -0.1752457 -0.69940573 52 34 41
-0.045462292 -0.17557347 -0.69925427 55 35 43
-0.046782371 -0.17744763 -0.69907844 60 40 46
-0.046032421 -0.17717114 -0.69908106 60 40 45
-0.047008749 -0.17635868 -0.69922227 55 37 44
-0.045745116 -0.17510401 -0.69932407 53 34 42
-0.042010602 -0.177194 -0.69895971 68 49 51
-0.041153193 -0.17693993 -0.69897038 69 50 52
-0.04332969 -0.17684877 -0.69903779 64 44 48
-0.041737031 -0.17616934 -0.69908416 65 46 50
-0.042281948 -0.17634743 -0.69907528 65 45 49
-0.044687517 -0.17395931 -0.69942594 51 32 40
-0.043952785 -0.17404908 -0.69939959 53 34 42
-0.042836927 -0.17542961 -0.69920611 61 41 47
-0.042772755 -0.17408969 -0.69937009 56 37 45
-0.044284586 -0.17651451 -0.69910228 61 40 46
-0.037534539 -0.17489071 -0.69906867 70 50 54
-0.03994571 -0.17763659 -0.69885761 73 54 57
-0.03778486 -0.1768204 -0.69889849 75 54 61
-0.037458241 -0.17519157 -0.69904035 71 51 56
-0.039017539 -0.17691359 -0.69890881 73 53 57
-0.039729986 -0.17559871 -0.69907039 68 49 52
-0.038914092 -0.17478995 -0.69913071 67 47 51
-0.039651167 -0.17396283 -0.69927603 63 43 50
-0.039702632 -0.17575395 -0.69904906 68 49 52
-0.03964192 -0.17575479 -0.69904572 68 49 52
-0.039795585 -0.17412934 -0.69926238 63 44 50
-0.033300739 -0.17542148 -0.69912964 79 60 61
-0.034237701 -0.17555666 -0.69907379 78 58 61
-0.033475477 -0.17543565 -0.69911987 79 59 61
-0.034021199 -0.1749837 -0.69911641 77 57 59
-0.033736534 -0.17434591 -0.69916666 76 56 56
-0.03658013 -0.17475942 -0.69908273 71 51 56
-0.036252346 -0.17637041 -0.69894296 77 56 63
-0.035763901 -0.17594711 -0.69898909 77 56 61
-0.03583004 -0.17396173 -0.69916689 71 50 53
-0.031337943 -0.17538476 -0.69931579 80 59 62
-0.032212324 -0.17412162 -0.699301 77 56 56
-0.03198937 -0.1747897 -0.69928581 79 58 59
-0.029922483 -0.17415701 -0.69951898 78 56 58
-0.053385984 -0.18084377 -0.69926989 64 43 45
-0.053404532 -0.18087061 -0.69926834 64 43 46
-0.053463768 -0.17976916 -0.69946307 59 40 43
-0.053640552 -0.17942643 -0.6995486 58 40 43
-0.054444663 -0.1810392 -0.69940382 65 46 48
-0.051462274 -0.18020923 -0.69909114 63 42 45
-0.049690723 -0.17849049 -0.69912571 59 40 46
-0.052458994 -0.17862543 -0.69950104 54 36 40
-0.050315358 -0.17818655 -0.69926667 56 38 44
-0.052341063 -0.1781859 -0.69955808 52 35 39
-0.051206537 -0.18071483 -0.69897974 66 44 48
-0.049585715 -0.1794782 -0.69896144 64 44 50
-0.050086591 -0.17978027 -0.6989792 64 44 49
-0.051185317 -0.18065622 -0.69898587 66 44 48
-0.0499136 -0.17927508 -0.69903356 62 42 48
-0.050150372 -0.18080284 -0.69883281 69 48 52
-0.048338819 -0.17807171 -0.69905746 60 41 48
-0.046293397 -0.17785399 -0.69900447 62 42 47
-0.046641875 -0.17851153 -0.69891977 65 44 49
-0.041100483 -0.1778481 -0.69885004 72 54 54
-0.044465803 -0.17775732 -0.69894952 65 44 48
-0.04374126 -0.17782597 -0.69891971 67 47 49
-0.042522602 -0.17819846 -0.69882727 72 53 54
-0.040207785 -0.17805584 -0.69881743 74 55 58
-0.040287122 -0.17798068 -0.69882691 74 55 57
-0.039624646 -0.17797436 -0.69881755 75 55 59
-0.04003505 -0.17821382 -0.69879746 75 56 59
-0.05423766 -0.18169178 -0.69926453 68 47 49
-0.053134747 -0.18180867 -0.69907826 68 45 47
-0.053362072 -0.18228488 -0.69906336 70 48 50
-0.080719158 -0.16549551 -0.70775932 68 51 52
-0.079571903 -0.16517395 -0.70749831 71 54 54
-0.086110324 -0.16875002 -0.70871043 71 41 53
-0.085938312 -0.16958436 -0.7084744 69 42 55
-0.086124241 -0.16907793 -0.70864326 71 41 54
-0.085389413 -0.16847147 -0.70854479 66 40 51
-0.084373474 -0.16885994 -0.70814097 60 41 51
-0.086221986 -0.1687534 -0.70874476 71 41 53
-0.082192756 -0.16934061 -0.70743626 59 44 53
-0.082593277 -0.16864936 -0.70764875 59 45 54
-0.08379589 -0.16908674 -0.70791203 57 42 52
-0.082638443 -0.16721809 -0.70796824 60 43 49
-0.081532411 -0.16675632 -0.70773309 62 46 51
-0.0829539 -0.16769364 -0.70796025 59 43 50
-0.081555538 -0.16634081 -0.70783079 62 46 49
-0.090019934 -0.17303966 -0.70925075 108 81 71
-0.090920031 -0.17350826 -0.70948464 120 93 76
-0.08424145 -0.17216854 -0.70750958 63 47 59
-0.084580936 -0.17245577 -0.70757121 65 49 60
-0.084987566 -0.17334524 -0.7075578 68 52 61
-0.0847397 -0.17209782 -0.70767856 64 49 59
-0.085945643 -0.17198922 -0.70807731 68 53 57
-0.086069703 -0.17094806 -0.70828044 69 48 57
-0.086015597 -0.1714455 -0.70818514 69 51 57
-0.085913718 -0.17176102 -0.70810342 68 52 57
-0.083931431 -0.17205502 -0.7074331 61 45 59
-0.083685137 -0.17073143 -0.70758331 58 44 56
-0.096196212 -0.17630976 -0.71129954 104 87 70
-0.09586066 -0.17534631 -0.7112779 108 91 74
-0.094538651 -0.17558822 -0.71068269 114 93 73
-0.094517484 -0.17571697 -0.71065736 114 92 73
-0.095228754 -0.17676046 -0.71082938 107 88 69
-0.094605863 -0.1758281 -0.71068108 113 92 72
-0.09365093 -0.17610152 -0.71025068 117 95 74
-0.092166424 -0.17746583 -0.70952553 125 112 86
-0.091988988 -0.17538188 -0.70965856 129 107 83
-0.092005074 -0.17560384 -0.70964324 128 108 83
-0.091801301 -0.17637229 -0.7094869 129 112 86
-0.088360891 -0.17574343 -0.70832306 77 58 61
-0.088618897 -0.1767472 -0.70828772 76 55 62
-0.088048287 -0.17422426 -0.70840585 80 64 60
-0.088782087 -0.1771605 -0.70829457 77 55 62
-0.088308409 -0.17749754 -0.70807207 66 42 58
-0.089382239 -0.1773392 -0.70849651 86 67 67
-0.089924678 -0.1742996 -0.70904797 106 86 71
-0.091470778 -0.17579316 -0.70943034 125 107 83
-0.090553232 -0.17521285 -0.7091735 114 95 77
-0.089867234 -0.17578292 -0.70888329 104 90 74
-0.091337055 -0.17715983 -0.70925093 122 110 85
-0.088690586 -0.1742347 -0.70863253 90 73 65
-0.086692795 -0.17756325 -0.7075181 61 37 57
-0.087738179 -0.17624523 -0.70803076 66 44 56
-0.085666321 -0.17475396 -0.70757061 68 50 61
-0.086206689 -0.17384253 -0.70786434 73 57 61
-0.08640141 -0.17597072 -0.70763916 67 46 59
-0.085260771 -0.17474735 -0.70744324 67 48 61
-0.09667442 -0.17904522 -0.7111786 91 70 61
-0.097118899 -0.18132579 -0.71110976 76 51 58
-0.095757321 -0.17904308 -0.71077853 94 74 64
-0.096129403 -0.1802021 -0.71080589 85 64 62
-0.09280549 -0.18161909 -0.7093206 104 81 72
-0.092377916 -0.18114816 -0.70920539 110 88 75
-0.093467288 -0.18081445 -0.70966667 101 81 73
-0.094754927 -0.18073292 -0.7101776 89 71 69
-0.092227779 -0.1810497 -0.70915759 112 90 75
-0.09368635 -0.18021414 -0.70981765 101 83 74
-0.094744645 -0.18013173 -0.71024406 93 75 70
-0.095248461 -0.17857358 -0.71062875 100 82 67
-0.095638506 -0.18118559 -0.71047604 80 60 64
-0.095366761 -0.17866983 -0.71066457 98 80 66
-0.094157211 -0.17952392 -0.71008164 100 84 74
-0.093027927 -0.17806484 -0.70980364 117 104 81
-0.089149646 -0.18008725 -0.70810938 78 48 58
-0.090214685 -0.18088049 -0.70842063 93 64 64
-0.089366645 -0.17929928 -0.70826828 79 53 61
-0.089580603 -0.18016788 -0.70825946 83 55 61
-0.090854108 -0.18141998 -0.70860106 102 74 68
-0.088086046 -0.1790119 -0.70782703 63 32 52
-0.089601465 -0.17881691 -0.70840847 84 61 65
-0.090048976 -0.17944442 -0.70850813 90 66 67
-0.090886794 -0.17932893 -0.7088356 105 85 75
-0.091479458 -0.18004596 -0.70897996 114 94 77
-0.091680825 -0.17904344 -0.70916528 121 105 83
-0.08925458 -0.1782936 -0.70833534 80 57 64
-0.087864354 -0.17908217 -0.70773953 61 29 51
-0.087783776 -0.17896593 -0.70772487 60 29 52
-0.087399796 -0.1800091 -0.70749503 64 29 51
-0.092122778 -0.18291631 -0.70895535 96 68 67
-0.092452355 -0.18426402 -0.70898175 77 45 60
-0.092879549 -0.18543519 -0.709059 60 26 53
-0.091890395 -0.18385129 -0.70879579 82 51 63
-0.092382856 -0.18370301 -0.70899689 85 55 63
-0.093610235 -0.18488556 -0.70938206 69 37 54
-0.093114674 -0.18168776 -0.70943511 101 78 71
-0.093465254 -0.18230289 -0.70952326 95 71 67
-0.09287791 -0.18228775 -0.70929545 101 76 68
-0.091491558 -0.18186043 -0.7087965 107 81 71
-0.090978913 -0.18214001 -0.70858735 97 67 66
-0.090297081 -0.18318827 -0.70825863 73 38 56
-0.09070871 -0.18271901 -0.70844489 85 53 61
-0.090908289 -0.18441656 -0.70839125 63 26 54
-0.090346083 -0.18227132 -0.70834523 87 54 61
-0.09214846 -0.18582451 -0.70873874 59 23 54
-0.092143506 -0.18566731 -0.70875376 58 23 54
-0.043231927 -0.14146484 -0.70693445 104 76 64
-0.042993024 -0.14253718 -0.70651978 109 82 68
-0.042782847 -0.14110468 -0.70701778 102 74 63
-0.041470304 -0.14185736 -0.70660758 115 89 74
-0.041766744 -0.1415251 -0.70675898 110 84 70
-0.043416776 -0.14119533 -0.70705146 100 72 61
-0.040851895 -0.14220814 -0.7064234 120 94 78
-0.033378262 -0.14253718 -0.7058515 110 80 71
-0.033884637 -0.14149317 -0.70627803 102 73 68
-0.033434566 -0.14255813 -0.70584714 110 80 71
-0.03407206 -0.14248356 -0.70591563 111 80 71
-0.032167807 -0.14193714 -0.70607132 103 76 69
-0.032854699 -0.14249267 -0.70586222 107 79 70
-0.05503254 -0.14619337 -0.70684856 62 40 45
-0.055822637 -0.14577833 -0.7070747 62 38 43
-0.053751223 -0.1453425 -0.70693231 67 47 49
-0.052914221 -0.14460209 -0.70703268 73 53 52
-0.054037657 -0.14595626 -0.7067948 63 43 48
-0.051974937 -0.14630422 -0.70642245 67 49 50
-0.051781822 -0.14631373 -0.7063936 68 49 50
-0.04660603 -0.14528762 -0.70604444 83 59 53
-0.045213904 -0.14521088 -0.70588797 84 59 54
-0.045266412 -0.14610477 -0.7056042 80 57 54
-0.046843927 -0.14571184 -0.7059375 82 58 52
-0.045070056 -0.14454611 -0.70608538 86 60 55
-0.046354748 -0.14443688 -0.70628834 87 60 53
-0.046936437 -0.14446257 -0.70635289 87 60 53
-0.041427877 -0.14560886 -0.70533699 97 80 74
-0.042240787 -0.14580515 -0.7053625 92 75 69
-0.041327842 -0.14576998 -0.70527226 96 80 74
-0.043850124 -0.14621273 -0.70540661 84 64 60
-0.041170023 -0.14445543 -0.70569181 107 88 77
-0.041135997 -0.14304307 -0.70615774 119 96 80
-0.042578336 -0.1429977 -0.70632535 110 85 71
-0.043356441 -0.14342539 -0.70626736 103 77 66
-0.044858474 -0.14500901 -0.70590895 85 60 55
-0.042670984 -0.14351638 -0.70616633 107 83 70
-0.041984368 -0.14287232 -0.70630419 115 90 75
-0.040705953 -0.14636637 -0.70501602 92 78 74
-0.038370602 -0.14500833 -0.70530623 104 80 73
-0.037172321 -0.14473593 -0.70530277 108 81 72
-0.03746099 -0.146175 -0.70481068 101 81 72
-0.038402986 -0.14512041 -0.70526874 103 80 73
-0.040736753 -0.1432368 -0.70606363 118 95 80
-0.039059266 -0.14398491 -0.70571738 109 83 75
-0.03897395 -0.14440228 -0.70557362 105 80 74
-0.040963318 -0.14387025 -0.70586622 113 92 79
-0.040806059 -0.14345822 -0.70599407 116 94 79
-0.039626919 -0.14351566 -0.70590645 114 88 77
-0.033379097 -0.14281158 -0.70575315 109 80 70
-0.034933366 -0.14543018 -0.70492762 98 75 70
-0.035116062 -0.14461003 -0.70521843 104 80 71
-0.033598129 -0.14333814 -0.70558262 106 79 70
-0.035147693 -0.14541435 -0.70494336 99 76 70
-0.0358507 -0.14424717 -0.70539325 108 81 72
-0.033981368 -0.14330442 -0.70561349 108 81 71
-0.035166502 -0.14438675 -0.70529991 106 81 71
-0.03612332 -0.14532807 -0.70502257 104 81 71
-0.036803015 -0.14506906 -0.70515853 106 81 72
-0.061652455 -0.14949003 -0.70685416 76 49 45
-0.058766257 -0.14829558 -0.70676309 65 40 41
-0.058020044 -0.14892516 -0.7065109 62 37 39
-0.057625476 -0.14955454 -0.70630169 62 37 38
-0.057831638 -0.14826556 -0.7066558 62 37 40
-0.059078265 -0.1494025 -0.70651972 64 38 39
-0.05879486 -0.1491176 -0.70655739 64 38 39
-0.055356879 -0.14963005 -0.70599991 59 37 39
-0.053813532 -0.14910607 -0.70594054 58 38 40
-0.054957483 -0.1492009 -0.7060588 60 38 40
-0.05370786 -0.14998184 -0.7057057 56 35 35
-0.052753557 -0.14978233 -0.70563751 55 35 35
-0.054310333 -0.14865504 -0.70611656 60 40 42
-0.055212501 -0.14864039 -0.70623308 61 40 42
-0.054848 -0.14850152 -0.70622247 61 41 43
-0.055613592 -0.14878677 -0.70624632 61 38 41
-0.054263312 -0.14694047 -0.7065466 62 42 46
-0.054491825 -0.14710109 -0.7065345 62 42 45
-0.051154219 -0.14960295 -0.70543325 57 37 37
-0.049918603 -0.15023041 -0.70502633 50 32 37
-0.049117751 -0.14912772 -0.70521104 58 39 41
-0.050508313 -0.14863838 -0.70560467 64 43 41
-0.049128547 -0.14847192 -0.70540792 63 43 43
-0.049207538 -0.14845929 -0.70542574 63 43 43
-0.051823042 -0.14927198 -0.70564187 60 39 37
-0.052335951 -0.14783038 -0.70607567 62 43 44
-0.052173857 -0.14671108 -0.70633721 65 47 49
-0.051195543 -0.14656198 -0.70624346 69 50 50
-0.045356229 -0.14755552 -0.70516604 70 49 50
-0.045289729 -0.14789046 -0.70505267 68 47 49
-0.047804724 -0.14945193 -0.70492858 55 37 42
-0.046575747 -0.14884154 -0.70494193 60 41 45
-0.047538769 -0.14969417 -0.70481551 53 35 41
-0.04824096 -0.14999948 -0.70482135 51 33 39
-0.045239955 -0.14678583 -0.70538777 76 54 53
-0.046076346 -0.14712593 -0.70539564 73 52 51
-0.047939725 -0.14899379 -0.70508343 59 40 43
-0.042526193 -0.14903571 -0.70438725 64 46 51
-0.041285191 -0.14684856 -0.70491797 87 73 71
-0.043537065 -0.14940585 -0.7043795 60 42 48
-0.041092765 -0.14939147 -0.70413345 61 42 47
-0.041755442 -0.14992994 -0.70403934 55 35 42
-0.042035803 -0.14811563 -0.70461369 74 57 60
-0.043587308 -0.1470248 -0.70511937 79 60 59
-0.043415759 -0.14769107 -0.70489371 74 56 58
-0.044035826 -0.14867985 -0.70465648 65 46 51
-0.043880835 -0.14874892 -0.70461774 65 46 51
-0.041898217 -0.14708512 -0.70491213 83 69 68
-0.042787716 -0.14677233 -0.70510834 83 66 64
-0.038143124 -0.14753184 -0.70444232 87 68 62
-0.037253659 -0.14682408 -0.70458168 96 78 69
-0.037787028 -0.1488304 -0.70403659 73 57 52
-0.039172612 -0.14817122 -0.70433688 78 59 57
-0.040404622 -0.14790185 -0.70452189 78 61 61
-0.039111048 -0.14764594 -0.70448965 83 65 62
-0.03909298 -0.14741333 -0.70455807 86 68 64
-0.04065812 -0.14875528 -0.70428669 68 50 53
-0.039190941 -0.14807798 -0.70436645 79 60 58
-0.03456068 -0.14881639 -0.70389396 70 51 55
-0.035352249 -0.14905919 -0.70384604 68 50 51
-0.036933754 -0.14704008 -0.70449936 94 75 67
-0.035827279 -0.14827779 -0.70408493 75 58 56
-0.036611214 -0.14750974 -0.70434672 87 69 63
-0.061127018 -0.15158331 -0.70624441 70 43 41
-0.061331555 -0.15194632 -0.70618647 72 44 42
-0.06124327 -0.15167867 -0.70623899 71 44 42
-0.060573153 -0.15307102 -0.7057876 67 40 39
-0.061926082 -0.15082461 -0.70654911 75 48 45
-0.061668761 -0.15095578 -0.70647991 73 46 44
-0.058005806 -0.15209764 -0.7057088 62 37 37
-0.057430852 -0.15224349 -0.70559573 61 37 37
-0.058348209 -0.15381128 -0.70531422 62 39 38
-0.057887498 -0.15259276 -0.70556623 61 38 37
-0.057132319 -0.15427811 -0.70503449 60 39 38
-0.060271576 -0.15345921 -0.70565307 66 39 39
-0.059473623 -0.15232098 -0.70583731 65 38 38
-0.0595548 -0.15047222 -0.7063064 65 38 39
-0.060520813 -0.15208903 -0.70602411 67 39 39
-0.060284298 -0.15307297 -0.70575058 66 39 39
-0.055542406 -0.15397169 -0.70490092 59 40 37
-0.055581309 -0.15364866 -0.70499367 58 39 37
-0.054807682 -0.15284912 -0.70510292 57 37 36
-0.054786913 -0.15330334 -0.70497715 58 39 36
-0.052802481 -0.15109515 -0.70529991 55 34 33
-0.052823946 -0.15420131 -0.70446235 61 43 37
-0.054954179 -0.15078366 -0.70565647 57 35 35
-0.054663137 -0.15150519 -0.7054351 56 35 35
-0.055096816 -0.15192553 -0.70538127 57 36 35
-0.055648673 -0.1526227 -0.70527107 57 37 36
-0.056621946 -0.15181272 -0.7055999 59 37 37
-0.050755367 -0.15273705 -0.70450133 55 37 37
-0.049012352 -0.15397896 -0.70391309 53 35 31
-0.048872858 -0.1519857 -0.704391 50 33 34
-0.04909353 -0.15077257 -0.70473039 49 32 37
-0.049301412 -0.15370503 -0.70402771 54 36 32
-0.04891973 -0.1536331 -0.7039851 53 35 31
-0.051877052 -0.15295975 -0.704633 57 39 37
-0.052127071 -0.15362188 -0.70449841 59 41 37
-0.051914092 -0.15160322 -0.70500666 55 35 35
-0.051005624 -0.1515988 -0.70484573 53 35 36
-0.052110448 -0.150599 -0.70531344 53 33 34
-0.052501339 -0.15055579 -0.70539492 53 33 33
-0.045158837 -0.15298748 -0.70361072 46 29 30
-0.044945404 -0.15187551 -0.70385796 47 29 34
-0.046107963 -0.15193003 -0.704009 50 31 35
-0.046758287 -0.15338299 -0.70373839 50 32 30
-0.047638927 -0.15400358 -0.70370847 51 33 29
-0.047015805 -0.15121256 -0.70431852 50 31 37
-0.048016872 -0.15131836 -0.70443523 49 31 36
-0.047664031 -0.15173024 -0.70428145 50 32 35
-0.046273045 -0.15057936 -0.70437109 49 30 38
-0.04829675 -0.15150635 -0.70442814 49 32 35
-0.042556617 -0.1515459 -0.70369351 48 29 34
-0.044768173 -0.15063439 -0.70414853 49 29 39
-0.041817602 -0.15048304 -0.70388412 50 29 38
-0.044370979 -0.15162256 -0.7038613 48 29 35
-0.044446088 -0.15132381 -0.70394355 48 29 36
-0.040397666 -0.15130578 -0.70351994 51 31 37
-0.061042044 -0.15484202 -0.7054134 71 45 42
-0.060567256 -0.15685129 -0.70481122 73 44 42
-0.061164577 -0.15708421 -0.70484364 77 50 46
-0.061162751 -0.15584296 -0.70516944 74 47 45
-0.061313704 -0.15601212 -0.70514858 76 49 46
-0.057117078 -0.15670398 -0.70427626 57 38 37
-0.058488183 -0.15624163 -0.70469123 66 43 40
-0.057491947 -0.15680215 -0.70431691 59 39 38
-0.057629958 -0.15565713 -0.70471495 62 41 39
-0.058161777 -0.15752468 -0.70421201 62 40 39
-0.058280498 -0.15799202 -0.70408332 61 40 38
-0.058922596 -0.1552218 -0.70502228 65 41 39
-0.058952499 -0.15511978 -0.70505309 65 41 39
-0.060413584 -0.15434803 -0.70544803 66 40 39
-0.058644686 -0.15482752 -0.70508933 64 40 39
-0.060140654 -0.15526256 -0.70517194 68 41 40
-0.059905354 -0.15705606 -0.70466983 72 44 42
-0.05375161 -0.15749584 -0.70361477 52 38 39
-0.052824277 -0.15559466 -0.70406407 58 41 39
-0.052902523 -0.15750626 -0.70352852 52 38 40
-0.054292772 -0.15709582 -0.7037816 54 38 37
-0.053998932 -0.15637752 -0.70395696 56 40 37
-0.055342127 -0.15773614 -0.70370287 52 37 36
-0.055777393 -0.15451075 -0.70477611 59 40 37
-0.055116177 -0.15525356 -0.70444357 58 40 37
-0.055526566 -0.15639913 -0.70412886 55 38 36
-0.055946395 -0.15447626 -0.70481068 59 40 37
-0.05616549 -0.15685177 -0.70407045 54 37 36
-0.055697072 -0.15441985 -0.70479447 59 40 37
-0.050083976 -0.15535371 -0.70370322 53 36 33
-0.051709127 -0.15536989 -0.70395643 56 39 36
-0.051065143 -0.15511529 -0.70392656 56 39 35
-0.050370991 -0.1552621 -0.70377463 54 37 34
-0.052721538 -0.15473559 -0.70429742 60 43 38
-0.04812263 -0.15475515 -0.70357633 52 35 29
-0.061407071 -0.15925306 -0.70438689 75 48 46
-0.058252182 -0.16022219 -0.70356798 57 39 37
-0.05867916 -0.1603163 -0.70362699 58 41 38
-0.057953682 -0.15846521 -0.7038939 58 39 37
-0.060107287 -0.15965509 -0.70404792 69 45 41
-0.060511395 -0.15927905 -0.70420891 73 46 43
-0.060286429 -0.15999135 -0.70400846 69 45 42
-0.057828933 -0.15909828 -0.70373023 56 39 37
-0.059414767 -0.15896244 -0.70406669 66 43 40
-0.079120673 -0.16583149 -0.70723617 68 53 55
-0.076447114 -0.16354664 -0.70700753 81 58 53
-0.078539237 -0.16556305 -0.70713758 70 54 56
-0.077653848 -0.16448778 -0.70713001 75 56 54
-0.078848526 -0.16568604 -0.70719421 69 54 55
-0.075356014 -0.16589843 -0.70622617 71 56 63
-0.073244415 -0.16537866 -0.70580202 70 50 58
-0.073581688 -0.16588356 -0.70578933 70 53 58
-0.073061764 -0.16594319 -0.70564914 69 52 57
-0.074073404 -0.16565044 -0.70595562 70 53 60
-0.075688809 -0.16359766 -0.70679194 80 56 55
-0.075552158 -0.16466108 -0.70652765 75 55 61
-0.075517684 -0.16384129 -0.70669353 78 55 57
-0.07609088 -0.1648746 -0.70662796 76 58 60
-0.075450763 -0.16364096 -0.70671821 79 54 56
-0.068685427 -0.16586733 -0.70458627 62 42 50
-0.072085664 -0.16508749 -0.70556933 70 49 56
-0.065629885 -0.16597097 -0.70379776 58 41 49
-0.065237314 -0.16446595 -0.704027 64 47 51
-0.066529401 -0.16549446 -0.70412958 61 42 50
-0.066554315 -0.16586007 -0.70405608 59 41 49
-0.065201409 -0.16491252 -0.70392036 62 45 51
-0.062537991 -0.16419941 -0.70352215 61 44 45
-0.062456936 -0.16291744 -0.70378268 66 48 46
-0.062486827 -0.16310565 -0.70374733 65 47 46
-0.063306928 -0.16264251 -0.70400614 69 51 50
-0.062496964 -0.16340885 -0.70368308 64 46 46
-0.064407431 -0.16285259 -0.7041719 71 53 54
-0.08036679 -0.16678992 -0.70739836 63 49 52
-0.081728891 -0.16966298 -0.70726794 58 43 52
-0.080986172 -0.16976863 -0.70706546 59 43 51
-0.077116646 -0.16644339 -0.70658928 69 56 61
-0.078594998 -0.16651221 -0.70697427 67 53 57
-0.079070225 -0.16635489 -0.70712739 66 52 55
-0.079474747 -0.16626123 -0.70725113 65 52 54
-0.079233311 -0.16719268 -0.70703405 65 50 54
-0.07995034 -0.16836987 -0.70703369 62 46 51
-0.078094758 -0.16876362 -0.70646578 62 47 54
-0.076714098 -0.16656421 -0.70646161 70 56 62
-0.079199567 -0.16975215 -0.70660102 59 43 50
-0.078997441 -0.16914383 -0.70664936 62 45 52
-0.07643348 -0.16847531 -0.70605743 62 47 54
-0.076236971 -0.1670001 -0.70625561 68 54 60
-0.074052297 -0.16802414 -0.70554328 62 45 51
-0.072524972 -0.16928095 -0.7050246 55 38 43
-0.072684184 -0.16818991 -0.70521706 60 43 47
-0.072648823 -0.1666306 -0.70543402 66 49 53
-0.07530833 -0.16908585 -0.70566767 58 42 49
-0.073641315 -0.16689222 -0.70562899 66 49 54
-0.07602673 -0.16731001 -0.70614868 66 52 58
-0.073612347 -0.16627914 -0.70572668 68 52 57
-0.075919859 -0.16825074 -0.70596135 62 47 54
-0.075779475 -0.16804343 -0.705962 63 48 55
-0.074516676 -0.16685176 -0.70585287 67 51 57
-0.07117027 -0.16975512 -0.70459658 53 36 41
-0.069659188 -0.1684913 -0.70439893 55 37 43
-0.069639608 -0.16957153 -0.70419872 53 36 41
-0.068965696 -0.16790992 -0.70430845 57 38 45
-0.069684461 -0.16892633 -0.70432764 55 37 42
-0.070451498 -0.16694191 -0.70485914 61 42 49
-0.069595873 -0.16633527 -0.70473653 62 42 50
-0.070402689 -0.16720784 -0.70480883 60 41 48
-0.071090803 -0.16680644 -0.70503563 63 44 50
-0.071725413 -0.16912158 -0.70485771 55 37 43
-0.072137266 -0.16878864 -0.70500678 57 39 44
-0.067352667 -0.16950636 -0.70362979 53 37 41
-0.067651279 -0.16895725 -0.70379406 54 37 42
-0.067726403 -0.1673229 -0.70409691 57 39 46
-0.067506664 -0.1668869 -0.70411527 58 39 47
-0.065467753 -0.16664706 -0.70363975 56 40 47
-0.066034831 -0.16662221 -0.70378757 57 40 47
-0.065656073 -0.16641596 -0.70372665 57 41 48
-0.082569711 -0.17069818 -0.70731086 59 44 54
-0.083374403 -0.17175964 -0.70734149 61 45 58
-0.082022712 -0.17149605 -0.70704693 62 45 55
-0.083527125 -0.17266858 -0.70723438 63 46 59
-0.081854217 -0.17268322 -0.70678431 64 46 57
-0.08302696 -0.17345822 -0.70696521 65 48 60
-0.082006723 -0.17381518 -0.70661068 66 47 59
-0.081325948 -0.17337987 -0.70650285 65 47 58
-0.080127701 -0.17172365 -0.70648342 63 44 53
-0.078783669 -0.17359117 -0.70581913 63 45 54
-0.078473322 -0.17307982 -0.70581937 62 44 54
-0.078903526 -0.17340913 -0.70586884 63 45 55
-0.077626549 -0.17326403 -0.70561266 60 44 52
-0.077371992 -0.17226166 -0.70568937 59 43 51
-0.077476457 -0.17225932 -0.70571226 59 43 51
-0.07878343 -0.17105517 -0.70624071 60 43 51
-0.078107134 -0.17115092 -0.70603609 60 42 51
-0.079444803 -0.17304808 -0.70604175 64 45 56
-0.077446356 -0.17093697 -0.70589495 59 42 50
-0.07739687 -0.17098589 -0.70587194 59 42 50
-0.073676385 -0.17352475 -0.7046169 56 39 45
-0.073664322 -0.17158021 -0.70495468 54 38 43
-0.073111713 -0.17314368 -0.70453411 55 38 43
-0.074025348 -0.17348431 -0.70471644 56 39 45
-0.072456934 -0.17184475 -0.70458841 54 36 42
-0.073028937 -0.17241013 -0.70464087 55 37 43
-0.074708059 -0.17035006 -0.70535833 54 38 45
-0.074565217 -0.17119199 -0.70521617 55 39 45
-0.076160483 -0.17330877 -0.70529068 56 42 48
-0.073909238 -0.17042984 -0.70517135 54 38 44
-0.076038405 -0.17158251 -0.70549041 56 41 48
-0.075861596 -0.17012128 -0.70564324 55 39 47
-0.068931527 -0.17160384 -0.7036407 55 36 39
-0.069712967 -0.17297491 -0.70361984 57 36 39
-0.070740439 -0.17255175 -0.7039842 55 36 41
-0.070494078 -0.17326312 -0.70378947 57 36 40
-0.070147544 -0.17057087 -0.7041648 53 36 40
-0.069475517 -0.16993806 -0.70408654 53 36 40
-0.071659282 -0.17119853 -0.70448035 53 36 41
-0.070781164 -0.1706726 -0.70432532 53 36 41
-0.072238065 -0.17167611 -0.7045595 54 36 41
-0.067926928 -0.16997589 -0.70367098 52 36 39
-0.084377468 -0.1742444 -0.7072314 65 48 61
-0.085074969 -0.17526332 -0.70731485 64 45 60
-0.084781967 -0.17658012 -0.70703483 63 44 61
-0.084412895 -0.17577547 -0.70702791 64 46 62
-0.084001444 -0.17491165 -0.70701557 65 48 62
-0.085266955 -0.17633791 -0.70722753 63 42 60
-0.080337904 -0.17562573 -0.70586658 71 50 61
-0.08208032 -0.1760311 -0.70631498 66 47 61
-0.082186073 -0.17730792 -0.70614952 69 50 64
-0.080868781 -0.17754219 -0.70572728 74 53 64
-0.081837237 -0.17764689 -0.70599508 71 51 64
-0.080097504 -0.17478037 -0.70592618 69 49 59
-0.083630621 -0.17486706 -0.70691699 65 48 62
-0.083284803 -0.17651793 -0.7065866 64 47 63
-0.083621606 -0.17718372 -0.70658702 64 47 64
-0.082205914 -0.17466593 -0.70654571 66 47 60
-0.083561867 -0.17426525 -0.70698273 65 48 61
-0.077024311 -0.17624868 -0.70505196 66 49 57
-0.079214416 -0.17755263 -0.70531452 75 54 63
-0.076770961 -0.1770753 -0.70488089 69 51 59
-0.076929942 -0.17679766 -0.70495349 68 51 58
-0.078016773 -0.17604768 -0.70528489 68 50 57
-0.076827444 -0.17390837 -0.70535392 58 43 50
-0.078975655 -0.17635095 -0.70544118 71 51 59
-0.078909121 -0.17442894 -0.70572257 65 47 56
-0.079527564 -0.17400506 -0.70592111 66 46 57
-0.078051597 -0.17568162 -0.70534497 67 49 56
-0.073940523 -0.17714013 -0.70413619 69 50 55
-0.073793299 -0.17764923 -0.70401555 72 53 56
-0.074681565 -0.17642806 -0.70445359 65 47 54
-0.075318411 -0.17749283 -0.70446366 69 52 58
-0.073494948 -0.17639218 -0.70412958 66 47 52
-0.072332434 -0.17729849 -0.70366472 71 52 52
-0.076022737 -0.17503992 -0.70501107 60 45 52
-0.073160082 -0.17420177 -0.70437312 57 39 45
-0.074408472 -0.17403191 -0.70472836 57 40 46
-0.073878139 -0.17514116 -0.70442826 60 42 49
-0.075833976 -0.17406137 -0.70510185 57 43 49
-0.075347252 -0.17384258 -0.70500439 56 41 47
-0.072225451 -0.17599037 -0.70384037 65 46 48
-0.07180535 -0.17508523 -0.70386416 62 42 45
-0.071954429 -0.17455627 -0.70398867 59 40 44
-0.07204736 -0.17591295 -0.70380348 65 46 48
-0.084882773 -0.17840061 -0.70683682 64 42 61
-0.086642675 -0.17905989 -0.70734477 63 34 55
-0.085330695 -0.17864887 -0.70695794 64 40 59
-0.085001931 -0.17939065 -0.70676839 64 41 60
-0.0844246 -0.1814031 -0.7063452 65 45 62
-0.08724656 -0.18143801 -0.70729715 66 28 49
-0.084350921 -0.17828809 -0.70667255 64 44 63
-0.086735904 -0.18088016 -0.70718724 66 31 52
-0.082795359 -0.18113203 -0.70588702 67 50 64
-0.081390016 -0.18149455 -0.70545715 69 52 65
-0.080667816 -0.18005732 -0.70539868 72 54 65
-0.080986634 -0.17989276 -0.70550448 72 53 65
-0.083135687 -0.18089637 -0.70600593 67 49 64
-0.08365155 -0.17913139 -0.70635545 65 48 64
-0.082337141 -0.17852241 -0.70603901 70 50 64
-0.081685945 -0.1779526 -0.70591265 72 52 64
-0.082025468 -0.17854832 -0.70594478 71 51 64
-0.082376547 -0.17950092 -0.70593989 70 51 64
-0.083571859 -0.18016914 -0.70621467 66 48 64
-0.077639669 -0.18129037 -0.70449656 71 53 64
-0.076863043 -0.18115747 -0.7043156 72 53 63
-0.076253004 -0.17969643 -0.70438206 71 53 62
-0.077045642 -0.17993411 -0.7045511 71 53 63
-0.077254169 -0.17975166 -0.7046333 70 53 63
-0.078162633 -0.18044633 -0.70476204 71 54 64
-0.079171464 -0.17841685 -0.70521128 74 55 64
-0.078968883 -0.17892586 -0.70511872 73 54 64
-0.076860264 -0.17839622 -0.7047382 70 53 62
-0.076888286 -0.17834474 -0.70474911 70 53 62
-0.078911409 -0.18015164 -0.70498419 71 54 65
-0.077980377 -0.17775673 -0.70503247 73 54 62
-0.072475679 -0.17824201 -0.70355499 73 52 55
-0.074889734 -0.18128857 -0.70374972 73 50 62
-0.074035905 -0.17969108 -0.70376652 73 53 58
-0.075888768 -0.18115044 -0.70405877 72 53 62
-0.073384851 -0.17811026 -0.7038309 73 53 56
-0.075134672 -0.17905308 -0.70417196 72 53 59
-0.075299017 -0.17937411 -0.7041682 72 53 60
-0.074271016 -0.17792413 -0.70410568 72 53 57
-0.074845672 -0.17925608 -0.70406044 72 53 59
-0.08583919 -0.18177044 -0.70678246 65 37 55
-0.086013921 -0.18200994 -0.70681417 64 37 52
-0.086119547 -0.18259735 -0.70678431 63 39 49
-0.086888634 -0.18299316 -0.7070002 63 36 43
-0.085102022 -0.18340263 -0.70637745 62 45 50
-0.085402586 -0.18516518 -0.70634371 60 42 42
-0.084042452 -0.18250616 -0.70612609 64 46 60
-0.085942671 -0.18525015 -0.70649773 60 42 38
-0.085611373 -0.18330437 -0.7065351 62 45 48
-0.08357922 -0.18542515 -0.70579189 62 42 49
-0.080367029 -0.18305975 -0.70505631 70 52 60
-0.080635421 -0.18525992 -0.70497674 69 48 51
-0.080604479 -0.18461935 -0.70501322 69 49 53
-0.081326425 -0.18321466 -0.70531482 68 50 59
-0.080629542 -0.18395497 -0.70506704 69 50 56
-0.0834672 -0.18311524 -0.70592159 64 46 58
-0.081070662 -0.18192972 -0.70533299 69 52 65
-0.082198143 -0.18176638 -0.7056601 67 51 64
-0.082868882 -0.18345939 -0.70573002 65 47 57
-0.082509451 -0.1818683 -0.70574015 67 50 64
-0.083918549 -0.18350917 -0.70602059 63 45 56
-0.076216757 -0.18424444 -0.70384115 64 43 51
-0.078862667 -0.18458208 -0.70454794 70 49 52
-0.078363404 -0.18541518 -0.7043342 66 45 48
-0.077013105 -0.18350664 -0.7041291 69 48 55
-0.076600038 -0.18343848 -0.70402014 68 47 55
-0.077247262 -0.18377267 -0.70417047 68 48 54
-0.078149892 -0.18202035 -0.70454824 71 53 63
-0.079865888 -0.18505216 -0.70477986 71 49 51
-0.080002584 -0.18243803 -0.70499933 71 53 63
-0.078762099 -0.18374547 -0.70458561 71 51 56
-0.078221351 -0.18248555 -0.70453399 71 52 61
-0.075979739 -0.18399319 -0.70379156 66 45 53
-0.074858755 -0.18238173 -0.7036137 71 47 61
-0.076007575 -0.18195646 -0.70398515 72 51 62
-0.084967248 -0.18660305 -0.70610744 62 41 45
-0.085419357 -0.1867387 -0.70622993 62 41 44
-0.085349664 -0.18621446 -0.70624977 61 41 43
-0.080456816 -0.18647406 -0.70483267 67 45 47
-0.080775857 -0.18700024 -0.7048831 64 43 45
-0.080078781 -0.18683378 -0.70468462 66 44 47
-0.08345525 -0.18647274 -0.70568877 60 40 45
-0.083134949 -0.1863611 -0.70560598 61 41 45
-0.082339458 -0.18678908 -0.70535499 62 41 44
-0.083003126 -0.1869949 -0.70552814 60 40 43
-0.078612514 -0.18576263 -0.70437241 66 44 48
-0.079958372 -0.18658045 -0.70467383 67 44 47
-0.077499472 -0.18617971 -0.70402485 61 40 46
-0.078937724 -0.18615696 -0.70442754 65 43 47
-0.079442583 -0.18569435 -0.70460981 68 46 49
-0.076709762 -0.18601806 -0.70381945 59 38 45
