ply
format ascii 1.0
comment PCL generated
element vertex 1004
property float x
property float y
property float z
property uchar red
property uchar green
property uchar blue
element camera 0
property float view_px
property float view_py
property float view_pz
property float x_axisx
property float x_axisy
property float x_axisz
property float y_axisx
property float y_axisy
property float y_axisz
property float z_axisx
property float z_axisy
property float z_axisz
property float focal
property float scalex
property float scaley
property float centerx
property float centery
property int viewportx
property int viewporty
property float k1
property float k2
end_header
-0.19095747 -0.63394922 -0.77081555 144 118 123
-0.1919305 -0.63345683 -0.77045619 134 107 110
-0.18938628 -0.63461572 -0.77076775 149 125 138
-0.19354333 -0.63483804 -0.77291197 122 89 95
-0.19147851 -0.63734937 -0.77358228 133 101 114
-0.1920817 -0.63649517 -0.77324593 129 97 107
-0.18995088 -0.63862681 -0.77342981 138 111 126
-0.19072297 -0.63763505 -0.7731216 134 107 119
-0.19072822 -0.63714463 -0.77273816 134 108 119
-0.18966793 -0.63640815 -0.77190423 142 118 132
-0.1905598 -0.63750768 -0.77285433 134 109 120
-0.19009177 -0.63645387 -0.77210879 139 115 127
-0.18952283 -0.63480979 -0.77101445 147 122 137
-0.19053088 -0.63715649 -0.77266014 135 110 121
-0.18713918 -0.63598943 -0.7699272 152 123 138
-0.1884585 -0.63533664 -0.77055281 149 122 137
-0.18784298 -0.63633376 -0.77087092 144 113 129
-0.18698448 -0.63692331 -0.77058446 145 112 128
-0.18910392 -0.63822693 -0.7725628 139 115 129
-0.18904959 -0.63659197 -0.7716862 143 118 132
-0.18704881 -0.63733214 -0.77097076 140 107 123
-0.1879545 -0.63704777 -0.77132082 141 112 127
-0.18930976 -0.63636297 -0.77171046 144 119 134
-0.18822126 -0.63676566 -0.77132124 142 113 129
-0.18487722 -0.63832867 -0.77004802 146 109 126
-0.18956555 -0.63928938 -0.77379715 140 114 130
-0.18919523 -0.63902193 -0.77327508 139 115 130
-0.18635763 -0.6400305 -0.77315408 137 106 124
-0.18652269 -0.64011759 -0.77336448 137 108 126
-0.18682808 -0.63943738 -0.77259642 137 107 123
-0.18563572 -0.63944066 -0.77194613 137 101 119
-0.18761083 -0.63896132 -0.77237141 138 109 124
-0.18264037 -0.63942587 -0.76994926 162 137 147
-0.18380347 -0.63952023 -0.77085841 153 124 136
-0.18346037 -0.64028376 -0.77168286 156 131 143
-0.18343142 -0.63955301 -0.77065837 156 129 139
-0.18246968 -0.63970506 -0.77023405 165 142 150
-0.18502654 -0.6388936 -0.77080202 141 105 121
-0.18416794 -0.6400761 -0.77186322 149 121 135
-0.18268155 -0.64118695 -0.7735002 149 127 139
-0.18237405 -0.64109516 -0.77315545 152 131 141
-0.18209291 -0.64014477 -0.77075356 166 146 153
-0.18264122 -0.64023566 -0.77119315 162 140 149
-0.18269952 -0.64058644 -0.77206147 157 135 145
-0.18441714 -0.64069456 -0.77301323 145 118 134
-0.17776033 -0.64037949 -0.77055269 191 179 173
-0.18034513 -0.64146298 -0.77331251 158 140 146
-0.17844711 -0.64124721 -0.77227449 171 156 156
-0.17900245 -0.64151525 -0.7729277 163 147 150
-0.1791704 -0.64059997 -0.77142644 179 166 164
-0.17916763 -0.64108032 -0.77224439 170 155 157
-0.18163338 -0.64025354 -0.77083296 167 149 155
-0.18026662 -0.64010417 -0.77035528 179 163 164
-0.17916633 -0.64018655 -0.77045864 185 172 169
-0.18102895 -0.64086628 -0.77225637 163 146 151
-0.18031704 -0.64078254 -0.77199322 169 154 156
-0.17597318 -0.64239472 -0.77262563 151 130 136
-0.17556435 -0.64201331 -0.77188164 150 125 130
-0.17550722 -0.64130163 -0.77072859 157 133 133
-0.17689875 -0.64040613 -0.77006871 184 169 163
-0.17402588 -0.64147753 -0.7701059 143 112 113
-0.17738061 -0.6408208 -0.77107573 180 165 162
-0.1762117 -0.64111608 -0.77085114 166 145 144
-0.17528012 -0.64114088 -0.77031314 159 134 133
-0.17520174 -0.64111817 -0.77022558 159 134 132
-0.17154127 -0.64223701 -0.77004498 150 126 131
-0.17355323 -0.64180213 -0.77023965 143 114 116
-0.17420904 -0.64270455 -0.77168614 145 121 126
-0.1740012 -0.64291763 -0.77182883 146 123 126
-0.17605552 -0.64269876 -0.77306676 152 133 139
-0.17633465 -0.64279926 -0.77341777 154 136 143
-0.17355751 -0.6433816 -0.77225709 149 128 131
-0.17178494 -0.64297628 -0.77108115 153 133 137
-0.17275389 -0.64265686 -0.77096468 147 124 128
-0.17292468 -0.6426934 -0.77107453 147 123 128
-0.17051855 -0.64273989 -0.77031565 156 136 142
-0.17180996 -0.6441583 -0.77356082 157 138 143
-0.17009549 -0.64385217 -0.77314788 158 138 145
-0.17117307 -0.64402115 -0.77334613 157 138 144
-0.17204633 -0.64372623 -0.77237612 156 139 142
-0.17007655 -0.64354825 -0.77235639 158 138 145
-0.17172791 -0.64388686 -0.77286887 157 138 143
-0.21519443 -0.62075114 -0.78810579 108 77 82
-0.21557143 -0.6202842 -0.78854966 106 73 78
-0.21424344 -0.62267137 -0.78850001 88 71 77
-0.21471994 -0.6222176 -0.78933889 81 64 68
-0.21476968 -0.62136632 -0.78778744 107 79 85
-0.21459857 -0.62221915 -0.78889269 86 68 73
-0.21549159 -0.61996025 -0.7875241 109 78 84
-0.21573502 -0.61991107 -0.78837532 108 74 79
-0.21562839 -0.62001777 -0.78819329 108 75 80
-0.21554546 -0.62010497 -0.78806138 109 76 81
-0.21297237 -0.62359726 -0.786017 121 97 107
-0.21289155 -0.62556207 -0.78808433 97 70 81
-0.21326779 -0.62367791 -0.78702527 108 86 95
-0.21318744 -0.62340617 -0.78645641 115 93 102
-0.2132166 -0.62417817 -0.78745705 103 80 89
-0.21375053 -0.62361521 -0.78844333 88 72 78
-0.21386002 -0.62306672 -0.78791589 92 76 83
-0.19748622 -0.63810968 -0.78723961 121 118 105
-0.19864061 -0.63829386 -0.78857768 123 120 107
-0.19896466 -0.63495809 -0.78557074 104 97 92
-0.19748814 -0.63680065 -0.78593624 106 99 93
-0.19883275 -0.6376127 -0.78808957 119 115 104
-0.19821896 -0.63756877 -0.78743285 115 111 101
-0.19920574 -0.63584459 -0.78678119 116 110 103
-0.19917472 -0.63624263 -0.78711003 116 111 102
-0.19927418 -0.63554537 -0.78663278 119 114 107
-0.19994467 -0.63646203 -0.7890135 175 177 167
-0.20071015 -0.63482523 -0.78905725 223 229 223
-0.19990951 -0.63676786 -0.78924137 174 176 166
-0.19749679 -0.63945985 -0.78859866 128 126 111
-0.19817337 -0.63928103 -0.78909642 128 126 110
-0.1946048 -0.63965344 -0.78612924 118 110 109
-0.19444056 -0.63917947 -0.7855776 114 104 109
-0.19370221 -0.64223021 -0.78878003 193 192 197
-0.19472295 -0.64081347 -0.78786927 160 157 156
-0.19392781 -0.64089388 -0.78711945 148 143 146
-0.19373786 -0.64084738 -0.78684664 143 137 141
-0.19407187 -0.64046413 -0.78666312 135 129 130
-0.19423699 -0.64028341 -0.78658503 132 125 126
-0.1957355 -0.6413222 -0.78921831 156 154 148
-0.19713789 -0.63986087 -0.78868419 130 128 114
-0.1966994 -0.63965297 -0.78818637 138 136 124
-0.19688907 -0.64014298 -0.78880179 134 133 120
-0.19411008 -0.64235502 -0.7892859 192 190 195
-0.18194808 -0.64144313 -0.78608644 106 85 70
-0.18179521 -0.64205188 -0.78669906 105 83 68
-0.18225628 -0.64209795 -0.78673363 108 89 74
-0.18264559 -0.64216757 -0.78679365 110 94 79
-0.1824846 -0.64097649 -0.78577429 105 83 72
-0.18532917 -0.64210296 -0.78688848 123 118 106
-0.18535386 -0.64208144 -0.78688544 123 118 106
-0.18447593 -0.63941526 -0.78559804 88 39 51
-0.18403918 -0.64182419 -0.78647763 118 109 95
-0.1844513 -0.64044678 -0.78601211 101 69 71
-0.19336912 -0.64269733 -0.78903252 200 199 206
-0.18666179 -0.64265436 -0.7867831 148 150 139
-0.18925242 -0.64285338 -0.78595066 190 189 191
-0.18682362 -0.64305753 -0.7864297 158 158 149
-0.18615724 -0.64396656 -0.78601533 177 169 160
-0.1869252 -0.64319724 -0.78630543 164 162 154
-0.18622139 -0.64322191 -0.78649795 156 154 143
-0.18298878 -0.64363039 -0.78648841 147 126 114
-0.18326235 -0.64409131 -0.7861734 166 146 136
-0.18201345 -0.64297092 -0.78695637 120 98 85
-0.18189265 -0.64320499 -0.78680396 130 108 96
-0.18427321 -0.64392859 -0.78625387 161 144 132
-0.1848471 -0.64365232 -0.78642571 156 146 133
-0.18379793 -0.64271772 -0.78708136 122 112 97
-0.18497743 -0.64323694 -0.78670233 145 139 125
-0.17834902 -0.64811796 -0.78915471 198 187 188
-0.1781017 -0.64756042 -0.78660721 210 203 203
-0.17965001 -0.64705288 -0.78858757 207 197 198
-0.17874768 -0.64740747 -0.7876389 208 199 199
-0.17926507 -0.64723969 -0.78830689 207 197 198
-0.18012005 -0.64694917 -0.78936452 205 194 195
-0.17921871 -0.64675426 -0.78631312 219 212 213
-0.17926107 -0.64696217 -0.78729802 212 204 205
-0.17969008 -0.64651543 -0.78656375 220 213 215
-0.17435373 -0.648597 -0.78921705 177 170 171
-0.17492633 -0.64795053 -0.78761268 183 172 176
-0.17576055 -0.64834213 -0.78863794 185 175 177
-0.17697948 -0.64843422 -0.78892511 191 179 181
-0.17599387 -0.6484983 -0.78904223 186 175 177
-0.17587358 -0.6485306 -0.78911829 185 175 176
-0.17705636 -0.64788002 -0.78705156 201 191 192
-0.1757355 -0.64751905 -0.78621691 194 184 187
-0.17549853 -0.64739734 -0.78586811 193 184 187
-0.17566395 -0.6473909 -0.78579229 195 186 189
-0.17680857 -0.64793247 -0.78731471 197 187 189
-0.17460056 -0.64739084 -0.78613544 184 173 178
-0.17062148 -0.64917994 -0.78761238 196 180 177
-0.17000666 -0.64944237 -0.78808939 204 184 187
-0.17003734 -0.64895141 -0.78573829 194 181 165
-0.1704067 -0.64893925 -0.78616029 193 180 166
-0.17248151 -0.64900637 -0.78919053 186 173 177
-0.17221975 -0.64882082 -0.78794593 183 173 168
-0.17095625 -0.64858705 -0.78584599 190 178 167
-0.17233272 -0.64870018 -0.78772354 183 173 167
-0.1723603 -0.64783841 -0.78558248 186 174 171
-0.17324978 -0.64809054 -0.7872473 180 170 171
-0.17065646 -0.64871126 -0.78581238 191 179 166
-0.1729009 -0.64799476 -0.78660214 182 172 171
-0.16795145 -0.65051472 -0.78928035 218 198 212
-0.1664528 -0.65090311 -0.78900248 193 176 188
-0.16539232 -0.65053976 -0.78868377 212 195 206
-0.20221637 -0.62124503 -0.76656663 109 82 90
-0.20347245 -0.61920971 -0.76716626 111 83 93
-0.2026539 -0.61961436 -0.76637977 106 77 86
-0.20272084 -0.6200881 -0.7666617 108 81 89
-0.20285536 -0.62163591 -0.76766777 115 89 96
-0.20321248 -0.62153417 -0.76820087 117 91 96
-0.20327595 -0.62172109 -0.76863772 116 89 94
-0.20381823 -0.62138242 -0.76927608 118 91 96
-0.20394778 -0.62101781 -0.76897514 121 95 99
-0.20275836 -0.62269986 -0.76907635 109 81 86
-0.20156664 -0.62456924 -0.769593 100 72 79
-0.20266712 -0.62307799 -0.76948476 106 78 83
-0.20167142 -0.6240595 -0.76896554 102 75 81
-0.20205224 -0.62360227 -0.76902688 104 76 82
-0.19745399 -0.62668705 -0.76639163 119 78 89
-0.19903502 -0.62553477 -0.76692897 112 78 87
-0.20009246 -0.62466419 -0.76716322 108 77 85
-0.19790322 -0.62661874 -0.76693356 116 77 88
-0.19874799 -0.62550795 -0.76642382 114 79 89
-0.19999254 -0.62533778 -0.76813328 105 74 83
-0.19989109 -0.62522477 -0.76778108 107 75 84
-0.19895142 -0.62558544 -0.76688004 112 78 87
-0.20045032 -0.62567824 -0.76938075 101 72 79
-0.1999093 -0.62624359 -0.76925224 106 76 83
-0.20020176 -0.6257087 -0.76908141 102 72 80
-0.19772142 -0.62827605 -0.76903087 115 77 87
-0.19947615 -0.6270228 -0.76952142 111 81 87
-0.19802977 -0.62772286 -0.76862609 115 78 88
-0.19779167 -0.62803662 -0.76877147 115 78 88
-0.1979032 -0.62707895 -0.76750791 117 79 89
-0.1954626 -0.62862384 -0.76686484 118 79 88
-0.19399093 -0.62892878 -0.76624858 121 87 94
-0.19461572 -0.62945014 -0.76708573 117 80 87
-0.19594476 -0.62824756 -0.76682234 118 79 88
-0.19712009 -0.62775636 -0.76748365 118 78 88
-0.19605826 -0.62896025 -0.76799297 116 77 87
-0.19593313 -0.6293965 -0.7684871 115 77 86
-0.19408584 -0.63040549 -0.76777273 115 78 84
-0.19530398 -0.6297189 -0.7682125 115 77 85
-0.19566354 -0.62924647 -0.76794446 116 78 86
-0.19376898 -0.63070285 -0.76783204 115 78 84
-0.19641504 -0.63001108 -0.76990026 115 78 86
-0.19311452 -0.63040406 -0.76700693 116 81 87
-0.19241987 -0.63056105 -0.7666747 114 78 87
-0.19447196 -0.6308648 -0.76882911 116 80 85
-0.19340266 -0.63130486 -0.76818347 116 81 85
-0.19351956 -0.6325593 -0.76988894 119 90 90
-0.19179584 -0.63113576 -0.76680958 114 79 88
-0.19234191 -0.63152862 -0.76767474 116 82 89
-0.19093816 -0.63153362 -0.7666589 115 82 94
-0.19248682 -0.63189846 -0.76824456 117 85 90
-0.1917358 -0.63129437 -0.76693946 115 81 90
-0.19140296 -0.63314188 -0.7698471 138 113 115
-0.19240075 -0.63268077 -0.7693221 122 94 97
-0.19254559 -0.63285273 -0.7697829 126 98 100
-0.19042633 -0.63295203 -0.76891929 137 111 118
-0.18997228 -0.63272655 -0.76817918 134 107 116
-0.19120133 -0.63264537 -0.76862705 127 98 105
-0.18817377 -0.63338852 -0.76680952 128 97 115
-0.18818061 -0.63394696 -0.76802224 138 110 126
-0.18641174 -0.63475496 -0.76638293 132 100 121
-0.18814191 -0.63471884 -0.76960683 152 128 141
-0.18775323 -0.63456535 -0.76853538 145 118 133
-0.1873295 -0.63468355 -0.76798081 142 113 131
-0.189248 -0.63314909 -0.76842242 141 115 126
-0.18861686 -0.63398027 -0.76893497 145 119 132
-0.18631075 -0.63516337 -0.76720464 138 106 127
-0.18686362 -0.63611364 -0.7696538 151 120 136
-0.18555579 -0.63567364 -0.76670992 134 99 122
-0.1857947 -0.63603276 -0.76768708 139 104 126
-0.18570702 -0.63656062 -0.7683683 142 107 127
-0.18677251 -0.63483381 -0.7672742 138 107 127
-0.18721795 -0.63485307 -0.76817489 144 115 133
-0.18327282 -0.63810521 -0.7687614 148 116 132
-0.18219399 -0.63808787 -0.76805973 148 121 136
-0.18297802 -0.63784927 -0.76831937 149 118 133
-0.18357199 -0.63804477 -0.76889378 148 115 131
-0.18305807 -0.63715464 -0.76770115 152 122 135
-0.18367183 -0.6376881 -0.7686227 150 117 132
-0.18396407 -0.6368677 -0.76784486 150 118 133
-0.18385266 -0.63708389 -0.76813424 152 120 134
-0.18392865 -0.63617593 -0.76673812 144 113 130
-0.18255155 -0.63631642 -0.76632279 151 124 137
-0.1830585 -0.63666046 -0.76709938 152 123 136
-0.18535192 -0.63670635 -0.76823241 143 107 127
-0.18400238 -0.63587242 -0.76629388 142 111 129
-0.17806989 -0.63865119 -0.76648939 185 170 178
-0.18020384 -0.63811404 -0.76703924 162 140 151
-0.18148093 -0.63715285 -0.76669967 154 129 141
-0.18059336 -0.63856202 -0.76767427 156 133 147
-0.18049167 -0.63796973 -0.76703483 160 137 149
-0.18199173 -0.63928437 -0.76934379 159 136 146
-0.18384804 -0.63876855 -0.76982206 148 114 131
-0.18131824 -0.6396327 -0.76957786 169 149 156
-0.17992252 -0.63962883 -0.76950473 177 160 162
-0.17999355 -0.63878256 -0.7677629 164 144 156
-0.18041141 -0.63903791 -0.76865286 161 141 150
-0.17899692 -0.63929403 -0.76862955 179 163 166
-0.1803492 -0.63896257 -0.76842082 162 141 151
-0.1804809 -0.63897562 -0.76852143 160 139 149
-0.17951281 -0.63933355 -0.76899272 173 156 160
-0.17421298 -0.64125699 -0.7698037 148 118 118
-0.17613122 -0.63988948 -0.76802498 170 149 153
-0.17586268 -0.640558 -0.76954681 170 149 147
-0.1777202 -0.63893175 -0.76701862 190 177 182
-0.17693722 -0.64022422 -0.76970363 186 171 165
-0.17748387 -0.63880831 -0.76651305 186 171 179
-0.17423542 -0.64037848 -0.76850337 162 138 139
-0.17729528 -0.63891977 -0.76665604 184 169 176
-0.17688736 -0.63874912 -0.7664097 188 174 181
-0.17511596 -0.64039963 -0.76856655 160 135 138
-0.17386068 -0.64106476 -0.76941442 149 120 121
-0.17566858 -0.63895243 -0.76663589 186 172 176
-0.17096609 -0.63930231 -0.76604956 188 171 163
-0.1714157 -0.64060843 -0.76785767 175 159 160
-0.17065857 -0.64158756 -0.7688548 166 148 151
-0.17020629 -0.63975626 -0.76637888 183 165 156
-0.17183769 -0.63971412 -0.76685888 184 169 167
-0.17148051 -0.63976675 -0.76680899 183 168 164
-0.17062047 -0.64149022 -0.7687186 167 149 151
-0.17268437 -0.64031088 -0.76793289 174 157 159
-0.171699 -0.6410926 -0.7685886 168 150 154
-0.17171635 -0.64114678 -0.76866865 167 149 152
-0.17279206 -0.63991565 -0.76744336 180 166 167
-0.17343596 -0.63938934 -0.76699406 184 170 171
-0.17105052 -0.64223027 -0.76986092 153 130 134
-0.16903467 -0.63993293 -0.76642787 176 154 146
-0.16791432 -0.63978392 -0.76613414 171 144 137
-0.16942064 -0.64046562 -0.76714098 174 152 147
-0.16965392 -0.64066881 -0.76742095 173 153 148
-0.16250657 -0.64103639 -0.76716977 165 144 124
-0.16396114 -0.64006305 -0.76621819 155 125 106
-0.16147229 -0.64011878 -0.76621735 152 123 97
-0.21107015 -0.62431085 -0.78320807 128 104 115
-0.21109456 -0.62444353 -0.78343529 129 106 117
-0.21167466 -0.6235581 -0.7833845 123 96 110
-0.21049191 -0.6241464 -0.78184628 126 101 113
-0.21045451 -0.62421894 -0.78187048 127 102 114
-0.20928758 -0.62650597 -0.78314811 172 158 166
-0.20935546 -0.62648463 -0.78328282 174 159 168
-0.20955905 -0.62633532 -0.78349614 173 159 168
-0.21083562 -0.62477094 -0.78342551 135 113 123
-0.21259111 -0.62354678 -0.78520662 129 104 116
-0.21098176 -0.62566173 -0.78553599 191 178 184
-0.21126688 -0.62513286 -0.78513986 169 152 159
-0.21173625 -0.62464529 -0.78527778 157 138 147
-0.21099906 -0.62553722 -0.78532135 184 169 176
-0.20838951 -0.62675226 -0.78177285 139 121 128
-0.2093263 -0.62737435 -0.78522313 208 199 206
-0.20768914 -0.62777442 -0.78270972 152 134 144
-0.2065426 -0.62844056 -0.78202403 119 97 107
-0.20813516 -0.62701786 -0.78188938 140 122 129
-0.20885128 -0.62788761 -0.78540039 195 184 193
-0.2079207 -0.62788969 -0.78347099 162 147 156
-0.20768087 -0.62832355 -0.78406012 160 145 154
-0.20704553 -0.62851304 -0.78321433 141 122 133
-0.20728852 -0.62837839 -0.783382 148 130 140
-0.20641074 -0.62882322 -0.78366959 121 103 113
-0.2066081 -0.62873799 -0.78386825 127 110 119
-0.20558701 -0.62885123 -0.7847352 85 74 80
-0.20609502 -0.62889737 -0.78371078 110 92 102
-0.20585035 -0.62866676 -0.78540999 90 82 87
-0.20436957 -0.63004583 -0.78268993 96 74 85
-0.20376594 -0.63059193 -0.7831834 101 81 92
-0.20448089 -0.62972224 -0.78382349 89 73 81
-0.20487283 -0.62909019 -0.78526866 70 61 66
-0.20406647 -0.62991935 -0.78502172 92 83 88
-0.20494631 -0.62922686 -0.78406316 75 61 68
-0.20144767 -0.63273275 -0.78443003 119 107 114
-0.20265034 -0.63139653 -0.78490824 118 108 114
-0.20169157 -0.63221401 -0.78541803 117 109 114
-0.20233926 -0.63196647 -0.78395212 119 106 113
-0.201738 -0.63302958 -0.78222495 120 99 110
-0.20304018 -0.6313448 -0.78335321 108 91 100
-0.20301513 -0.63105226 -0.78470606 113 102 109
-0.20240562 -0.63218224 -0.78273386 114 94 104
-0.19994441 -0.63454801 -0.78358161 114 99 101
-0.20008859 -0.63451654 -0.78321511 116 99 103
-0.20048963 -0.63376915 -0.78418356 115 103 106
-0.20106433 -0.63355047 -0.78287375 122 104 113
-0.2005972 -0.63391626 -0.78326213 118 102 107
-0.20092756 -0.6335026 -0.7835446 120 104 111
-0.19774988 -0.63617688 -0.7851432 110 101 97
-0.19824836 -0.63573068 -0.78438461 121 110 107
-0.19864058 -0.63528854 -0.7851097 110 102 97
-0.19729327 -0.63661134 -0.78546572 105 97 93
-0.19876747 -0.63565654 -0.78265458 135 116 119
-0.19982244 -0.63481414 -0.78321952 117 99 103
-0.19892593 -0.63521868 -0.78414172 119 106 105
-0.19754218 -0.63669544 -0.78172594 159 137 141
-0.19919398 -0.63477206 -0.7853328 105 97 93
-0.19970025 -0.63521028 -0.78180927 132 108 116
-0.19434872 -0.63809299 -0.78424031 126 112 116
-0.19666468 -0.63707763 -0.78545439 107 99 96
-0.19593862 -0.63669932 -0.78423399 118 107 104
-0.19636165 -0.63696879 -0.7850045 111 102 99
-0.19536717 -0.63810223 -0.78533357 113 103 106
-0.19607821 -0.63710195 -0.78486836 113 104 101
-0.19587311 -0.63678318 -0.78280663 140 123 123
-0.19569433 -0.6367321 -0.78347743 129 115 113
-0.19681431 -0.63670903 -0.78426129 121 110 107
-0.19726186 -0.63684952 -0.78240091 152 133 134
-0.19680874 -0.63686442 -0.78200239 156 136 138
-0.19370678 -0.63678437 -0.78192031 145 126 125
-0.19406503 -0.63910383 -0.78504664 122 109 115
-0.19401966 -0.63909727 -0.78498411 123 109 116
-0.19178851 -0.63942844 -0.78279042 161 141 145
-0.19169594 -0.63874328 -0.78215539 150 128 138
-0.19131553 -0.63890702 -0.78192508 154 132 140
-0.18984963 -0.64165169 -0.78356892 202 192 188
-0.18979104 -0.64208019 -0.78416032 209 202 199
-0.18953994 -0.64192522 -0.78357613 207 199 193
-0.1911034 -0.64013994 -0.78290725 174 157 158
-0.1926429 -0.63930577 -0.78369528 157 137 146
-0.19330148 -0.64020741 -0.78546846 116 106 111
-0.19319332 -0.63928515 -0.78424984 139 121 130
-0.19050622 -0.64160168 -0.78435612 197 188 188
-0.19139208 -0.64064974 -0.78409439 182 168 172
-0.19152345 -0.64151418 -0.78547817 159 154 157
-0.19010764 -0.64243293 -0.78524667 196 193 194
-0.1887175 -0.64237857 -0.7831676 202 193 189
-0.18923983 -0.64229149 -0.78374147 210 202 198
-0.1892098 -0.64159232 -0.78260583 198 186 179
-0.18485229 -0.63899982 -0.78547204 82 28 45
-0.18277475 -0.63928616 -0.7845937 77 40 43
-0.18341911 -0.63898176 -0.7846536 74 32 40
-0.18395256 -0.63886267 -0.78483421 74 27 40
-0.18107192 -0.63899297 -0.78427017 70 46 47
-0.18140595 -0.638937 -0.78386354 65 40 39
-0.1801444 -0.6391834 -0.78543395 84 66 70
-0.18648276 -0.64343828 -0.78187436 191 178 181
-0.18792646 -0.64264321 -0.78251296 193 182 179
-0.18706492 -0.64292902 -0.78181767 186 173 173
-0.18631984 -0.64386833 -0.782372 194 183 189
-0.18646711 -0.64372909 -0.78233808 198 187 192
-0.18668191 -0.64431614 -0.78503352 196 185 181
-0.18618503 -0.64452225 -0.78497475 197 184 178
-0.18682669 -0.64407474 -0.78423536 195 185 185
-0.1864001 -0.64420694 -0.78398401 195 183 183
-0.18695033 -0.64417428 -0.78492808 196 186 183
-0.18652965 -0.64396548 -0.78315556 194 183 187
-0.18238185 -0.64476097 -0.78258491 188 175 170
-0.18343033 -0.64482927 -0.78368086 192 178 171
-0.1816572 -0.64471203 -0.78181082 185 173 169
-0.18286644 -0.64477271 -0.78290164 188 176 170
-0.18407272 -0.6449182 -0.78480268 198 182 174
-0.18501715 -0.6443522 -0.78255969 193 179 181
-0.18298021 -0.64474171 -0.78282636 188 176 170
-0.18535024 -0.64448607 -0.78340375 195 181 179
-0.18359263 -0.6444608 -0.78200984 189 176 176
-0.18361618 -0.64475304 -0.78334057 191 177 172
-0.17846261 -0.64606518 -0.78353292 193 178 182
-0.17944668 -0.64601952 -0.78470105 209 196 198
-0.17988068 -0.64598483 -0.78517073 215 203 203
-0.17957953 -0.64606762 -0.78496581 213 201 203
-0.17970435 -0.64562631 -0.78421152 200 181 181
-0.17878616 -0.64539808 -0.78224438 174 152 153
-0.18128616 -0.64506793 -0.78444988 203 183 178
-0.17888506 -0.64542133 -0.78267884 178 155 155
-0.18032454 -0.64521211 -0.78376603 193 172 169
-0.18088083 -0.64508504 -0.78374362 196 177 173
-0.17674768 -0.6461612 -0.78181297 176 154 164
-0.17794988 -0.64700359 -0.78467679 205 195 199
-0.17798477 -0.64727962 -0.78537482 214 207 208
-0.17508361 -0.64698273 -0.78192496 188 169 180
-0.17739448 -0.64748698 -0.78517658 212 205 205
-0.17721099 -0.64718521 -0.7843014 202 192 195
-0.17756023 -0.6471765 -0.78460175 204 194 197
-0.17735657 -0.64724445 -0.78457391 205 195 198
-0.17651588 -0.64742362 -0.78512734 205 197 198
-0.17609146 -0.64737916 -0.78521752 201 192 195
-0.17756982 -0.64749801 -0.78552663 213 207 206
-0.1745583 -0.64733756 -0.78347999 193 178 186
-0.17450388 -0.64736468 -0.78292233 194 178 186
-0.17057694 -0.64761567 -0.78293234 187 170 178
-0.17174186 -0.64750099 -0.78400129 185 170 176
-0.17165327 -0.64738137 -0.78359312 184 169 178
-0.17001909 -0.64810985 -0.78353888 190 174 174
-0.17073409 -0.64768833 -0.783301 187 171 177
-0.17069532 -0.64813358 -0.78438926 189 175 172
-0.17015353 -0.64770931 -0.7826761 188 170 178
-0.17378567 -0.64734119 -0.78225148 191 172 182
-0.17380449 -0.64729691 -0.78301686 188 171 181
-0.17220595 -0.64738059 -0.78179902 190 170 182
-0.17169279 -0.64729714 -0.78332317 184 168 179
-0.17361358 -0.64731747 -0.78268832 189 171 181
-0.16853258 -0.6486367 -0.78498381 195 180 169
-0.16643006 -0.64817083 -0.78410983 196 177 175
-0.16704227 -0.64818263 -0.78323156 193 180 175
-0.16899163 -0.64872211 -0.7850253 195 181 168
-0.16779876 -0.64837033 -0.78372979 193 181 173
-0.16983075 -0.64780968 -0.78263628 189 171 177
-0.16872381 -0.64787298 -0.7824952 189 175 177
-0.16788708 -0.64816082 -0.78299952 191 180 175
-0.16954051 -0.64773244 -0.78236026 188 171 178
-0.16965705 -0.64753258 -0.78188324 187 169 180
-0.16853423 -0.6476981 -0.78199798 188 174 180
-0.1639875 -0.64830476 -0.78474849 197 173 165
-0.16214716 -0.64833015 -0.78187901 189 173 167
-0.16218519 -0.64833295 -0.7823019 190 173 165
-0.16373508 -0.64831734 -0.78534192 197 173 160
-0.16284251 -0.64832109 -0.78302652 192 173 166
-0.16314529 -0.64823103 -0.78196073 190 174 170
-0.16590518 -0.64808983 -0.78390592 196 177 176
-0.16588777 -0.64810109 -0.78398925 197 176 176
-0.16535909 -0.64810306 -0.78338641 195 176 175
-0.16487414 -0.64800972 -0.78196394 190 178 176
-0.15988667 -0.64861012 -0.78525656 171 148 141
-0.16045301 -0.64837015 -0.78467971 175 154 143
-0.16024496 -0.64842701 -0.78477675 173 152 142
-0.16202891 -0.64833248 -0.78303802 190 172 160
-0.16059327 -0.64816368 -0.78302473 173 155 148
-0.16184987 -0.64833081 -0.78513902 191 170 149
-0.16010967 -0.64810139 -0.78243744 167 150 146
-0.16091987 -0.64821416 -0.78433764 179 159 145
-0.19822533 -0.61659074 -0.76160288 134 112 113
-0.19791369 -0.61655074 -0.76132208 133 111 112
-0.19737619 -0.61758351 -0.76102197 121 98 102
-0.1977313 -0.6180501 -0.76139039 118 95 99
-0.19564864 -0.61824548 -0.76041496 124 100 109
-0.1941151 -0.61719304 -0.75965732 139 113 125
-0.19388066 -0.6173442 -0.75960118 144 119 130
-0.19452035 -0.61835867 -0.76002747 142 120 128
-0.19428957 -0.61856085 -0.75998247 147 127 133
-0.1939429 -0.61798257 -0.75974602 148 125 134
-0.19719447 -0.6159606 -0.76064879 135 112 113
-0.19712362 -0.61737901 -0.76084167 122 99 103
-0.19594632 -0.61756516 -0.76040179 118 92 103
-0.19667257 -0.61588621 -0.76042932 135 111 114
-0.19661416 -0.61643642 -0.76049185 130 105 110
-0.18948278 -0.61844069 -0.7582987 87 39 73
-0.19130756 -0.61720097 -0.7587347 111 70 98
-0.19308195 -0.61724067 -0.75930655 146 118 132
-0.19318153 -0.61903542 -0.75968099 162 143 148
-0.19310018 -0.61646777 -0.75916421 140 110 126
-0.19268665 -0.61722147 -0.75918078 138 107 124
-0.19302467 -0.61598021 -0.75904751 134 101 121
-0.19026864 -0.61900324 -0.7587747 106 62 92
-0.19794022 -0.62006187 -0.76210374 110 84 89
-0.19712093 -0.62052947 -0.76168722 112 85 92
-0.19604771 -0.621364 -0.76170659 139 118 123
-0.19563958 -0.62170762 -0.76170546 147 127 133
-0.19416896 -0.62226039 -0.76139271 174 160 167
-0.1948816 -0.62091494 -0.76107168 154 138 144
-0.1935928 -0.62072074 -0.7605207 173 158 163
-0.19567339 -0.62041831 -0.76114511 139 121 127
-0.19432269 -0.62147939 -0.76111192 167 152 158
-0.19487819 -0.62016356 -0.76074708 150 132 138
-0.19372268 -0.62222582 -0.76121551 181 168 174
-0.19034661 -0.62220502 -0.75966871 144 121 130
-0.19121237 -0.62186986 -0.76005489 150 125 139
-0.19029288 -0.62109143 -0.75940484 128 96 115
-0.19118936 -0.62293905 -0.76026881 164 148 153
-0.19108561 -0.62207592 -0.76003152 151 128 140
-0.19161455 -0.62163335 -0.76021719 151 126 143
-0.19314007 -0.6218068 -0.76083559 179 165 172
-0.19190064 -0.6206063 -0.75993598 148 121 138
-0.192671 -0.62037587 -0.76007485 161 140 150
-0.19330531 -0.62036407 -0.76026583 173 158 162
-0.19234848 -0.62091279 -0.76020628 158 136 149
-0.19281545 -0.62035662 -0.76011121 164 144 153
-0.18848823 -0.61987001 -0.75842535 95 47 81
-0.18674444 -0.62163067 -0.75841653 105 60 89
-0.18678263 -0.62290919 -0.75875038 121 85 105
-0.18686377 -0.62174505 -0.75852233 106 61 90
-0.1890074 -0.62074578 -0.758789 110 70 95
-0.18796255 -0.62268627 -0.75896633 128 97 111
-0.18857905 -0.62059945 -0.75866252 104 61 89
-0.18790245 -0.62104034 -0.75860488 105 61 90
-0.18545778 -0.62252963 -0.75822282 109 67 93
-0.19495603 -0.62305707 -0.76205158 166 147 152
-0.19062559 -0.62615806 -0.76087719 161 138 144
-0.19212103 -0.62632132 -0.76197845 146 126 129
-0.19256778 -0.62518066 -0.76180047 162 145 149
-0.19083609 -0.62637675 -0.76111561 156 133 138
-0.19057871 -0.62527627 -0.76055825 166 144 150
-0.18971653 -0.62452251 -0.75990391 153 132 135
-0.19072157 -0.62402648 -0.76030344 163 145 149
-0.19165301 -0.62407601 -0.76080823 175 158 164
-0.19094782 -0.6239593 -0.76040512 166 148 153
-0.19185899 -0.62307751 -0.7606532 174 160 165
-0.18656655 -0.6258086 -0.75973082 150 121 132
-0.18677811 -0.62573093 -0.75971264 148 118 130
-0.18662162 -0.62631953 -0.75994873 158 130 139
-0.18801564 -0.62565941 -0.75976694 143 111 124
-0.1856084 -0.62342221 -0.75866538 118 78 102
-0.1868833 -0.62493634 -0.75938684 136 102 118
-0.18783519 -0.62490261 -0.7595045 138 105 119
-0.18822059 -0.62339967 -0.7591933 136 109 119
-0.18724066 -0.62421584 -0.7591905 130 96 113
-0.18811889 -0.62462771 -0.75949514 139 109 121
-0.18922579 -0.62386107 -0.75953943 146 124 128
-0.18628474 -0.62368613 -0.75883734 121 82 104
-0.18370116 -0.62427461 -0.75829154 115 71 93
-0.18371612 -0.62486714 -0.75862002 119 72 96
-0.18327527 -0.6251694 -0.75857383 120 73 95
-0.18421817 -0.62516308 -0.7589224 129 87 107
-0.18419032 -0.62457621 -0.75866657 120 75 99
-0.18294953 -0.62631506 -0.75895792 132 86 105
-0.18348837 -0.62571615 -0.75889689 129 85 105
-0.18340285 -0.62565106 -0.75883949 128 82 103
-0.18337461 -0.62533307 -0.75869626 123 75 98
-0.18129547 -0.62693334 -0.75865448 125 74 94
-0.18985702 -0.62759125 -0.7615425 163 138 141
-0.19122529 -0.62710935 -0.76183957 145 122 125
-0.18797016 -0.6286658 -0.76185715 169 145 151
-0.1865778 -0.62935644 -0.76198697 166 145 153
-0.18746926 -0.62853843 -0.76139933 162 139 147
-0.18606697 -0.62711298 -0.76028371 168 145 151
-0.18667637 -0.62862766 -0.76134121 163 141 150
-0.18755031 -0.6281184 -0.76105911 161 138 145
-0.18637258 -0.62702388 -0.76024473 168 144 149
-0.18440557 -0.63007647 -0.76173186 173 154 156
-0.18543884 -0.6282205 -0.76094341 169 147 154
-0.18442805 -0.62838858 -0.76058322 169 146 149
-0.18479541 -0.62806654 -0.76054078 170 147 151
-0.1830624 -0.63072085 -0.76152205 169 148 147
-0.18291551 -0.62994063 -0.76091355 166 143 141
-0.18238203 -0.6283437 -0.75979429 148 111 120
-0.18235476 -0.62770921 -0.75943387 142 100 113
-0.18220004 -0.62844574 -0.75978655 147 109 118
-0.18320805 -0.62714463 -0.75942242 146 107 120
-0.18193471 -0.6303184 -0.7607286 161 134 133
-0.18465918 -0.62730271 -0.76002145 164 137 143
-0.17992347 -0.62732309 -0.75845206 122 81 97
-0.17945607 -0.62767857 -0.7585007 125 87 100
-0.18071367 -0.62781841 -0.75899094 133 86 98
-0.18119632 -0.62824696 -0.75936049 138 94 105
-0.18071026 -0.62905735 -0.75967854 144 105 110
-0.18147378 -0.6304673 -0.76066262 159 131 129
-0.1798933 -0.6305148 -0.76026577 156 126 118
-0.18124864 -0.63080478 -0.76078898 161 135 130
-0.18017852 -0.63047969 -0.76032269 156 127 120
-0.18207321 -0.63180262 -0.76193231 169 146 140
-0.18054098 -0.63252228 -0.76195854 172 150 142
-0.17983763 -0.63254535 -0.76174068 173 152 145
-0.18100464 -0.63161868 -0.76135129 167 144 138
-0.17806032 -0.63260239 -0.76127851 171 150 138
-0.17991713 -0.63123482 -0.76074553 162 137 128
-0.17930715 -0.63139045 -0.76069939 163 137 126
-0.17794354 -0.63312894 -0.76164383 176 157 145
-0.17538168 -0.63365859 -0.76180518 161 137 116
-0.17654593 -0.63313365 -0.76149964 166 143 126
-0.17674057 -0.63352317 -0.76180804 171 151 135
-0.17656675 -0.63329691 -0.76162416 167 146 129
-0.17003046 -0.63526607 -0.76140553 139 104 85
-0.17021462 -0.63588154 -0.76203042 140 108 87
-0.16896978 -0.63557047 -0.76149553 139 104 87
-0.16803765 -0.63573706 -0.76150775 139 104 89
-0.16660579 -0.63598162 -0.76153916 139 101 87
-0.1675075 -0.63563561 -0.76135612 138 101 86
-0.16684128 -0.63552636 -0.76118213 137 99 82
-0.16731238 -0.63530123 -0.76104891 136 98 80
-0.16580941 -0.63617706 -0.76159084 140 103 89
-0.16463009 -0.63695431 -0.7620101 152 122 106
-0.16192968 -0.63748795 -0.76196361 167 148 125
-0.1612874 -0.63682246 -0.76144677 148 126 106
-0.16192803 -0.63676465 -0.76134038 151 128 107
-0.16068666 -0.63730586 -0.76191634 154 137 116
-0.21204296 -0.6162858 -0.77657497 112 84 92
-0.21213043 -0.61649382 -0.77693027 110 81 89
-0.21049388 -0.61896265 -0.7766816 135 109 118
-0.21134289 -0.61784393 -0.7769897 123 97 104
-0.21185571 -0.61697632 -0.77695417 114 86 93
-0.20959027 -0.6189934 -0.77501416 129 102 114
-0.21017805 -0.61873376 -0.77582204 129 103 113
-0.21017244 -0.61982226 -0.77672619 137 112 121
-0.20941223 -0.62033707 -0.77562928 134 108 119
-0.20998497 -0.61970758 -0.77629811 136 110 120
-0.20968081 -0.62246448 -0.77752322 143 118 125
-0.21048991 -0.61973631 -0.77726847 139 115 122
-0.21046872 -0.62038922 -0.77765441 141 117 124
-0.20952561 -0.62292689 -0.77756625 144 119 126
-0.20909443 -0.61995757 -0.77479476 130 104 116
-0.20872375 -0.62123221 -0.77534419 134 109 117
-0.20839207 -0.62143409 -0.77511948 134 109 117
-0.20649259 -0.62286305 -0.77404124 132 111 113
-0.20813535 -0.62100762 -0.77449977 131 106 115
-0.20776147 -0.62105447 -0.77410823 130 106 114
-0.20887309 -0.62016451 -0.7746982 130 104 115
-0.20763224 -0.62191331 -0.77461743 133 109 115
-0.20688254 -0.62308937 -0.77466089 134 113 115
-0.20619424 -0.62405252 -0.77462929 131 111 111
-0.20681846 -0.62368137 -0.77505189 134 112 114
-0.20646077 -0.62433684 -0.77519685 131 108 109
-0.20768677 -0.62376887 -0.77614301 136 112 115
-0.2057927 -0.62558264 -0.77556527 122 92 97
-0.20667426 -0.62499624 -0.77607757 127 98 103
-0.20546997 -0.62518471 -0.77479929 124 99 101
-0.20781991 -0.62441844 -0.7769382 134 107 112
-0.20829283 -0.62386805 -0.77698255 138 111 116
-0.20768157 -0.62507433 -0.77750057 133 105 110
-0.20687784 -0.62554169 -0.77689427 127 97 102
-0.20822735 -0.62447917 -0.77756315 139 113 117
-0.20489256 -0.62571514 -0.77459592 120 94 95
-0.20455304 -0.62535113 -0.77383059 123 101 99
-0.20542686 -0.62708867 -0.7766661 114 77 85
-0.20518139 -0.62807238 -0.77741092 113 75 83
-0.20321058 -0.62770241 -0.77454621 114 82 83
-0.20316002 -0.62752569 -0.77427822 114 83 83
-0.20417932 -0.62729383 -0.77527469 113 79 83
-0.20137656 -0.62980473 -0.77448952 115 84 85
-0.20382483 -0.62803966 -0.77558565 114 79 85
-0.2023983 -0.62883908 -0.77475733 114 82 84
-0.20397252 -0.62765241 -0.77541924 113 78 83
-0.20374499 -0.62852174 -0.77597213 114 79 85
-0.20490986 -0.62756956 -0.77646428 113 76 83
-0.20280902 -0.62977332 -0.77612531 115 82 87
-0.20270112 -0.6294347 -0.77559841 116 82 87
-0.20368552 -0.62925166 -0.7767154 114 79 85
-0.2039542 -0.63002747 -0.77767551 118 84 88
-0.20192914 -0.63080001 -0.77597106 118 87 90
-0.20393021 -0.6295324 -0.77724993 115 80 86
-0.20051715 -0.63050771 -0.77429783 116 86 88
-0.20048901 -0.63082129 -0.77453345 117 87 89
-0.20292418 -0.63116747 -0.7776044 121 88 92
-0.20131497 -0.63123274 -0.77585018 119 87 90
-0.20158076 -0.63142461 -0.77643108 120 87 91
-0.19912614 -0.63143957 -0.77399063 116 85 89
-0.1994132 -0.63159692 -0.7743966 116 84 89
-0.1981705 -0.63277972 -0.77469689 116 81 89
-0.19908722 -0.63199484 -0.77455437 116 82 89
-0.19869424 -0.63223499 -0.77447909 116 82 89
-0.19777626 -0.63327551 -0.77498221 115 81 89
-0.19802047 -0.6325146 -0.77416301 116 80 89
-0.20048802 -0.63180369 -0.77576923 118 86 90
-0.20078059 -0.63171095 -0.77595127 119 86 90
-0.19919598 -0.63297379 -0.77605796 116 85 89
-0.20088173 -0.63238603 -0.77703035 122 87 92
-0.20058243 -0.63253117 -0.77691638 121 87 92
-0.19918865 -0.63401908 -0.77771378 119 89 92
-0.19869205 -0.63401884 -0.77702898 117 85 90
-0.19614223 -0.63405484 -0.77444595 117 82 91
-0.19628285 -0.63456947 -0.77531219 116 83 91
-0.19683318 -0.63462299 -0.77592677 115 83 89
-0.19459294 -0.63506496 -0.7742644 122 87 96
-0.19519824 -0.63488203 -0.77465594 119 85 94
-0.19613282 -0.63538194 -0.77619517 119 88 93
-0.19648318 -0.63507593 -0.77615225 117 86 92
-0.19381697 -0.63665241 -0.77648914 139 110 116
-0.19442181 -0.63677084 -0.77742666 139 112 116
-0.19367082 -0.63638592 -0.77567929 136 105 112
-0.19361214 -0.63724071 -0.77771246 148 121 126
-0.19357298 -0.63658959 -0.77607393 139 109 115
-0.19346882 -0.63593823 -0.77436554 131 97 105
-0.19194181 -0.63715625 -0.77395248 133 100 113
-0.19232228 -0.63718802 -0.77511549 137 106 116
-0.19236356 -0.6372034 -0.77527702 138 107 117
-0.19262198 -0.63697404 -0.775325 137 106 115
-0.19165251 -0.63866574 -0.77760172 150 125 134
-0.19146125 -0.63858378 -0.77682209 147 121 131
-0.1922861 -0.63813424 -0.77756065 150 123 131
-0.19305122 -0.63671589 -0.77556032 138 107 115
-0.19272126 -0.6374374 -0.77669239 145 116 124
-0.19025996 -0.63937235 -0.77584553 147 121 134
-0.18965434 -0.63985622 -0.77555698 147 120 134
-0.18948066 -0.64011544 -0.775801 149 121 135
-0.19026898 -0.63941395 -0.77598202 147 121 134
-0.19007437 -0.63910282 -0.77457041 142 115 130
-0.18686712 -0.64180279 -0.77768755 143 115 119
-0.18789037 -0.64129013 -0.77733999 148 119 129
-0.18736964 -0.64116609 -0.77649337 146 116 128
-0.18623191 -0.64199185 -0.77755982 139 112 115
-0.18656573 -0.64164251 -0.77696228 141 113 120
-0.18625405 -0.64182007 -0.77712506 139 112 117
-0.18864459 -0.63971949 -0.77385169 140 113 130
-0.18730146 -0.64059448 -0.77489227 143 113 130
-0.18815088 -0.64069062 -0.77599585 148 118 133
-0.18943472 -0.64060068 -0.777026 154 124 137
-0.18641192 -0.64082706 -0.77464044 141 110 128
-0.18931067 -0.63966119 -0.77435446 143 117 132
-0.18281561 -0.64232296 -0.77575862 148 126 134
-0.18294135 -0.64236796 -0.77590853 148 126 133
-0.18465561 -0.64241177 -0.77720851 141 116 118
-0.18431389 -0.6412133 -0.77426183 141 114 129
-0.1842321 -0.64203447 -0.77640891 141 117 120
-0.18286648 -0.64153641 -0.7744776 146 125 134
-0.18277714 -0.64138585 -0.77403754 146 125 136
-0.18429823 -0.64138579 -0.77471352 141 115 127
-0.18323293 -0.64146006 -0.77443743 145 122 132
-0.18098634 -0.64254147 -0.77501613 154 134 146
-0.18054362 -0.64187348 -0.77402306 152 133 142
-0.17994365 -0.64193803 -0.77394509 152 134 142
-0.18064921 -0.6420809 -0.77432275 153 134 143
-0.18292509 -0.64296424 -0.77682906 157 135 141
-0.18485524 -0.64262271 -0.77764577 141 116 117
-0.18345623 -0.64293367 -0.77716172 154 131 135
-0.18241499 -0.64352113 -0.77740777 172 152 155
-0.17910355 -0.64429927 -0.77749312 173 154 158
-0.1784407 -0.64437759 -0.77744901 169 151 155
-0.17815115 -0.64453638 -0.77764189 170 152 155
-0.18036227 -0.64411551 -0.77751696 179 160 163
-0.17838185 -0.64270425 -0.77457649 158 141 149
-0.17809457 -0.64330739 -0.77552873 162 144 151
-0.17802125 -0.64297062 -0.77493393 160 143 150
-0.17990124 -0.64295357 -0.77541244 158 139 149
-0.17901702 -0.64391917 -0.77682239 164 145 152
-0.17880732 -0.64317858 -0.77550125 160 142 150
-0.17401113 -0.64434373 -0.7738384 156 140 141
-0.17746386 -0.64344692 -0.77542555 162 145 151
-0.17702201 -0.64394373 -0.77587461 163 146 150
-0.17629418 -0.64400661 -0.77532452 161 144 148
-0.17553897 -0.6443907 -0.77529812 161 144 146
-0.17613268 -0.64403141 -0.77522099 161 144 147
-0.17678761 -0.64314193 -0.7742939 158 142 148
-0.17582789 -0.64457637 -0.77592993 163 146 148
-0.17606597 -0.64463079 -0.77631575 164 146 148
-0.1744241 -0.64503396 -0.77646637 158 140 139
-0.17651199 -0.64471316 -0.7769683 165 147 149
-0.17695493 -0.64466071 -0.77713108 167 149 151
-0.17345493 -0.64549518 -0.77754313 155 136 135
-0.17271441 -0.64559191 -0.77738339 154 134 135
-0.17039382 -0.64463645 -0.77488428 156 135 142
-0.17124578 -0.64579391 -0.7770828 151 129 136
-0.17095263 -0.64553982 -0.77655524 152 130 137
-0.17045933 -0.6463055 -0.77756238 148 124 134
-0.17185099 -0.64440715 -0.7743457 157 138 142
-0.17225914 -0.64480388 -0.7756514 157 137 140
-0.1736743 -0.64531183 -0.77704442 156 137 136
-0.17256419 -0.64443964 -0.77423996 156 139 141
-0.17161401 -0.6443429 -0.77418745 157 138 143
-0.1703134 -0.6441443 -0.77387667 158 138 145
-0.16721061 -0.64609796 -0.7764709 164 141 150
-0.1667015 -0.64529133 -0.77515602 173 153 152
-0.16655427 -0.64519942 -0.77498728 175 155 153
-0.16682339 -0.64524144 -0.7751072 173 153 151
-0.16678402 -0.64560497 -0.77564275 170 149 152
-0.16941035 -0.64475256 -0.77478641 159 137 144
-0.16912103 -0.64474875 -0.77473277 161 140 145
-0.16991563 -0.64470655 -0.77479637 155 133 142
-0.16892105 -0.64426023 -0.77392304 165 145 148
-0.16889492 -0.64465803 -0.77455127 163 142 146
-0.16783141 -0.64523637 -0.77529609 167 147 146
-0.16268927 -0.64575315 -0.77447355 164 143 151
-0.16412751 -0.64600623 -0.7753672 165 142 153
-0.16374077 -0.64607173 -0.77536035 166 144 155
-0.16493322 -0.64595014 -0.77558696 168 145 154
-0.16450085 -0.64593917 -0.77540714 167 144 153
-0.16517881 -0.64620709 -0.77606428 167 143 155
-0.16385965 -0.64580446 -0.7749632 166 144 152
-0.16545203 -0.64587468 -0.77567017 171 148 156
-0.16085806 -0.64645225 -0.77544779 168 147 160
-0.16705705 -0.64650291 -0.77704865 162 137 151
-0.16883601 -0.64658612 -0.77757007 153 128 141
-0.16597211 -0.64678824 -0.77731693 169 145 160
-0.16482694 -0.6468966 -0.77739578 175 152 166
-0.16341387 -0.64659405 -0.77629328 173 151 165
-0.16522776 -0.64651495 -0.77663618 169 145 160
-0.16421361 -0.64669335 -0.77682811 174 152 166
-0.16073367 -0.64719301 -0.77693009 173 154 166
-0.16159654 -0.64708006 -0.7770254 179 160 173
-0.16203055 -0.64665532 -0.77602088 175 155 168
-0.16149715 -0.64660102 -0.77572817 171 150 163
-0.16033036 -0.6465143 -0.77550197 166 146 159
-0.1601015 -0.64653206 -0.77551699 165 145 158
-0.16611123 -0.65116519 -0.78970259 163 151 159
-0.16510412 -0.6509909 -0.78950554 183 171 177
-0.20226952 -0.6182515 -0.7653929 108 81 90
-0.20139264 -0.61729831 -0.76381606 113 88 93
-0.20179793 -0.61839288 -0.76470113 106 79 84
-0.20225395 -0.61884695 -0.76553065 104 75 83
-0.20020825 -0.61730707 -0.76285833 116 94 99
-0.20005941 -0.6189959 -0.76312631 105 79 81
-0.19967912 -0.61820072 -0.76271731 112 89 93
-0.20104797 -0.61727136 -0.76337808 113 89 93
-0.200158 -0.61842 -0.76306492 109 84 87
-0.19876222 -0.61819386 -0.76220214 118 96 100
-0.20182575 -0.62092257 -0.765953 104 76 84
-0.20130952 -0.61968386 -0.76439595 102 72 75
-0.20134115 -0.62007624 -0.76467735 102 73 77
-0.19932581 -0.61980581 -0.76289773 106 77 81
-0.19812129 -0.61989033 -0.76216686 110 84 89
-0.19920012 -0.62011409 -0.76291198 105 76 80
-0.19891207 -0.62090302 -0.76295733 105 73 77
-0.19933678 -0.62084985 -0.76320189 104 71 74
-0.20017411 -0.62096828 -0.7640065 103 73 76
-0.20013858 -0.62019104 -0.76351672 102 71 73
-0.19882849 -0.62169784 -0.76319003 104 71 75
-0.20008519 -0.6222105 -0.7646544 105 76 81
-0.20047435 -0.62052971 -0.76402664 103 72 75
-0.19911245 -0.62275863 -0.76407635 106 75 80
-0.19988222 -0.62111372 -0.7638219 104 72 76
-0.19652782 -0.62295419 -0.76236451 126 96 101
-0.19547608 -0.62292588 -0.76214707 154 132 137
-0.19736278 -0.62531567 -0.7649641 114 75 84
-0.20015478 -0.62365675 -0.76582903 109 80 88
-0.19806956 -0.62434971 -0.76462036 111 75 83
-0.1992128 -0.62343782 -0.76473486 108 77 84
-0.19833237 -0.62434161 -0.76485437 111 76 84
-0.1976124 -0.62544531 -0.76532787 114 76 85
-0.1993778 -0.62329453 -0.76473933 108 77 84
-0.19508958 -0.6235382 -0.76223522 150 128 133
-0.19585808 -0.62383956 -0.76248634 122 94 98
-0.19620362 -0.62351608 -0.76245737 122 92 97
-0.19488557 -0.62440276 -0.7624563 132 109 114
-0.19385311 -0.62430632 -0.76220167 161 146 151
-0.19631514 -0.62414151 -0.76278436 107 74 79
-0.19422539 -0.62661815 -0.76340121 108 83 88
-0.1961253 -0.62457514 -0.76305538 108 76 81
-0.19682291 -0.62463117 -0.76375914 110 74 81
-0.19571966 -0.6260367 -0.76418591 111 79 86
-0.19566841 -0.62541187 -0.76349455 109 78 84
-0.1964092 -0.62391329 -0.7626363 107 74 78
-0.1956645 -0.62565106 -0.76373738 110 78 84
-0.1957397 -0.62676865 -0.7649861 116 82 90
-0.19296548 -0.62625837 -0.76249272 133 114 117
-0.19300367 -0.62535226 -0.76222414 155 139 143
-0.19391797 -0.62781078 -0.76470625 116 88 93
-0.19377604 -0.62804776 -0.76491076 117 88 93
-0.19371517 -0.62736505 -0.76387411 111 86 91
-0.19406438 -0.62769359 -0.7646777 116 87 93
-0.19405524 -0.62789762 -0.76496154 117 88 93
-0.19131827 -0.62746167 -0.76233411 144 121 123
-0.19021995 -0.62938428 -0.76358449 128 100 106
-0.19009995 -0.62956226 -0.76368797 127 99 105
-0.19165127 -0.62847269 -0.76347542 114 88 93
-0.19082561 -0.62873101 -0.76328993 128 102 107
-0.18958643 -0.62879467 -0.76271051 158 132 135
-0.19189799 -0.62895072 -0.76431739 113 85 91
-0.19150271 -0.62949634 -0.7646963 114 85 92
-0.19127095 -0.62939399 -0.76431322 112 84 90
-0.19237934 -0.62922746 -0.7652052 118 87 94
-0.19111414 -0.62978894 -0.76471943 114 84 91
-0.19304162 -0.62912047 -0.76572728 121 89 95
-0.19046061 -0.6306392 -0.76521266 113 79 89
-0.19166553 -0.63001585 -0.76556814 117 84 92
-0.18596596 -0.63012236 -0.76243961 160 140 150
-0.18821694 -0.62928689 -0.7626093 159 134 140
-0.18658482 -0.62951046 -0.76217043 166 144 153
-0.18661684 -0.62975377 -0.76240903 160 138 147
-0.1875874 -0.63036722 -0.76336324 138 112 122
-0.18746608 -0.63032466 -0.76327568 140 114 124
-0.19052246 -0.63108218 -0.76584613 111 76 90
-0.19063976 -0.6309343 -0.76574212 111 76 88
-0.18910255 -0.63176739 -0.76540858 116 84 97
-0.18791777 -0.6329636 -0.76561338 121 89 106
-0.18678132 -0.63363522 -0.76509583 125 93 108
-0.18593897 -0.6344167 -0.76512372 129 97 113
-0.18575034 -0.63270378 -0.76389515 150 127 138
-0.18603908 -0.63187695 -0.76350945 154 134 143
-0.18599331 -0.63244855 -0.76385283 149 126 136
-0.18598416 -0.631006 -0.76292408 164 149 155
-0.18788503 -0.63209462 -0.76456898 123 93 104
-0.18561292 -0.63245559 -0.7636677 154 134 144
-0.1877327 -0.63180459 -0.76430726 129 101 111
-0.18515153 -0.63090014 -0.76250148 173 159 163
-0.18329301 -0.63308096 -0.7630437 165 146 150
-0.18264708 -0.63316077 -0.76288283 165 144 146
-0.18238932 -0.63216799 -0.76229507 169 147 143
-0.18284246 -0.63241613 -0.76256335 168 147 147
-0.18409945 -0.63385332 -0.76389068 151 127 136
-0.18256465 -0.63475758 -0.76379174 152 127 134
-0.18220867 -0.63462985 -0.76355267 156 132 138
-0.18498088 -0.63203681 -0.76311642 164 147 154
-0.18479238 -0.63182604 -0.76289809 168 152 158
-0.18340154 -0.63344121 -0.76331824 160 140 146
-0.18499443 -0.63474476 -0.76485723 135 104 119
-0.17845029 -0.63423979 -0.76249331 182 167 159
-0.18119974 -0.63377136 -0.76279074 165 142 141
-0.18055342 -0.63391346 -0.76273149 167 146 143
-0.18033884 -0.63338542 -0.76241785 171 150 144
-0.18100537 -0.63460129 -0.76317519 162 141 142
-0.17587441 -0.63470054 -0.76254606 179 162 143
-0.17539471 -0.63413286 -0.76215309 166 145 125
-0.17571957 -0.63420576 -0.76221776 170 151 132
-0.18336222 -0.63581049 -0.76587713 144 116 131
-0.18328021 -0.6357578 -0.76573217 145 117 131
-0.18371525 -0.63511282 -0.76486695 143 115 127
-0.18278314 -0.63552839 -0.76512778 149 122 133
-0.18239531 -0.63527548 -0.76454699 152 127 135
-0.18246286 -0.63600868 -0.76576352 150 124 135
-0.18122022 -0.63607752 -0.76518101 160 136 144
-0.18035215 -0.63671315 -0.76552731 166 144 152
-0.18132609 -0.63531089 -0.76402336 160 137 142
-0.17900959 -0.63715947 -0.765194 176 158 163
-0.1811561 -0.63654464 -0.76588672 159 135 145
-0.17876923 -0.63690251 -0.76489282 179 162 166
-0.17832853 -0.63501477 -0.76302749 191 180 173
-0.1786696 -0.63527966 -0.76333952 187 174 169
-0.17785345 -0.63812548 -0.7658847 184 168 174
-0.18025094 -0.63483906 -0.76320767 172 154 154
-0.17820705 -0.63595945 -0.76389933 189 176 173
-0.17863941 -0.63704336 -0.76500261 180 163 167
-0.17690082 -0.63701653 -0.76477814 191 179 177
-0.177219 -0.63681501 -0.76460123 191 179 177
-0.17673378 -0.63738906 -0.76512337 190 177 177
-0.17608516 -0.6371237 -0.76484442 192 181 178
-0.17475735 -0.63836914 -0.7659654 189 177 178
-0.17716174 -0.63622022 -0.76403606 194 183 178
-0.17637488 -0.63694274 -0.76468575 192 181 178
-0.17603552 -0.63491315 -0.76274008 183 167 150
-0.174567 -0.63745582 -0.76509082 189 178 173
-0.17651027 -0.63575447 -0.76356614 194 184 176
-0.17384438 -0.63522959 -0.76293194 163 140 114
-0.1767156 -0.63557774 -0.76340789 195 185 176
-0.1768035 -0.63544762 -0.76328826 195 185 175
-0.1709263 -0.63571554 -0.76216763 144 114 91
-0.17090681 -0.63647008 -0.76289928 156 130 109
-0.17055725 -0.63770527 -0.76396 173 152 137
-0.17066123 -0.63664621 -0.76296592 156 130 111
-0.17104818 -0.63646847 -0.76295871 157 132 111
-0.17174911 -0.63660175 -0.76339215 168 145 124
-0.17271648 -0.63635081 -0.7635507 170 149 128
-0.17316145 -0.63633657 -0.76371706 171 151 131
-0.17296043 -0.63591653 -0.76323533 167 145 121
-0.17111444 -0.63834757 -0.76480681 183 166 156
-0.17177565 -0.63720816 -0.76398778 175 155 138
-0.17208859 -0.63829619 -0.76515174 184 170 163
-0.17374739 -0.63660419 -0.76420915 174 157 141
-0.17336982 -0.63863385 -0.7659927 193 183 181
-0.16770208 -0.63861448 -0.7639783 171 147 139
-0.16797167 -0.63819849 -0.76374131 168 142 133
-0.16621161 -0.63849092 -0.76347446 162 133 128
-0.16710623 -0.63777566 -0.76318592 159 129 121
-0.16802719 -0.63668692 -0.76238167 145 112 98
-0.16960034 -0.63811904 -0.76403975 172 151 138
-0.16971898 -0.63805902 -0.764 172 150 137
