ply
format ascii 1.0
comment PCL generated
element vertex 833
property float x
property float y
property float z
property uchar red
property uchar green
property uchar blue
element camera 1
property float view_px
property float view_py
property float view_pz
property float x_axisx
property float x_axisy
property float x_axisz
property float y_axisx
property float y_axisy
property float y_axisz
property float z_axisx
property float z_axisy
property float z_axisz
property float focal
property float scalex
property float scaley
property float centerx
property float centery
property int viewportx
property int viewporty
property float k1
property float k2
end_header
-0.088286504 -0.58768994 -0.73875505 177 162 176
-0.086711869 -0.58786976 -0.73914951 171 154 168
-0.086294644 -0.5871731 -0.73876452 171 152 167
-0.10172228 -0.59153533 -0.73901343 164 146 162
-0.10000072 -0.59102982 -0.73910677 162 144 160
-0.096276507 -0.59145254 -0.74013889 157 134 165
-0.097632684 -0.59132951 -0.73976463 159 139 163
-0.09581428 -0.58934784 -0.73877722 163 148 170
-0.098854341 -0.59148252 -0.73961061 160 141 161
-0.095886841 -0.59007329 -0.73926502 161 142 168
-0.099191934 -0.590913 -0.73919272 162 143 161
-0.098239072 -0.59078848 -0.73926705 162 144 163
-0.096730292 -0.58968294 -0.7388286 163 147 168
-0.093191296 -0.59141487 -0.7405051 178 163 182
-0.092767097 -0.59141648 -0.74054825 182 170 185
-0.092303984 -0.59176993 -0.74082035 188 179 190
-0.094650552 -0.59134799 -0.74031734 163 142 170
-0.094369583 -0.59063572 -0.7398898 162 141 170
-0.093988955 -0.58933324 -0.73904353 167 150 173
-0.095616974 -0.58949941 -0.73891878 163 146 170
-0.095086172 -0.59060627 -0.73976487 160 139 168
-0.095276639 -0.59028304 -0.73951256 161 141 169
-0.09407378 -0.58946323 -0.73912114 166 149 173
-0.091542572 -0.5905683 -0.74013782 187 178 188
-0.091445647 -0.59033304 -0.7400009 186 176 187
-0.090190358 -0.58834332 -0.73890418 177 163 179
-0.090668701 -0.59060264 -0.74028462 189 179 188
-0.09123116 -0.59092027 -0.74040705 190 181 190
-0.088983849 -0.58853954 -0.73920411 180 166 179
-0.088896371 -0.58942801 -0.73980904 181 166 180
-0.08829888 -0.59162742 -0.74142236 172 151 171
-0.08846648 -0.58965808 -0.74004608 177 161 176
-0.088116266 -0.58863813 -0.73941451 177 162 176
-0.088841893 -0.58914906 -0.73962867 181 167 180
-0.089668967 -0.59016693 -0.74017012 184 171 183
-0.085535079 -0.59118712 -0.74152625 160 137 155
-0.085723989 -0.58806843 -0.73946708 165 145 161
-0.085838348 -0.58902335 -0.7400983 164 142 160
-0.08777348 -0.58974767 -0.74023587 173 154 171
-0.087052725 -0.59010798 -0.74061495 168 146 166
-0.086913601 -0.5879153 -0.73914301 172 155 170
-0.085362025 -0.5882287 -0.73964334 163 142 158
-0.11972563 -0.59537596 -0.73867482 161 145 160
-0.1175139 -0.59527117 -0.73886961 152 135 151
-0.11844454 -0.59557939 -0.73890048 158 143 158
-0.11233349 -0.59564245 -0.73962605 131 111 133
-0.11215831 -0.59472156 -0.73918831 131 109 133
-0.11152894 -0.59560013 -0.73970705 129 109 133
-0.11150811 -0.59516078 -0.73949027 129 108 133
-0.11296818 -0.59425884 -0.73886704 133 111 133
-0.11512891 -0.59520942 -0.73909092 137 116 133
-0.11514443 -0.59524786 -0.73910564 137 116 133
-0.10885101 -0.59419602 -0.73936707 148 130 149
-0.10819253 -0.59480989 -0.73974907 154 135 152
-0.10808613 -0.59545642 -0.74007672 155 135 152
-0.10880376 -0.59410268 -0.73932779 149 130 149
-0.11010969 -0.59494919 -0.73957282 138 119 141
-0.10789628 -0.59261781 -0.73871946 156 138 155
-0.11061013 -0.59487337 -0.73946929 134 115 138
-0.10928073 -0.59298044 -0.73870832 145 125 146
-0.10565376 -0.59243792 -0.73885947 163 145 160
-0.1065668 -0.59248102 -0.7387954 161 144 159
-0.10513353 -0.59273905 -0.7390542 164 146 161
-0.10647205 -0.59344494 -0.73927248 162 143 159
-0.10461809 -0.59264255 -0.73905843 165 146 162
-0.10562686 -0.59399003 -0.73962879 163 144 160
-0.10484526 -0.59339547 -0.73943615 164 145 161
-0.10527622 -0.59402621 -0.73972523 162 144 160
-0.10414778 -0.59251308 -0.73905188 165 147 163
-0.10446016 -0.59424621 -0.74003166 161 143 160
-0.10450929 -0.59567714 -0.74088502 157 139 159
-0.1042221 -0.59538752 -0.74077129 157 140 159
-0.10036488 -0.59290528 -0.74018008 159 141 160
-0.09967722 -0.59546161 -0.74206686 159 147 161
-0.10112256 -0.59374481 -0.74051428 158 141 160
-0.10061119 -0.59543628 -0.74177909 159 145 161
-0.10017132 -0.59375888 -0.74079967 159 143 160
-0.10182616 -0.59458357 -0.74086368 158 141 160
-0.099954911 -0.59276712 -0.74020791 160 142 160
-0.10311647 -0.59188282 -0.73889929 166 148 164
-0.10198878 -0.5937354 -0.74028146 159 141 160
-0.10318276 -0.59518951 -0.74087995 156 139 160
-0.10251102 -0.59237665 -0.73933899 163 145 162
-0.10254887 -0.59191096 -0.73904902 165 146 163
-0.10314368 -0.5951004 -0.74083531 157 139 160
-0.10198862 -0.59280217 -0.73971814 161 143 161
-0.095715448 -0.59314519 -0.74135619 154 130 163
-0.096192151 -0.59467459 -0.74223971 153 132 162
-0.098173402 -0.59450388 -0.74175489 158 141 162
-0.097540349 -0.59396648 -0.74153274 157 138 163
-0.096272342 -0.59507787 -0.74248135 153 132 162
-0.09938933 -0.59360272 -0.7409066 160 144 161
-0.09868782 -0.59369993 -0.74112016 159 142 162
-0.096785739 -0.59264761 -0.74083072 157 134 164
-0.097298816 -0.59261018 -0.74069673 157 136 163
-0.099071763 -0.59425318 -0.74140352 159 144 161
-0.097960494 -0.59199858 -0.74015218 158 137 162
-0.09406016 -0.59339482 -0.74178463 169 152 174
-0.094377324 -0.59460676 -0.74250489 164 147 170
-0.093467779 -0.59316081 -0.74173188 174 160 178
-0.093544267 -0.59365523 -0.74203432 173 159 177
-0.095348164 -0.59238964 -0.74093509 158 134 166
-0.092105515 -0.59213334 -0.74110824 190 181 190
-0.093234748 -0.59181124 -0.7407558 179 165 183
-0.094017543 -0.59267879 -0.74132508 170 153 175
-0.092235334 -0.59369868 -0.74226278 185 177 185
-0.090945907 -0.59324586 -0.74212039 185 175 184
-0.09036205 -0.59251177 -0.74167699 183 170 182
-0.09158501 -0.59242684 -0.74139553 191 183 190
-0.09005715 -0.5931223 -0.74218673 179 166 178
-0.088287972 -0.59241384 -0.74198663 170 149 168
-0.091215827 -0.59183496 -0.74102348 190 180 190
-0.087310426 -0.59220308 -0.74197465 166 143 163
-0.08675433 -0.5925104 -0.74226111 163 140 159
-0.086343542 -0.59207594 -0.74199402 162 139 158
-0.12798928 -0.59832394 -0.73932153 137 116 136
-0.12723631 -0.59958839 -0.73986363 138 116 143
-0.12841678 -0.59907824 -0.73966581 135 113 135
-0.12457599 -0.59760076 -0.7391873 151 127 151
-0.12307617 -0.5980016 -0.73956889 168 149 166
-0.1231581 -0.59804595 -0.73958021 168 148 166
-0.12327784 -0.59811115 -0.7395969 167 147 165
-0.12335805 -0.59685016 -0.73897463 159 134 156
-0.12342816 -0.59740537 -0.73923546 161 139 159
-0.12607343 -0.59692341 -0.73875302 145 123 143
-0.12657666 -0.59749919 -0.73896432 142 121 142
-0.12675019 -0.59837514 -0.73933721 141 119 143
-0.12626906 -0.59883869 -0.73958427 142 119 146
-0.12187728 -0.5963763 -0.73890787 162 140 159
-0.122131 -0.59644198 -0.73891276 161 139 159
-0.11999425 -0.5964123 -0.73913085 165 151 166
-0.11970144 -0.59614396 -0.73903227 164 150 165
-0.12088963 -0.59619117 -0.73892456 162 144 161
-0.11997318 -0.59873486 -0.74018139 175 163 170
-0.12174233 -0.59900254 -0.74017435 176 163 174
-0.12016484 -0.59814268 -0.73990154 173 160 169
-0.11981232 -0.59867036 -0.74016398 175 163 169
-0.119952 -0.59739089 -0.73957902 170 156 168
-0.11916097 -0.5979563 -0.73988998 172 160 167
-0.11734377 -0.59908211 -0.74065077 167 153 157
-0.11792748 -0.59858298 -0.74030972 167 154 159
-0.11560429 -0.59849441 -0.740628 154 138 144
-0.11612363 -0.59908062 -0.74084055 160 146 149
-0.11725067 -0.59944898 -0.74084902 168 155 157
-0.11645883 -0.5983085 -0.74040151 158 142 149
-0.11906151 -0.59710211 -0.73951596 168 155 165
-0.11885989 -0.59745187 -0.73969424 168 155 164
-0.11828144 -0.59591734 -0.73906529 158 143 157
-0.11757475 -0.59596241 -0.73915952 153 137 151
-0.11899827 -0.59889436 -0.74032789 175 164 167
-0.11411601 -0.59926796 -0.74125278 151 133 143
-0.11218958 -0.59711498 -0.7404083 136 116 137
-0.11152203 -0.59741086 -0.74068785 133 109 137
-0.11430953 -0.59875178 -0.74093539 152 135 143
-0.11246156 -0.59928894 -0.74155444 142 117 141
-0.11364011 -0.59869331 -0.74102062 147 129 142
-0.11318555 -0.59951562 -0.74155194 146 124 143
-0.11350899 -0.59769017 -0.74050218 144 127 140
-0.113901 -0.59739166 -0.74030292 143 125 138
-0.11487104 -0.5987379 -0.74085391 153 137 143
-0.11467636 -0.59728044 -0.74014878 144 126 138
-0.11434467 -0.59828222 -0.7406925 149 133 141
-0.11490192 -0.59745526 -0.74020761 146 128 138
-0.109934 -0.59939229 -0.74209368 149 127 150
-0.1092781 -0.59821582 -0.74148411 151 129 151
-0.10806016 -0.59862727 -0.74201214 165 150 161
-0.10912468 -0.59811246 -0.74145132 152 130 151
-0.11060724 -0.5993346 -0.74191028 142 116 145
-0.10886259 -0.59810418 -0.74150306 155 134 153
-0.10874132 -0.59609938 -0.74033082 150 129 149
-0.11103407 -0.59798026 -0.741072 135 110 139
-0.11111965 -0.59874481 -0.74148095 136 109 140
-0.10992537 -0.59644699 -0.74037099 141 120 143
-0.11094791 -0.59810376 -0.74115074 136 110 140
-0.10854013 -0.59667534 -0.74067271 153 131 151
-0.10686311 -0.59634495 -0.74082166 162 143 157
-0.10683381 -0.59777826 -0.74174511 167 153 162
-0.10706431 -0.59832984 -0.74204415 169 157 164
-0.10716531 -0.5979085 -0.74175119 168 154 163
-0.10689256 -0.59753644 -0.74157679 166 151 161
-0.10629703 -0.59703428 -0.7413944 163 146 159
-0.10394434 -0.5963434 -0.74145371 157 140 159
-0.10405036 -0.59596908 -0.74117815 157 139 159
-0.10355359 -0.59647387 -0.74162501 157 140 160
-0.10178941 -0.59666145 -0.74224967 158 143 160
-0.10165684 -0.59630197 -0.74204433 158 143 160
-0.1016405 -0.59619915 -0.74197948 157 142 160
-0.10269953 -0.59625906 -0.74171948 157 141 160
-0.10235912 -0.59585786 -0.74154496 156 141 160
-0.099564753 -0.59591019 -0.74238449 159 146 161
-0.1347809 -0.60016251 -0.73988682 139 112 126
-0.13493122 -0.60022384 -0.73990834 140 113 126
-0.13499421 -0.60334235 -0.74123222 145 120 138
-0.1340501 -0.60342562 -0.74128568 145 121 138
-0.13291289 -0.60217226 -0.74085057 139 116 133
-0.13289928 -0.60194528 -0.74077058 138 115 132
-0.13215755 -0.60174561 -0.74070477 137 116 132
-0.13359037 -0.60197783 -0.74075145 139 114 132
-0.13375783 -0.60073912 -0.74021161 137 112 127
-0.13356903 -0.60072309 -0.74021971 137 112 127
-0.1340532 -0.60072249 -0.74018139 138 112 127
-0.13379364 -0.6016739 -0.74060619 139 114 131
-0.12814413 -0.60150373 -0.74062306 144 123 146
-0.12713481 -0.60105759 -0.7404896 143 120 147
-0.12704648 -0.60114092 -0.74053156 144 121 148
-0.12909344 -0.60309613 -0.7412625 148 128 147
-0.12762639 -0.60281688 -0.74123031 149 126 150
-0.12806596 -0.600586 -0.74023736 140 120 143
-0.1304919 -0.601331 -0.74055809 137 118 133
-0.12794514 -0.59994364 -0.74000776 137 116 141
-0.1297151 -0.60061216 -0.74028587 136 115 134
-0.12756163 -0.59998536 -0.7400133 139 117 143
-0.12978907 -0.60036784 -0.74020135 134 114 132
-0.12494905 -0.60268748 -0.74142718 169 149 169
-0.12676111 -0.60345 -0.74156892 154 129 155
-0.12490688 -0.6020487 -0.7411716 168 148 168
-0.1232703 -0.60316294 -0.74177593 186 172 185
-0.12414674 -0.60128772 -0.74093294 173 155 172
-0.12317436 -0.60030574 -0.74062419 179 165 178
-0.1253701 -0.60167533 -0.74096876 162 141 163
-0.12662783 -0.60084146 -0.74044663 146 124 150
-0.12334235 -0.59977949 -0.7403909 176 161 175
-0.12619531 -0.60254663 -0.74124765 157 133 158
-0.12631628 -0.59991884 -0.74008119 146 125 151
-0.12111609 -0.60216367 -0.74157369 184 171 180
-0.12054233 -0.60179371 -0.74148017 183 170 178
-0.11954405 -0.60188627 -0.74167246 180 167 175
-0.11938205 -0.60258442 -0.74203318 180 165 176
-0.12093858 -0.60291243 -0.74196094 184 170 181
-0.1193063 -0.60053545 -0.74105632 180 168 172
-0.12098192 -0.60014313 -0.74071854 180 168 175
-0.1196996 -0.59973168 -0.74064368 180 168 171
-0.122772 -0.60156733 -0.74116826 184 170 182
-0.12065929 -0.60087341 -0.74103838 182 171 176
-0.12193706 -0.59981865 -0.74051803 179 166 176
-0.12300541 -0.59976709 -0.74042022 179 165 178
-0.11556981 -0.60168213 -0.74238396 163 146 152
-0.1180063 -0.60277724 -0.74238288 174 158 169
-0.11842188 -0.60302603 -0.74241942 176 160 172
-0.11788677 -0.60268235 -0.74235845 174 157 168
-0.1191069 -0.60257888 -0.74207145 179 164 175
-0.11836597 -0.60007226 -0.74097842 175 163 166
-0.11803922 -0.60086858 -0.74141341 174 160 165
-0.11683672 -0.60005194 -0.74120736 167 153 156
-0.11829817 -0.60075653 -0.741319 175 162 167
-0.11820493 -0.60129482 -0.74159312 174 160 167
-0.11519542 -0.60166544 -0.74247068 162 144 150
-0.111898 -0.60072792 -0.74250042 143 118 144
-0.11441921 -0.60071629 -0.74204558 156 138 147
-0.1136156 -0.6002655 -0.74192095 151 131 145
-0.11247358 -0.60031736 -0.74215424 145 122 144
-0.11311257 -0.60013485 -0.74193239 148 127 144
-0.11121973 -0.59996015 -0.74216384 138 110 142
-0.13507943 -0.60407227 -0.74152035 146 121 139
-0.13530411 -0.6039716 -0.74147421 147 123 140
-0.13331355 -0.6049037 -0.74192584 142 118 139
-0.13301891 -0.60626668 -0.74247181 141 118 141
-0.13430829 -0.60608339 -0.74233651 144 120 141
-0.13238105 -0.60616344 -0.74246311 140 117 141
-0.13165803 -0.60509139 -0.7420435 141 119 140
-0.13318211 -0.60430211 -0.7416777 143 120 139
-0.13313709 -0.6038453 -0.74147195 145 122 139
-0.13131323 -0.60380936 -0.74146742 146 128 142
-0.12872806 -0.60572904 -0.74252456 140 116 144
-0.12725943 -0.60550845 -0.74255478 141 117 146
-0.12960021 -0.60431087 -0.74180776 145 126 144
-0.12963945 -0.60542381 -0.74230635 141 119 143
-0.12727277 -0.60470802 -0.74215919 145 121 148
-0.12988128 -0.60388327 -0.74158323 147 128 144
-0.12899722 -0.60432851 -0.74186194 145 125 145
-0.12521227 -0.60443914 -0.74224842 163 142 163
-0.12571783 -0.60397148 -0.74195307 161 139 161
-0.12450375 -0.60441583 -0.74232012 169 150 168
-0.12631963 -0.60494721 -0.742374 150 127 153
-0.1259886 -0.60356033 -0.74169379 161 138 162
-0.1239589 -0.6042487 -0.74229199 175 158 173
-0.12176276 -0.60373616 -0.74226159 184 170 182
-0.099707648 -0.58381408 -0.73476976 148 135 158
-0.09628126 -0.58319199 -0.73484182 152 131 163
-0.099428892 -0.58388752 -0.73484796 149 136 159
-0.093423583 -0.58356428 -0.73543507 162 144 168
-0.092324875 -0.58294487 -0.73519218 168 154 172
-0.093473293 -0.58323562 -0.73521852 162 146 169
-0.095476031 -0.5835827 -0.73517555 152 132 163
-0.094129637 -0.58290762 -0.73493356 160 143 168
-0.088229775 -0.58263409 -0.73554832 167 150 176
-0.088450842 -0.5828892 -0.73568618 168 151 175
-0.088392235 -0.58353853 -0.73612773 169 153 176
-0.091687344 -0.58391839 -0.73590022 169 150 172
-0.08827363 -0.58161241 -0.73486131 165 147 175
-0.090976544 -0.58233017 -0.73497707 170 156 175
-0.09170714 -0.58298087 -0.73529959 170 156 174
-0.084186807 -0.58218205 -0.7357673 168 152 168
-0.084062025 -0.58273798 -0.73616207 167 149 166
-0.084643878 -0.58153027 -0.73526293 169 155 172
-0.084654197 -0.58220142 -0.73571807 168 153 170
-0.084031679 -0.58331132 -0.73655611 167 147 164
-0.08449889 -0.58154464 -0.73529208 168 155 171
-0.08714059 -0.58177859 -0.73511899 166 150 175
-0.086023927 -0.58156878 -0.73511577 168 153 174
-0.085991703 -0.58226889 -0.73558664 169 156 174
-0.085950069 -0.58144259 -0.73504066 167 153 174
-0.081203341 -0.58048224 -0.73499697 158 141 156
-0.082371064 -0.58138084 -0.73545748 162 145 160
-0.083603635 -0.5820291 -0.73573947 166 149 166
-0.082513891 -0.58081329 -0.73505306 163 147 163
-0.083331369 -0.58328086 -0.73662543 165 143 161
-0.082471199 -0.58246809 -0.73618245 162 141 158
-0.082435362 -0.58305925 -0.73659492 162 141 157
-0.10944396 -0.58711046 -0.73572385 142 122 143
-0.10774779 -0.58748817 -0.73606443 161 144 159
-0.10764735 -0.5870927 -0.73585671 160 144 158
-0.10805466 -0.58655447 -0.73553085 154 138 153
-0.10854062 -0.58767563 -0.73610377 153 135 153
-0.1098417 -0.58592743 -0.73511958 133 113 134
-0.11103194 -0.58733648 -0.73574889 126 103 130
-0.10971665 -0.58661032 -0.7354387 137 117 139
-0.10528412 -0.58784807 -0.73637718 162 148 164
-0.10699827 -0.58777916 -0.73626763 164 147 163
-0.10484321 -0.58613497 -0.73547196 150 126 155
-0.10562606 -0.5875839 -0.73622024 161 145 162
-0.10479908 -0.587412 -0.73616248 159 142 162
-0.10713025 -0.58651453 -0.73557311 159 143 158
-0.10610197 -0.5858224 -0.7352441 153 132 154
-0.10681465 -0.58605134 -0.73533535 157 139 156
-0.10696881 -0.58612531 -0.73536843 157 140 156
-0.10286667 -0.58502114 -0.73501158 143 118 152
-0.10255092 -0.58635783 -0.73577338 153 138 160
-0.1018878 -0.58545792 -0.73537409 150 133 158
-0.10106882 -0.58541143 -0.73545891 153 141 161
-0.10134796 -0.58602214 -0.73577231 155 142 161
-0.10142572 -0.58732098 -0.73654634 159 145 162
-0.10101483 -0.58619857 -0.73594618 156 142 161
-0.10003418 -0.58554739 -0.73574632 154 140 160
-0.10003004 -0.58650684 -0.73633045 157 142 161
-0.10134064 -0.58775014 -0.73682421 161 146 163
-0.10162831 -0.58714628 -0.73639965 159 145 162
-0.098174445 -0.58731741 -0.73710132 161 145 164
-0.098722905 -0.5873673 -0.7370559 161 144 163
-0.097424567 -0.58738095 -0.73724484 163 148 167
-0.097480007 -0.58586901 -0.73630369 156 138 162
-0.097031005 -0.58743745 -0.73733443 164 150 169
-0.097244687 -0.58604068 -0.73644239 157 140 163
-0.098379925 -0.58635062 -0.73647887 157 139 161
-0.099478073 -0.58565032 -0.73591089 154 140 160
-0.099149592 -0.5849247 -0.73551238 152 138 160
-0.097126655 -0.58502704 -0.73583663 153 135 161
-0.098656856 -0.58584344 -0.73613465 155 139 161
-0.099572919 -0.58769751 -0.73714304 161 144 161
-0.091810353 -0.5871138 -0.73791581 172 157 176
-0.091976002 -0.58718789 -0.73793691 172 157 176
-0.09328229 -0.58681875 -0.73749721 170 156 175
-0.09342543 -0.58731234 -0.73778856 170 157 175
-0.092647694 -0.58664179 -0.73748428 171 156 175
-0.092204213 -0.58473402 -0.73634094 170 152 172
-0.095616519 -0.58619082 -0.73676139 161 146 169
-0.095514856 -0.58722007 -0.73741084 166 154 173
-0.09299501 -0.58455813 -0.73611653 166 148 170
-0.09467712 -0.5850575 -0.73619187 160 143 168
-0.093021847 -0.5847609 -0.73623794 167 150 171
-0.092717126 -0.58464539 -0.73620886 168 150 171
-0.089328073 -0.58583248 -0.73745787 172 157 177
-0.08988557 -0.58620173 -0.73761392 172 157 177
-0.088009514 -0.58737093 -0.73858911 177 161 176
-0.088988535 -0.58740938 -0.73848361 176 160 176
-0.091422752 -0.5877316 -0.73836231 173 159 177
-0.088285148 -0.58597922 -0.73768705 174 159 176
-0.090191662 -0.5840525 -0.73620582 170 153 174
-0.091408387 -0.58572316 -0.73709041 171 155 175
-0.09081386 -0.5852747 -0.73689204 171 154 175
-0.091700323 -0.58416605 -0.73605782 170 151 172
-0.090465546 -0.58589345 -0.73733628 171 156 176
-0.090579078 -0.5856142 -0.73714221 171 155 176
-0.0900115 -0.58507639 -0.7368831 171 155 175
-0.08692871 -0.58672124 -0.7383675 172 155 170
-0.085142784 -0.5863418 -0.73844111 165 145 161
-0.085336179 -0.58593881 -0.73815691 165 145 162
-0.087167531 -0.58595794 -0.73785126 172 155 172
-0.086339608 -0.58557981 -0.73775965 168 150 168
-0.084360115 -0.58504903 -0.73770106 164 143 160
-0.085486159 -0.58430922 -0.73704261 167 148 167
-0.08496774 -0.5846684 -0.73735851 166 146 164
-0.084702075 -0.58411002 -0.7370106 167 146 165
-0.083592579 -0.58515412 -0.7378729 163 141 157
-0.083739378 -0.58602989 -0.73845565 161 139 155
-0.083179772 -0.58422387 -0.73728901 164 142 159
-0.1184639 -0.59105676 -0.73681545 143 130 140
-0.11457806 -0.59114122 -0.73731643 137 116 136
-0.11252835 -0.5892632 -0.73656482 130 107 133
-0.11302555 -0.59085047 -0.73726523 133 110 134
-0.11294779 -0.59070283 -0.73720175 133 110 134
-0.11345599 -0.59090626 -0.73726803 134 112 135
-0.11167986 -0.58893824 -0.73646086 128 104 131
-0.11230221 -0.58825886 -0.73610133 125 102 127
-0.11249273 -0.58830655 -0.73610944 125 102 127
-0.11497877 -0.59147614 -0.7374469 138 118 137
-0.10840718 -0.58985752 -0.73719507 155 135 154
-0.10782825 -0.58903533 -0.73684901 161 142 159
-0.11116893 -0.59171516 -0.73776811 132 106 133
-0.10881684 -0.59169757 -0.73809683 149 128 149
-0.10874806 -0.59119624 -0.73784494 150 130 150
-0.10773411 -0.58851516 -0.73659104 162 144 161
-0.10947885 -0.58812112 -0.73625213 145 124 146
-0.11124934 -0.58915806 -0.73658627 128 103 131
-0.11004202 -0.58814973 -0.73622048 139 117 141
-0.1095686 -0.58874571 -0.73653096 145 123 146
-0.11118562 -0.59030002 -0.73711407 130 105 132
-0.10970308 -0.59002072 -0.73710388 145 123 145
-0.10354486 -0.58984596 -0.73760688 164 148 164
-0.10363729 -0.59012938 -0.73776209 164 148 164
-0.10472859 -0.59065992 -0.73796016 162 146 162
-0.10384604 -0.59157521 -0.73858023 166 148 163
-0.10538111 -0.58988655 -0.73744553 160 145 162
-0.10543229 -0.59055865 -0.73783046 161 145 161
-0.10500753 -0.58798051 -0.73645866 162 148 164
-0.10507637 -0.58822834 -0.7365852 162 148 164
-0.10714348 -0.58923727 -0.73702455 163 146 162
-0.10613484 -0.59020865 -0.73757428 160 144 161
-0.10583066 -0.59002727 -0.73749244 160 144 161
-0.10572907 -0.58930629 -0.73712033 161 146 162
-0.10325275 -0.59099942 -0.73833817 165 148 163
-0.10312656 -0.59063905 -0.73815727 165 148 163
-0.10102535 -0.59051323 -0.7385543 164 146 161
-0.10329918 -0.5880599 -0.73662156 161 148 164
-0.1023998 -0.58900625 -0.7373721 162 147 163
-0.10212119 -0.59016025 -0.73810422 164 147 162
-0.10115391 -0.58838451 -0.73725384 161 146 162
-0.1007686 -0.58937418 -0.73794574 162 146 161
-0.10087633 -0.58876693 -0.73754692 162 146 162
-0.10012231 -0.58918113 -0.73795497 162 145 161
-0.098660834 -0.58959079 -0.73846418 163 145 162
-0.099372379 -0.58933872 -0.73819345 162 145 161
-0.099027045 -0.5881651 -0.73751962 162 145 163
-0.098322809 -0.58870178 -0.737966 162 146 164
-0.096904933 -0.58800119 -0.73770761 166 153 170
-0.096120998 -0.58851606 -0.73817021 165 152 171
-0.094201826 -0.58870769 -0.73857909 168 154 174
-0.094387479 -0.58873564 -0.73857117 168 154 174
-0.1232164 -0.59548634 -0.7383436 153 127 148
-0.12133764 -0.59478348 -0.73821294 156 135 153
-0.11939822 -0.59432584 -0.73822719 158 144 157
-0.12037752 -0.59364986 -0.73779881 154 137 151
-0.12126296 -0.59414583 -0.73792553 154 134 150
-0.12173871 -0.59517467 -0.73834765 156 134 153
-0.12245033 -0.59424466 -0.73789388 147 124 143
-0.12159003 -0.59394014 -0.73781353 151 130 147
-0.11726353 -0.59390515 -0.73828417 148 130 145
-0.11776647 -0.59465837 -0.73857439 153 136 151
-0.1182501 -0.59386343 -0.73814803 152 137 151
-0.11881996 -0.59449387 -0.73837328 157 143 157
-0.11756271 -0.5932821 -0.73795944 147 131 145
-0.11530132 -0.59254605 -0.73790997 139 119 137
-0.11778601 -0.59246409 -0.73755574 146 131 144
-0.1165321 -0.59229302 -0.73763907 143 125 141
-0.11713921 -0.59245467 -0.73763418 144 128 142
-0.11148793 -0.59342283 -0.73863393 130 107 133
-0.11483718 -0.59229136 -0.73783821 138 118 137
-0.11445265 -0.59299934 -0.73818928 137 116 135
-0.11349807 -0.59199113 -0.73777574 135 113 135
-0.11169454 -0.59326392 -0.73854059 130 108 133
-0.10787296 -0.59241265 -0.73861742 156 138 155
-0.11020473 -0.59241825 -0.73827922 139 116 140
-0.11130072 -0.59339088 -0.73863065 130 107 133
-0.10764202 -0.59188992 -0.73836797 157 139 157
-0.10596148 -0.59183174 -0.73852015 162 144 160
-0.12484615 -0.59645778 -0.73865497 150 127 147
-0.12421542 -0.59597886 -0.73850667 153 129 148
-0.084645361 -0.5720253 -0.72899735 160 149 162
-0.091853023 -0.57561582 -0.73084003 154 138 152
-0.088349707 -0.57469928 -0.73052287 152 137 161
-0.084207654 -0.57458866 -0.73074877 164 154 165
-0.086742043 -0.57422537 -0.73030508 159 147 164
-0.087644607 -0.57513338 -0.73084068 159 146 167
-0.086890727 -0.57493722 -0.73076922 160 148 167
-0.085886866 -0.57492054 -0.73083764 162 150 166
-0.085699849 -0.57339424 -0.7298308 160 148 162
-0.084335014 -0.57237411 -0.72924799 161 150 163
-0.084709369 -0.5734244 -0.72992665 162 151 163
-0.084341913 -0.57420719 -0.73048168 163 153 165
-0.083771244 -0.57272923 -0.72953349 161 150 163
-0.083724633 -0.57403994 -0.73042035 163 152 164
-0.096640967 -0.59549534 -0.74267799 153 133 161
-0.092076279 -0.59525251 -0.74331343 185 177 184
-0.092265286 -0.59447676 -0.74277014 184 176 184
-0.091853298 -0.59568328 -0.74363536 187 180 185
-0.095124334 -0.59527117 -0.74280685 156 137 165
-0.090490349 -0.59491932 -0.74334782 180 168 178
-0.087905362 -0.59426582 -0.7433266 164 144 161
-0.089776136 -0.59501594 -0.74352503 175 162 173
-0.089235581 -0.5949648 -0.74357706 172 157 169
-0.091489121 -0.59539521 -0.74350381 186 178 184
-0.091785438 -0.59414351 -0.74263287 188 182 187
-0.091087766 -0.59418172 -0.74276787 184 175 183
-0.086012468 -0.59296882 -0.7426694 159 137 154
-0.087134838 -0.59363192 -0.74298954 162 141 158
-0.086790204 -0.59402001 -0.74328202 160 140 156
-0.087638631 -0.59502703 -0.74385804 162 143 158
-0.10551032 -0.59882838 -0.74272531 167 155 165
-0.10421107 -0.5982784 -0.74267739 162 147 162
-0.10548156 -0.59941518 -0.74311805 167 154 164
-0.105381 -0.5985679 -0.74258846 166 154 164
-0.10192746 -0.59901935 -0.7437579 159 140 158
-0.10034389 -0.59852779 -0.74385744 157 140 158
-0.099905707 -0.59845811 -0.74392742 157 140 158
-0.10130218 -0.59837162 -0.74350637 159 142 159
-0.099893756 -0.59866709 -0.74406457 157 139 158
-0.10038786 -0.59937817 -0.74439102 157 138 157
-0.10207944 -0.59822905 -0.74320918 160 143 159
-0.10110621 -0.59747291 -0.74298066 159 144 160
-0.10299154 -0.59905499 -0.74350053 160 141 159
-0.09956073 -0.59674019 -0.74291325 158 144 160
-0.098738216 -0.59601569 -0.74260902 156 142 160
-0.099281028 -0.59755003 -0.74348688 156 140 159
-0.096708313 -0.59598953 -0.74298066 152 132 160
-0.097810417 -0.59577239 -0.74263322 154 138 160
-0.098664463 -0.59801966 -0.7439068 155 136 158
-0.098094203 -0.59774309 -0.74383813 154 134 158
-0.096342318 -0.5980019 -0.74446189 153 133 157
-0.096785575 -0.59903675 -0.74508411 154 135 155
-0.096266948 -0.59703088 -0.74378765 152 131 159
-0.098449707 -0.59863329 -0.74435335 154 134 157
-0.096909381 -0.59906161 -0.74506897 154 135 155
-0.096048065 -0.59624547 -0.74328417 151 130 160
-0.095744334 -0.59853369 -0.74500108 153 134 155
-0.092565708 -0.59938347 -0.74632901 156 140 151
-0.092048667 -0.59742725 -0.74493432 173 161 169
-0.092172071 -0.59671497 -0.74435472 179 169 176
-0.092878543 -0.59681571 -0.74426991 178 168 176
-0.093830794 -0.59898567 -0.74572986 160 143 157
-0.092589438 -0.59676373 -0.74429625 179 168 176
-0.093784623 -0.59689528 -0.74416959 170 156 171
-0.094881654 -0.59758455 -0.74447423 160 143 162
-0.094577424 -0.59736764 -0.74437135 163 146 165
-0.094152026 -0.59673649 -0.74399304 166 151 169
-0.09549772 -0.59733415 -0.74418956 154 134 159
-0.094798736 -0.59669161 -0.74384999 160 142 165
-0.089635141 -0.59781742 -0.74559951 161 142 153
-0.091315694 -0.59786284 -0.74539733 167 153 162
-0.090201236 -0.59746844 -0.74524951 166 150 159
-0.08944606 -0.59709316 -0.74507463 165 147 158
-0.089153841 -0.59768122 -0.74556237 160 140 151
-0.089303479 -0.59655249 -0.74469143 167 151 161
-0.089497425 -0.59730864 -0.74522823 165 146 156
-0.1159137 -0.60262299 -0.74285221 166 149 157
-0.11651693 -0.602516 -0.74262637 169 151 160
-0.11148794 -0.60283321 -0.74384993 147 127 151
-0.11339931 -0.60334313 -0.74380416 157 139 154
-0.11268434 -0.60304487 -0.74375606 153 134 153
-0.11244278 -0.60200328 -0.74316895 149 127 149
-0.11478148 -0.6029737 -0.74332511 162 144 154
-0.11479881 -0.60290253 -0.74327952 162 144 154
-0.11068568 -0.60250968 -0.74382454 152 134 155
-0.11082115 -0.60062236 -0.74264961 144 121 147
-0.11057582 -0.60147643 -0.74322182 149 130 152
-0.11050925 -0.60082781 -0.74284285 148 127 150
-0.10911749 -0.6010766 -0.74329787 163 150 161
-0.11040412 -0.60239625 -0.74381727 154 138 157
-0.10776378 -0.60123235 -0.74370217 167 154 167
-0.10949883 -0.60236573 -0.74400365 158 142 160
-0.10749642 -0.59988546 -0.74293077 173 164 168
-0.10948173 -0.60294813 -0.74436778 155 138 160
-0.10749669 -0.60179621 -0.74411237 165 151 167
-0.10803097 -0.60325605 -0.74489212 157 139 165
-0.10403091 -0.60074359 -0.74429035 160 141 159
-0.10487557 -0.60108334 -0.74430215 159 140 161
-0.10391174 -0.60288823 -0.74561983 159 144 159
-0.1039084 -0.60187829 -0.74500746 160 143 159
-0.10506329 -0.60223228 -0.74495655 159 141 161
-0.10422236 -0.60178626 -0.74487925 160 142 160
-0.10739519 -0.60140681 -0.74389517 167 153 168
-0.10608789 -0.60005772 -0.74337649 168 154 165
-0.10691799 -0.59969765 -0.74295348 172 163 167
-0.10543629 -0.60064441 -0.74389666 163 146 163
-0.10643586 -0.60070759 -0.74369442 166 152 165
-0.10720123 -0.60222358 -0.74444705 162 146 167
-0.10182569 -0.60314947 -0.74646598 155 138 153
-0.10104652 -0.60118824 -0.74534357 157 139 156
-0.10079346 -0.60210961 -0.74612004 154 135 152
-0.099615239 -0.60158473 -0.74619383 151 131 150
-0.10040788 -0.60209918 -0.74626279 153 133 151
-0.10287569 -0.60005099 -0.74415594 160 140 158
-0.10252274 -0.6015467 -0.74515647 159 142 157
-0.1033601 -0.59999895 -0.74399757 160 141 158
-0.10335719 -0.60257572 -0.74556273 160 144 158
-0.10220465 -0.60062474 -0.74468005 159 140 158
-0.10301156 -0.60183924 -0.74520612 159 143 158
-0.097102515 -0.60048628 -0.74607217 153 133 152
-0.098081067 -0.60104805 -0.74621838 152 132 151
-0.098908857 -0.60113961 -0.74605983 152 132 151
-0.099348493 -0.60036969 -0.74537361 154 134 154
-0.097839572 -0.59980881 -0.74536622 155 135 154
-0.09416195 -0.59971476 -0.74622095 154 136 151
-0.13349007 -0.60736817 -0.74289685 142 119 143
-0.13228703 -0.60655969 -0.74262232 140 117 142
-0.12810531 -0.60663313 -0.74300122 139 114 145
-0.12871942 -0.60688365 -0.74305797 138 113 144
-0.12817185 -0.60673028 -0.74304086 138 114 145
-0.12947308 -0.60663277 -0.74286419 138 113 143
-0.13030525 -0.60692859 -0.74292368 137 112 142
-0.12486661 -0.60662997 -0.74342424 156 137 159
-0.12398108 -0.60685486 -0.74371892 160 143 162
-0.12310985 -0.60699087 -0.74395949 165 150 165
-0.12390377 -0.60724425 -0.74395895 158 141 160
-0.12386142 -0.60739154 -0.74405217 157 141 160
-0.12584782 -0.60647351 -0.74316639 150 129 155
-0.12400723 -0.60499895 -0.74266756 171 154 171
-0.1259605 -0.60542762 -0.74265426 151 129 155
-0.12025948 -0.60711259 -0.74445486 152 133 154
-0.12056467 -0.60564274 -0.74355084 167 150 167
-0.1214891 -0.60602611 -0.74363726 168 152 168
-0.11986095 -0.60510695 -0.74334246 168 151 168
-0.12231426 -0.60690725 -0.74402928 164 148 164
-0.11920779 -0.6048826 -0.7433086 167 150 167
-0.12248275 -0.60584968 -0.74339116 171 157 171
-0.12262401 -0.60671747 -0.74387372 166 151 166
-0.12236601 -0.60457319 -0.74266821 179 165 177
-0.12175132 -0.60481238 -0.74289554 176 162 175
-0.12251383 -0.60514015 -0.74297547 176 161 175
-0.11877796 -0.60448176 -0.74318075 170 153 168
-0.1173 -0.60461044 -0.74365294 163 145 159
-0.11755046 -0.6039533 -0.74320149 170 153 166
-0.11832663 -0.60501146 -0.74361157 164 145 161
-0.11844733 -0.60591519 -0.74410748 156 136 155
-0.1166013 -0.60469127 -0.74388784 160 141 155
-0.11748665 -0.6072672 -0.74512273 138 117 141
-0.11579297 -0.6057061 -0.74466205 145 126 145
-0.1159273 -0.60662925 -0.74514818 136 117 139
-0.11833235 -0.60666001 -0.7445727 148 127 148
-0.11660238 -0.6061852 -0.74473202 144 125 145
-0.11743456 -0.60607326 -0.74446404 150 130 149
-0.1117027 -0.60510552 -0.7452389 140 123 147
-0.11263036 -0.60533226 -0.74512446 138 120 144
-0.11215665 -0.6049419 -0.74500126 140 123 146
-0.11177067 -0.60569823 -0.74561167 137 121 144
-0.11190443 -0.60475945 -0.74495238 142 124 148
-0.11452537 -0.60441428 -0.744205 153 135 150
-0.11243748 -0.60457993 -0.74468619 142 124 148
-0.11281948 -0.60416228 -0.74438024 148 130 151
-0.11499086 -0.60440767 -0.74411476 155 137 151
-0.11466414 -0.60536265 -0.74471259 144 125 144
-0.11185797 -0.60359234 -0.7442385 150 132 153
-0.109624 -0.60432345 -0.74528253 150 132 156
-0.11023779 -0.6062361 -0.74638438 138 123 146
-0.1090929 -0.60578877 -0.74639362 144 128 152
-0.11024638 -0.60442144 -0.74518144 147 130 153
-0.10985453 -0.60537183 -0.7459147 143 127 151
-0.10861112 -0.60570288 -0.74646527 146 129 154
-0.10935938 -0.603558 -0.74477834 153 134 160
-0.10791106 -0.60417503 -0.74557054 154 136 162
-0.10882589 -0.60432321 -0.74547017 151 134 159
-0.10682826 -0.60396206 -0.74566543 156 139 163
-0.10739289 -0.60368735 -0.74532735 157 138 166
-0.1072696 -0.60405809 -0.74563223 156 138 164
-0.10672394 -0.60355073 -0.74538147 158 140 165
-0.13506092 -0.60896564 -0.74363321 137 114 131
-0.13563311 -0.60835361 -0.74329156 144 121 140
-0.13617344 -0.60993034 -0.74409699 137 114 128
-0.13503252 -0.60876703 -0.74353033 138 115 133
-0.13593164 -0.60861635 -0.74341804 144 121 139
-0.13282636 -0.60983407 -0.74426794 125 100 121
-0.13208044 -0.60989678 -0.74442303 123 98 122
-0.13252087 -0.60938233 -0.74403858 127 102 125
-0.13156508 -0.60900098 -0.74395412 127 103 129
-0.13160589 -0.60990703 -0.7445035 122 97 123
-0.13368082 -0.60920221 -0.74384022 131 107 126
-0.13154352 -0.60793507 -0.74331909 134 109 137
-0.13420472 -0.60796499 -0.74315763 140 117 139
-0.13422742 -0.60867071 -0.74352562 136 112 132
-0.13371569 -0.60815734 -0.74329084 138 114 137
-0.13387126 -0.60791665 -0.74315453 139 116 139
-0.12812141 -0.60924715 -0.744488 127 102 132
-0.12833132 -0.60946614 -0.74460077 126 101 130
-0.12835579 -0.61004901 -0.74494904 124 97 127
-0.1279669 -0.60752964 -0.74345821 136 113 144
-0.1292842 -0.60972548 -0.74467027 122 99 128
-0.12897827 -0.60825026 -0.74379671 131 108 138
-0.12817658 -0.60743666 -0.74337971 137 113 144
-0.12980719 -0.60828692 -0.74373424 131 106 137
-0.12980461 -0.60936928 -0.74439847 124 100 130
-0.13000606 -0.60801458 -0.7435469 132 108 138
-0.12361939 -0.60939544 -0.74528426 144 124 141
-0.12351142 -0.60788721 -0.74441451 158 140 158
-0.12656593 -0.60863525 -0.74429744 136 110 139
-0.12591095 -0.60817081 -0.74413979 141 118 145
-0.12567876 -0.60930955 -0.74486768 139 113 139
-0.124499 -0.60861683 -0.74467003 149 127 149
-0.12647945 -0.60827398 -0.74409628 137 113 142
-0.12624669 -0.60962331 -0.74495095 134 106 134
-0.12162352 -0.60905004 -0.74547744 144 126 141
-0.12238374 -0.60798663 -0.74469221 156 139 155
-0.12136935 -0.6087513 -0.74535459 146 128 144
-0.12054399 -0.60956472 -0.74600619 137 117 133
-0.12127391 -0.60830325 -0.74508828 149 131 148
-0.12043148 -0.60836887 -0.74525845 145 126 144
-0.12039239 -0.60771757 -0.74481827 149 129 149
-0.1217555 -0.60804904 -0.74484247 153 136 153
-0.11699715 -0.60890031 -0.74633074 127 108 129
-0.11907648 -0.60790366 -0.74514741 141 120 142
-0.11832757 -0.60843784 -0.74569362 135 115 136
-0.11686797 -0.60832083 -0.745965 130 111 133
-0.11725239 -0.6076377 -0.74541086 134 114 138
-0.092349038 -0.57570678 -0.73087627 153 136 151
-0.0910239 -0.57606876 -0.73117417 161 147 161
-0.089884564 -0.57616532 -0.73133415 161 147 164
-0.084387712 -0.57561624 -0.73145896 165 154 166
-0.084183164 -0.57538784 -0.73131502 165 155 166
-0.087344758 -0.57540101 -0.73104095 160 147 168
-0.086762667 -0.5754227 -0.7311008 161 149 168
-0.083103172 -0.57611555 -0.73194438 163 150 162
-0.091995902 -0.57845527 -0.73250508 168 159 171
-0.094010152 -0.57972586 -0.73305357 160 144 169
-0.092392765 -0.5794276 -0.73303938 169 161 175
-0.09287855 -0.57756698 -0.73189229 159 144 161
-0.09354569 -0.57944262 -0.73293287 162 147 169
-0.093175292 -0.57885474 -0.7326228 162 148 168
-0.093815573 -0.57719254 -0.73164058 154 136 155
-0.093618676 -0.57742846 -0.73177212 155 137 157
-0.09380658 -0.57672918 -0.73139662 153 136 153
-0.094989859 -0.57918364 -0.73264682 151 130 161
-0.093034007 -0.57671666 -0.73141849 156 140 156
-0.089823373 -0.57917815 -0.73315096 168 158 176
-0.087931007 -0.58000547 -0.73388141 162 144 173
-0.088332772 -0.57891667 -0.7331596 162 148 173
-0.089147344 -0.57762778 -0.73226637 165 155 174
-0.090358011 -0.57897574 -0.73296404 170 162 178
-0.088496387 -0.57889706 -0.73312867 163 149 173
-0.090168156 -0.5789206 -0.73295152 169 161 177
-0.090598658 -0.57858491 -0.73270279 170 162 176
-0.091793768 -0.57711565 -0.7317344 165 153 164
-0.089758642 -0.57754695 -0.73216099 165 156 173
-0.089909799 -0.57808512 -0.73246586 167 159 176
-0.088388927 -0.57666349 -0.73175508 162 151 172
-0.090998761 -0.57926029 -0.73306769 172 166 179
-0.087048188 -0.57943839 -0.73362237 163 146 171
-0.086055987 -0.57831675 -0.73302376 164 149 169
-0.084321901 -0.57753867 -0.73273176 167 155 168
-0.084824577 -0.57773834 -0.73279995 166 153 168
-0.084699295 -0.57985145 -0.73416227 167 156 172
-0.084482484 -0.57974929 -0.73412263 167 156 172
-0.087873682 -0.57881367 -0.7331481 161 145 172
-0.085988104 -0.57711005 -0.73228055 163 150 169
-0.086230375 -0.57653284 -0.73189795 163 151 169
-0.086792208 -0.57622641 -0.73165131 161 150 169
-0.087176055 -0.57833898 -0.73292375 162 147 171
-0.086561717 -0.57800704 -0.73277956 163 148 170
-0.081547901 -0.57987523 -0.73455203 160 144 159
-0.081863664 -0.57937491 -0.73418224 160 145 161
-0.083628088 -0.57617247 -0.73193455 165 153 164
-0.08328858 -0.5768128 -0.73237556 164 152 164
-0.082524531 -0.57812828 -0.73328805 161 148 163
-0.082086161 -0.57770973 -0.73306334 159 145 161
-0.081881948 -0.57787448 -0.73318803 158 143 160
-0.097810581 -0.58160615 -0.73372948 153 135 158
-0.098739818 -0.58210713 -0.73390317 151 136 157
-0.098733231 -0.58157158 -0.73359358 152 137 156
-0.098088473 -0.58141679 -0.73358482 153 136 157
-0.098836623 -0.58160394 -0.73359936 152 137 156
-0.097182505 -0.58237875 -0.73425609 152 133 160
-0.095804349 -0.58267105 -0.73459744 152 130 163
-0.097002551 -0.58020455 -0.73300833 151 131 159
-0.096473105 -0.58015841 -0.73304558 150 129 161
-0.098191485 -0.58077931 -0.73320049 153 136 156
-0.096126243 -0.5808031 -0.73346502 151 129 162
-0.094963267 -0.5810051 -0.73372066 154 134 165
-0.095472544 -0.58091515 -0.73360878 152 130 164
-0.094691813 -0.58144128 -0.73400754 156 136 166
-0.094680689 -0.58242857 -0.73458672 157 138 167
-0.09375526 -0.58168089 -0.73425668 161 144 169
-0.093127497 -0.58099508 -0.73391438 165 151 172
-0.093251698 -0.5811491 -0.73399681 164 149 171
-0.094549492 -0.58058256 -0.73351806 156 137 167
-0.092453249 -0.58064193 -0.73376447 170 161 177
-0.089002281 -0.58130562 -0.73458016 167 152 176
-0.09117838 -0.58058715 -0.73387206 173 166 180
-0.091780305 -0.58214295 -0.73475629 172 161 176
-0.090243645 -0.58057261 -0.73397666 171 161 179
-0.090724461 -0.58024949 -0.73371542 172 164 179
-0.087048411 -0.58039218 -0.7342301 163 147 173
-0.086107798 -0.58090204 -0.73466539 166 151 173
-0.084155209 -0.58043253 -0.73459542 168 157 172
-0.10272264 -0.58444381 -0.73471403 140 112 149
-0.089193083 -0.59927088 -0.74678004 149 125 137
-0.099952139 -0.60285884 -0.74696612 150 129 147
-0.10001867 -0.60247326 -0.74667454 151 131 149
-0.096137442 -0.60093141 -0.74665409 152 132 150
-0.096194357 -0.60276425 -0.7479555 148 127 142
-0.096834131 -0.60181874 -0.74709868 150 130 147
-0.0973147 -0.60254967 -0.74749076 149 128 145
-0.095948577 -0.60324788 -0.74837124 146 125 139
-0.095765591 -0.60085756 -0.74670416 152 132 149
-0.099073663 -0.6027211 -0.74713665 150 128 146
-0.098975576 -0.60224825 -0.74683475 150 129 148
-0.094311498 -0.60056394 -0.74681467 152 133 148
-0.095406368 -0.60268885 -0.74810243 147 127 141
-0.095256925 -0.60215712 -0.74775296 149 128 143
-0.095430829 -0.60177296 -0.74743891 150 129 145
-0.093256511 -0.60080731 -0.74721974 152 133 145
-0.093469054 -0.6011216 -0.74739915 151 132 144
-0.091825061 -0.60119951 -0.74783474 148 127 137
-0.093168058 -0.60145187 -0.74770838 149 130 141
-0.091922343 -0.60052723 -0.74732012 151 132 142
-0.095323198 -0.6031419 -0.74844623 146 126 139
-0.094394751 -0.60224861 -0.74800736 148 129 141
-0.09408582 -0.60193276 -0.74784774 149 130 142
-0.091791607 -0.60062546 -0.7474218 150 130 141
-0.091187306 -0.60048139 -0.74739951 149 128 139
-0.091698818 -0.60018522 -0.74711233 152 133 144
-0.11079045 -0.60714024 -0.74682397 133 121 141
-0.10913914 -0.60654759 -0.74689901 140 125 148
-0.10837965 -0.60595995 -0.74670482 145 129 153
-0.10957985 -0.60645181 -0.74669462 140 126 148
-0.10934361 -0.60625535 -0.74663001 141 127 149
-0.10356013 -0.60599941 -0.74804831 154 135 150
-0.10431112 -0.60490447 -0.74696469 154 138 154
-0.10425498 -0.6048103 -0.74690634 155 139 154
-0.10376567 -0.6048004 -0.74703985 156 140 154
-0.10513411 -0.60523057 -0.74699771 152 135 153
-0.10580286 -0.60538292 -0.74695361 151 134 154
-0.10323968 -0.60438687 -0.74688578 157 141 154
-0.10120884 -0.60576129 -0.74869543 146 127 143
-0.10288484 -0.60565746 -0.74801964 153 133 149
-0.10280748 -0.60484248 -0.74740452 154 136 151
-0.10133417 -0.60571545 -0.74861491 147 128 143
-0.10053348 -0.6051417 -0.74846518 146 126 142
-0.10014591 -0.60470098 -0.74826813 147 125 143
-0.10026711 -0.6047405 -0.74825346 147 126 143
-0.10167184 -0.60374624 -0.74695557 154 136 151
-0.10090209 -0.60357261 -0.74710894 152 133 149
-0.099019229 -0.60474122 -0.74865401 145 123 140
-0.098533645 -0.60506105 -0.74903005 144 122 138
-0.099041492 -0.60417724 -0.74821115 147 125 142
-0.098514155 -0.6035915 -0.74790943 148 126 142
-0.096755832 -0.60355693 -0.74837089 146 125 139
0 0 0 1 0 0 0 1 0 0 0 1 0 0 0 0 0 833 1 0 0
