ply
format ascii 1.0
comment PCL generated
element vertex 1056
property float x
property float y
property float z
property uchar red
property uchar green
property uchar blue
element camera 0
property float view_px
property float view_py
property float view_pz
property float x_axisx
property float x_axisy
property float x_axisz
property float y_axisx
property float y_axisy
property float y_axisz
property float z_axisx
property float z_axisy
property float z_axisz
property float focal
property float scalex
property float scaley
property float centerx
property float centery
property int viewportx
property int viewporty
property float k1
property float k2
end_header
-0.19490771 -0.60412782 -0.75791568 45 27 38
-0.19432198 -0.60508543 -0.75762618 50 29 40
-0.19437706 -0.60723513 -0.75809681 59 34 42
-0.19377433 -0.60592002 -0.75739449 51 31 41
-0.19059296 -0.60421294 -0.75488591 44 27 43
-0.19043548 -0.60435349 -0.75482243 44 27 44
-0.1899416 -0.60680211 -0.75519848 48 27 44
-0.1916358 -0.60436809 -0.75563157 44 27 41
-0.19009845 -0.605205 -0.75484401 46 27 44
-0.19201598 -0.60453463 -0.7559337 44 27 40
-0.19033654 -0.60627204 -0.75531018 47 27 43
-0.19308889 -0.60715038 -0.75727063 49 32 43
-0.19048969 -0.60680062 -0.75554824 48 27 43
-0.19128807 -0.60634214 -0.75593686 47 28 42
-0.19300239 -0.60617477 -0.75697416 47 30 42
-0.19041997 -0.60731852 -0.75563282 49 28 44
-0.19238479 -0.60682774 -0.75674754 48 30 43
-0.18928355 -0.60727638 -0.75490803 50 28 45
-0.19356696 -0.60926139 -0.75803697 52 29 32
-0.19212237 -0.61089492 -0.75753576 56 32 36
-0.19318216 -0.60946649 -0.75784963 53 30 34
-0.19292483 -0.61010212 -0.75783634 54 30 33
-0.19305918 -0.60890406 -0.75765437 52 31 38
-0.19242291 -0.61132205 -0.7578063 57 30 31
-0.18961564 -0.61118132 -0.75611895 61 43 55
-0.19013725 -0.60768425 -0.75554806 50 29 45
-0.19050449 -0.60882872 -0.75607359 53 34 48
-0.19012159 -0.61060977 -0.75629097 59 41 53
-0.18989842 -0.60932994 -0.75582123 55 35 50
-0.1895498 -0.60815263 -0.75529891 51 30 47
-0.18972711 -0.60849398 -0.75549835 52 32 47
-0.18840194 -0.60903245 -0.75480843 63 44 58
-0.18894672 -0.60915864 -0.7551809 59 39 54
-0.18895587 -0.60956573 -0.75529134 60 41 55
-0.18780361 -0.61013603 -0.75471896 72 55 66
-0.18716204 -0.61072487 -0.75447011 80 64 73
-0.18768372 -0.6098702 -0.75457591 72 55 66
-0.18782704 -0.60867172 -0.75438112 67 46 58
-0.19225454 -0.6132074 -0.75805634 85 56 66
-0.19198453 -0.61235917 -0.7577399 73 46 53
-0.19145381 -0.61358482 -0.75765371 92 64 79
-0.19157869 -0.61234373 -0.75749755 73 47 56
-0.19083187 -0.61228532 -0.75704604 73 50 61
-0.19181329 -0.61471725 -0.75807565 108 77 96
-0.19081908 -0.61425829 -0.75746763 93 66 84
-0.19070698 -0.61388505 -0.75731534 90 64 81
-0.19030422 -0.61375225 -0.75709891 82 57 74
-0.19044776 -0.61457092 -0.75738716 86 59 77
-0.18671821 -0.61181092 -0.75453556 82 66 75
-0.18773666 -0.61145002 -0.75503117 76 59 69
-0.18735921 -0.61264169 -0.75525284 69 51 66
-0.18725216 -0.61270779 -0.75521141 70 52 66
-0.18812585 -0.61197293 -0.75547618 68 50 63
-0.18909389 -0.61270452 -0.75624597 63 43 57
-0.1891381 -0.61186916 -0.75604022 62 43 57
-0.18929724 -0.61181778 -0.75610846 62 43 56
-0.19068852 -0.6155858 -0.75780308 94 62 84
-0.19118647 -0.61549968 -0.75799459 103 71 93
-0.18254958 -0.61796999 -0.7546972 72 54 67
-0.18312521 -0.61755133 -0.7548238 71 52 67
-0.18393661 -0.6171869 -0.75508273 70 49 66
-0.18163601 -0.6188308 -0.75458658 74 57 67
-0.18289413 -0.61929703 -0.7554155 74 51 62
-0.22234252 -0.56293154 -0.77284849 115 91 131
-0.22293593 -0.5628956 -0.77338237 116 93 132
-0.22176152 -0.56368166 -0.77247709 105 80 122
-0.222161 -0.56284469 -0.77268398 116 92 131
-0.2208572 -0.56369305 -0.77174592 103 76 118
-0.22176296 -0.56437784 -0.77257538 96 72 115
-0.22069442 -0.56380492 -0.77163023 101 74 117
-0.22236228 -0.56556326 -0.77329576 88 63 99
-0.22191633 -0.5655179 -0.77292532 87 61 98
-0.22218378 -0.56767088 -0.77357697 70 42 63
-0.22207277 -0.56456923 -0.77286035 95 71 114
-0.22084473 -0.56527972 -0.77199978 87 59 99
-0.22073267 -0.56480706 -0.77181733 91 63 106
-0.22185092 -0.56762117 -0.7732898 70 41 64
-0.22024541 -0.56629705 -0.77167636 78 50 84
-0.21980542 -0.56745708 -0.77151531 68 39 67
-0.22045773 -0.56567127 -0.77174199 83 56 93
-0.21900325 -0.56774223 -0.77088618 65 36 62
-0.22030747 -0.56688166 -0.77183622 73 45 76
-0.2190426 -0.5666312 -0.77071649 75 46 77
-0.21963349 -0.56518626 -0.771007 89 62 102
-0.21909526 -0.56557149 -0.77064627 87 59 98
-0.2178169 -0.56809407 -0.76995564 62 33 55
-0.22168975 -0.5705424 -0.7734865 71 46 61
-0.22147107 -0.56909436 -0.77316719 65 37 57
-0.22179265 -0.56919307 -0.77345133 66 39 57
-0.22132137 -0.57112336 -0.77323681 70 45 61
-0.22098561 -0.57212359 -0.77307534 67 43 58
-0.22001028 -0.56941384 -0.77203113 62 34 55
-0.21972688 -0.57187659 -0.77208149 64 39 54
-0.21945092 -0.57197428 -0.77188265 65 39 53
-0.21920674 -0.57075602 -0.77156615 64 37 53
-0.21935633 -0.57218444 -0.7718336 65 40 53
-0.22054647 -0.56873059 -0.77236432 61 32 56
-0.22027293 -0.57186294 -0.77249426 64 39 55
-0.21760949 -0.57077044 -0.77029246 65 37 50
-0.21949044 -0.56854445 -0.77144974 60 32 54
-0.21883158 -0.5690338 -0.77098691 61 33 53
-0.21747194 -0.56960118 -0.76994431 62 34 50
-0.21767572 -0.57067949 -0.77033073 64 37 50
-0.21888517 -0.56946367 -0.77111751 62 34 53
-0.22088598 -0.57450068 -0.77369076 57 41 58
-0.22087927 -0.5746612 -0.77373427 57 40 58
-0.21703283 -0.57305145 -0.77021331 70 45 52
-0.21848382 -0.57314104 -0.77132982 69 45 56
-0.21890779 -0.57358134 -0.77172703 71 48 59
-0.21872504 -0.57414341 -0.77168465 74 51 61
-0.21839589 -0.57375896 -0.77136898 72 49 58
-0.21719721 -0.57386279 -0.77047706 74 50 57
-0.21695425 -0.57385451 -0.77029127 74 50 56
-0.21742447 -0.5757091 -0.77098775 81 60 66
-0.21971437 -0.57529759 -0.77290475 61 44 59
-0.21863765 -0.57513183 -0.77189416 72 52 62
-0.22056818 -0.57425451 -0.77334887 57 39 56
-0.22046268 -0.57471567 -0.77339506 56 40 57
-0.21835941 -0.57591295 -0.77188432 71 53 63
-0.22017707 -0.57577699 -0.77346814 55 40 58
-0.21645848 -0.57553035 -0.7701627 82 60 65
-0.21999744 -0.57721812 -0.77368903 58 43 62
-0.2193864 -0.57620198 -0.77289528 60 45 60
-0.21924944 -0.57625395 -0.77278525 62 46 61
-0.21884927 -0.57731849 -0.77268511 69 51 65
-0.21922302 -0.57625216 -0.77276117 62 46 61
-0.22013013 -0.57629591 -0.77358413 54 40 59
-0.21909429 -0.57722449 -0.77288175 66 49 64
-0.21825817 -0.57994562 -0.77268124 71 50 66
-0.21762702 -0.57946837 -0.77196604 72 50 63
-0.21730472 -0.57834721 -0.7714507 76 55 64
-0.21752869 -0.57774866 -0.77157319 79 58 67
-0.21682425 -0.57637632 -0.77063131 84 63 67
-0.21658561 -0.57870531 -0.77080661 74 51 59
-0.21618424 -0.57841212 -0.77038509 74 52 59
-0.21616088 -0.5765022 -0.77006257 83 62 67
-0.217869 -0.58154601 -0.77225655 89 72 75
-0.21860352 -0.58155155 -0.77299374 90 75 80
-0.21866773 -0.5806793 -0.77309185 79 61 73
-0.21848103 -0.58047318 -0.77291238 76 57 70
-0.21852259 -0.58163434 -0.77290928 91 76 80
-0.21855845 -0.58281267 -0.77292418 104 92 88
-0.21715508 -0.58220011 -0.77169627 73 51 62
-0.21753876 -0.58362854 -0.77212554 79 59 69
-0.21717496 -0.5833813 -0.7718007 71 49 63
-0.21686864 -0.58137882 -0.77139395 68 44 57
-0.21553646 -0.58338302 -0.7704314 68 43 59
-0.21555571 -0.58366704 -0.77046853 67 42 59
-0.21522103 -0.58381677 -0.77020061 68 43 60
-0.21544628 -0.58057761 -0.77004671 67 43 54
-0.21500374 -0.58357304 -0.76999485 69 44 60
-0.2186981 -0.58474004 -0.77314705 104 90 92
-0.21895964 -0.58576649 -0.7733922 110 92 99
-0.21789485 -0.58481449 -0.77247208 86 65 77
-0.21821196 -0.58471853 -0.77273691 93 75 83
-0.21947588 -0.58494031 -0.77380723 122 112 107
-0.21758473 -0.58576381 -0.77221984 89 64 81
-0.21699177 -0.58595586 -0.77170026 94 67 85
-0.21620846 -0.58541858 -0.77113777 78 54 71
-0.21568625 -0.58622539 -0.77079183 85 62 78
-0.21643896 -0.58476251 -0.77129006 70 46 64
-0.21532495 -0.58716822 -0.77055293 96 74 88
-0.21546139 -0.58502263 -0.77052379 74 50 66
-0.21534826 -0.58621967 -0.77055669 82 60 75
-0.21581039 -0.58475858 -0.7707867 71 47 64
-0.21446857 -0.5917781 -0.77011609 106 87 81
-0.21487866 -0.59126818 -0.77037895 109 88 86
-0.21478166 -0.5896216 -0.77024323 106 86 90
-0.21445073 -0.59041482 -0.77004641 104 85 84
-0.21654919 -0.59559292 -0.77126724 140 118 124
-0.21411681 -0.59545875 -0.77008927 151 124 135
-0.21515813 -0.59424967 -0.77074146 138 110 123
-0.21530746 -0.59238285 -0.77077597 117 92 97
-0.21427709 -0.59317976 -0.77007276 123 101 101
-0.21494356 -0.59259552 -0.77052283 118 94 97
-0.2144434 -0.59282762 -0.77017069 119 97 97
-0.2147547 -0.59583622 -0.77037674 148 123 132
-0.21536313 -0.59609795 -0.77068102 143 119 128
-0.19039133 -0.56819201 -0.75084949 142 128 134
-0.19613822 -0.57088107 -0.75428498 79 43 73
-0.19433413 -0.56899744 -0.75306511 99 67 103
-0.19573312 -0.5707615 -0.7540409 82 47 77
-0.19448042 -0.56857902 -0.75310791 100 67 106
-0.19506919 -0.57067847 -0.75365186 86 54 82
-0.19437294 -0.57139814 -0.75334126 82 47 75
-0.19354013 -0.5691781 -0.75263393 102 70 105
-0.19440843 -0.57076055 -0.75329059 88 54 83
-0.19466324 -0.57221699 -0.75359273 75 38 65
-0.18949227 -0.56932044 -0.75047654 135 122 125
-0.19027884 -0.57073367 -0.75103301 107 83 104
-0.19051589 -0.56916988 -0.7510072 126 108 122
-0.18999152 -0.57010585 -0.75081885 119 99 113
-0.19020371 -0.57045746 -0.75096613 112 89 108
-0.19195312 -0.56939065 -0.75179434 109 81 111
-0.19214825 -0.57141191 -0.75211895 89 55 85
-0.19249347 -0.57161367 -0.75232965 86 50 80
-0.19277363 -0.56978858 -0.75228119 99 68 101
-0.19141039 -0.57078874 -0.75164741 98 68 97
-0.19293076 -0.57154721 -0.75256097 84 47 78
-0.19193639 -0.57060838 -0.75191468 97 65 96
-0.18941867 -0.57015824 -0.75051856 124 107 116
-0.19380799 -0.5729962 -0.75318849 76 38 64
-0.19401614 -0.57243294 -0.75325376 76 37 65
-0.19448489 -0.57412761 -0.75366533 75 41 60
-0.1955196 -0.57349181 -0.75418305 74 41 60
-0.19367979 -0.57365143 -0.75314432 76 39 63
-0.19385351 -0.57511383 -0.75332385 75 43 59
-0.19364335 -0.57360846 -0.75311893 76 39 63
-0.18972476 -0.57371598 -0.75090992 89 61 84
-0.1903403 -0.57386947 -0.75127184 88 59 80
-0.19200619 -0.57490975 -0.75225508 81 53 69
-0.19012402 -0.57518965 -0.75115281 84 54 77
-0.19033432 -0.57347971 -0.75126606 89 61 82
-0.18985216 -0.5755285 -0.75099534 84 52 77
-0.18990308 -0.57492131 -0.75102162 85 55 79
-0.19176571 -0.57409114 -0.75208938 83 54 72
-0.19202292 -0.57394266 -0.7522229 82 51 71
-0.19186652 -0.57461238 -0.75216872 82 54 70
-0.19110665 -0.57346481 -0.75170046 86 57 78
-0.19108306 -0.57234567 -0.75163543 87 54 80
-0.19263192 -0.57329273 -0.75252497 79 44 69
-0.18942282 -0.57385224 -0.75073475 90 60 85
-0.18888007 -0.57459956 -0.75044179 92 61 88
-0.19434899 -0.57745773 -0.75386846 73 45 56
-0.19475137 -0.57684451 -0.75404185 73 45 55
-0.19502585 -0.57716364 -0.75426197 73 45 55
-0.19361158 -0.57892764 -0.75358838 72 44 56
-0.19342192 -0.5777635 -0.75330865 73 45 57
-0.18945967 -0.57906443 -0.75118202 81 46 74
-0.19002973 -0.57962567 -0.75159073 79 45 71
-0.19114907 -0.58004111 -0.7522952 77 44 66
-0.1907497 -0.57821608 -0.75180429 78 47 69
-0.1894647 -0.57627749 -0.75078684 82 49 76
-0.1910651 -0.57962471 -0.75218731 77 45 66
-0.19085513 -0.5771113 -0.75171196 79 48 69
-0.1920618 -0.57874256 -0.75263608 75 46 62
-0.19097126 -0.57648456 -0.75169694 79 48 69
-0.19053712 -0.57671463 -0.75147283 80 48 71
-0.19051716 -0.57625538 -0.75140023 80 49 71
-0.19301407 -0.57728046 -0.75300068 74 46 59
-0.18923834 -0.57915449 -0.75106525 82 46 76
-0.18936075 -0.57695979 -0.7508235 82 49 76
-0.18875819 -0.57702994 -0.75049222 86 52 82
-0.19362515 -0.58113891 -0.75380468 69 43 54
-0.1942299 -0.58228421 -0.7542634 67 42 51
-0.19373837 -0.58279777 -0.75396973 66 41 51
-0.19030572 -0.58266085 -0.75194412 72 41 59
-0.19134843 -0.58217019 -0.75253272 72 42 60
-0.19182386 -0.58249807 -0.75282693 71 42 58
-0.18972524 -0.58397019 -0.751665 69 39 53
-0.19136797 -0.58353275 -0.752608 68 40 53
-0.19313438 -0.583965 -0.75366437 65 40 49
-0.19114338 -0.5805577 -0.75232452 76 44 65
-0.1932687 -0.583305 -0.75370616 66 41 50
-0.19232568 -0.58196568 -0.75308627 70 42 57
-0.19211473 -0.581128 -0.75291687 72 43 59
-0.1900924 -0.58015305 -0.75169581 79 44 70
-0.19144191 -0.58204621 -0.75258154 72 42 61
-0.18917561 -0.58117861 -0.75121295 77 42 68
-0.18917294 -0.58199334 -0.75124955 75 41 64
-0.18907596 -0.58132416 -0.75116175 77 42 68
-0.18839431 -0.58037049 -0.75071663 82 46 78
-0.18804011 -0.58245403 -0.75061035 74 40 65
-0.1886646 -0.58124405 -0.75091755 78 42 70
-0.1940444 -0.58446652 -0.75427198 63 40 48
-0.19351955 -0.58625966 -0.75409031 61 38 46
-0.19339389 -0.58759892 -0.7541092 60 38 46
-0.19046529 -0.58769858 -0.75232697 65 37 47
-0.19000186 -0.58636379 -0.75197095 67 37 50
-0.1899655 -0.58644474 -0.75195307 67 37 49
-0.19112982 -0.58612561 -0.75264823 65 38 49
-0.19053945 -0.58576518 -0.75226742 66 38 50
-0.19047099 -0.58680034 -0.75228167 66 37 49
-0.1913069 -0.58586836 -0.75274265 65 38 50
-0.19219358 -0.58499312 -0.7531938 65 39 49
-0.19307823 -0.5860455 -0.7537964 62 39 47
-0.18981624 -0.58415443 -0.75173259 69 39 53
-0.19251058 -0.58629245 -0.75348312 63 38 48
-0.19276135 -0.58606094 -0.75361174 63 39 48
-0.19044286 -0.58427393 -0.75210965 68 39 52
-0.18884191 -0.58545387 -0.75125146 67 37 51
-0.18743362 -0.58725357 -0.75057882 63 36 47
-0.18832 -0.58733451 -0.75106806 65 36 47
-0.18936835 -0.58636242 -0.7515887 67 37 50
-0.18833667 -0.58471489 -0.75091147 68 37 53
-0.18746834 -0.58669436 -0.75055677 64 36 49
-0.18906714 -0.58445895 -0.75131744 68 38 53
-0.19210196 -0.589486 -0.75353432 61 38 46
-0.19286364 -0.59024614 -0.75407499 59 37 46
-0.19262588 -0.58974272 -0.75387645 60 37 46
-0.19166331 -0.5899564 -0.75332451 62 38 46
-0.19084799 -0.5916611 -0.75302732 63 38 46
-0.1918384 -0.59138197 -0.75358862 61 38 46
-0.18954143 -0.58994281 -0.75202954 66 38 47
-0.19090182 -0.58925438 -0.75277555 64 38 46
-0.19056778 -0.5879845 -0.75241184 64 37 47
-0.19178416 -0.58807236 -0.75316715 62 37 46
-0.19047242 -0.58934921 -0.75252473 64 38 47
-0.18949944 -0.59133035 -0.75217789 66 39 47
-0.18864626 -0.59077418 -0.75163949 66 39 47
-0.18686831 -0.59156579 -0.75076866 67 40 49
-0.18868713 -0.59074914 -0.75165868 66 39 47
-0.18897508 -0.58850735 -0.75153452 67 37 48
-0.18770216 -0.59124529 -0.75118345 67 40 48
-0.18763895 -0.58986098 -0.75097513 67 38 48
-0.18676493 -0.59054571 -0.75058371 66 39 49
-0.18688168 -0.58972752 -0.75054401 65 38 48
-0.18668355 -0.59067816 -0.75055599 66 39 49
-0.19248928 -0.59281731 -0.75414193 58 36 47
-0.19253764 -0.59298861 -0.75419056 58 36 47
-0.19219337 -0.59540325 -0.75426275 57 36 47
-0.19158298 -0.59291446 -0.75361091 60 37 47
-0.19197249 -0.59301084 -0.75385505 59 37 47
-0.19017948 -0.59320623 -0.75279349 63 38 47
-0.19092005 -0.59433925 -0.75336462 60 37 47
-0.19029842 -0.59398359 -0.75293553 61 37 47
-0.19162686 -0.59494525 -0.75386953 58 36 47
-0.18914074 -0.5939731 -0.75221479 63 38 48
-0.18945095 -0.59334636 -0.75233769 63 38 47
-0.18712838 -0.59549278 -0.75120234 64 39 53
-0.18663228 -0.59521282 -0.75089741 65 40 53
-0.18687144 -0.59501296 -0.75101608 65 40 53
-0.18927039 -0.59200603 -0.7521221 66 40 47
-0.18846256 -0.59263456 -0.75172102 66 40 49
-0.18781611 -0.59268051 -0.75137126 66 40 49
-0.18745285 -0.5933404 -0.75121516 66 40 51
-0.18713798 -0.59293348 -0.75101739 67 40 50
-0.18672723 -0.59308994 -0.75080323 67 40 51
-0.18687828 -0.59191781 -0.7508108 67 40 49
-0.1916267 -0.5972991 -0.75424355 53 34 47
-0.19093838 -0.59737408 -0.75381625 54 34 47
-0.19140281 -0.59805375 -0.75424641 52 33 47
-0.19054425 -0.59675723 -0.75344336 56 34 48
-0.18960291 -0.59698045 -0.7528649 56 34 48
-0.18995598 -0.59789914 -0.75326937 54 33 48
-0.18972287 -0.59718603 -0.75298369 56 34 48
-0.1865335 -0.59585226 -0.75090683 65 40 54
-0.18719201 -0.59683824 -0.75145078 66 41 54
-0.18631467 -0.59820712 -0.7511909 70 45 58
-0.18876228 -0.59630138 -0.75224972 62 38 51
-0.18555614 -0.59775752 -0.75068128 70 45 59
-0.18567085 -0.59690702 -0.75059813 69 43 57
-0.18616997 -0.59785581 -0.75104731 69 44 58
-0.18608971 -0.59931248 -0.75125587 71 46 60
-0.18932082 -0.59698504 -0.75268698 57 34 49
-0.18797302 -0.59955055 -0.75236881 59 37 53
-0.18730244 -0.59947133 -0.75197351 63 41 55
-0.18702039 -0.59958768 -0.75183338 65 42 56
-0.18916292 -0.59620053 -0.75246 60 36 49
-0.18524867 -0.59842736 -0.75065982 73 48 60
-0.1847863 -0.5993703 -0.75061804 77 52 62
-0.18991263 -0.60117787 -0.75380939 47 29 46
-0.19026323 -0.6013183 -0.75407577 46 29 46
-0.18946792 -0.60289603 -0.75379014 45 28 47
-0.18761158 -0.60339195 -0.75273412 58 37 56
-0.1861057 -0.60201561 -0.7516374 69 45 62
-0.18608499 -0.60231918 -0.75166166 69 45 62
-0.18743506 -0.60211855 -0.75246984 59 38 55
-0.18602625 -0.60032105 -0.75138152 70 46 60
-0.18566574 -0.60173631 -0.75133198 73 47 64
-0.18670779 -0.60231227 -0.75204492 65 42 59
-0.18790875 -0.60063279 -0.75251645 58 37 53
-0.18927079 -0.60275054 -0.7536512 46 29 47
-0.18824783 -0.60066831 -0.75271547 56 35 52
-0.18879798 -0.6018849 -0.7532351 50 32 49
-0.18801478 -0.6008085 -0.75260669 57 36 52
-0.18845223 -0.60132408 -0.7529431 53 34 51
-0.18476918 -0.60265267 -0.75102115 77 51 67
-0.1845738 -0.60131639 -0.75077021 78 52 65
-0.18434989 -0.60323173 -0.75090349 79 53 68
-0.18504056 -0.60276264 -0.75115651 76 50 66
-0.18377185 -0.60211235 -0.75050783 82 56 68
-0.18492135 -0.60054743 -0.75083262 76 51 64
-0.1847939 -0.60075861 -0.75080115 77 52 64
-0.18967648 -0.60407782 -0.75422323 44 27 45
-0.18904172 -0.60479677 -0.75402451 49 30 47
-0.18829378 -0.6068455 -0.75418812 58 35 49
-0.18707447 -0.606103 -0.75313866 69 48 58
-0.18891436 -0.60450226 -0.75384504 50 32 49
-0.18806571 -0.60667229 -0.7539807 60 37 51
-0.18896256 -0.60444611 -0.75385892 49 31 48
-0.18668406 -0.60614794 -0.7529003 72 51 60
-0.18718646 -0.60536569 -0.75299525 66 46 58
-0.18676402 -0.60443795 -0.75247985 67 45 60
-0.18740429 -0.6037122 -0.75267535 60 39 57
-0.18722068 -0.60389453 -0.75261217 62 40 58
-0.18598972 -0.60446209 -0.75200897 73 49 64
-0.18502419 -0.60381079 -0.75132036 77 51 68
-0.18323806 -0.60475069 -0.75077057 90 64 73
-0.1846586 -0.60433298 -0.75129259 80 54 69
-0.18385004 -0.60506928 -0.75112379 86 60 71
-0.18524072 -0.60621208 -0.75207549 83 58 67
-0.18461685 -0.60664821 -0.75190777 87 62 69
-0.18549085 -0.60569102 -0.7520476 80 56 66
-0.18465954 -0.60495621 -0.7514627 82 56 69
-0.18518557 -0.6051268 -0.75175196 80 55 67
-0.18436669 -0.60631669 -0.75170141 87 62 69
-0.18678673 -0.60801601 -0.75352848 75 52 61
-0.18697248 -0.60929269 -0.75398678 77 57 66
-0.18696088 -0.60810316 -0.753667 73 51 60
-0.18660024 -0.61058438 -0.75407821 84 68 75
-0.18752104 -0.60908562 -0.7542969 71 51 62
-0.18575948 -0.61033332 -0.75345188 89 72 76
-0.18558162 -0.60899365 -0.75298297 88 67 71
-0.18464988 -0.61110657 -0.75305897 96 78 84
-0.18324174 -0.60936719 -0.75197482 99 77 81
-0.18423297 -0.61021984 -0.75266266 96 77 81
-0.18501338 -0.60783875 -0.75241202 88 65 69
-0.18481432 -0.6087023 -0.75254601 91 69 73
-0.18401046 -0.60877699 -0.75219512 95 73 75
-0.18417609 -0.60778522 -0.75201219 92 68 71
-0.18490523 -0.6103127 -0.7530089 94 75 79
-0.18558115 -0.61290294 -0.754246 82 66 78
-0.18503 -0.61275601 -0.75385547 84 65 76
-0.21387427 -0.56424367 -0.76640576 106 87 139
-0.21776222 -0.56596041 -0.76965791 86 58 96
-0.21748766 -0.56604511 -0.76943082 85 55 95
-0.21741393 -0.56737429 -0.76952761 70 41 69
-0.21731855 -0.56764734 -0.76948011 67 38 64
-0.21341074 -0.5652616 -0.76621526 97 77 123
-0.21428424 -0.56503606 -0.76683891 98 75 123
-0.21406673 -0.56477672 -0.76663518 101 80 130
-0.2131359 -0.56668001 -0.76622409 86 59 95
-0.21344072 -0.56683606 -0.76647592 84 55 89
-0.21546189 -0.56531066 -0.76776761 95 66 113
-0.21457003 -0.56834054 -0.76750481 66 33 55
-0.21537861 -0.56797212 -0.7680465 68 37 60
-0.21628593 -0.56659514 -0.76853573 80 50 85
-0.21668723 -0.56619912 -0.76877826 83 54 91
-0.2139523 -0.56757629 -0.76696217 75 41 71
-0.21660331 -0.5683133 -0.76897776 61 33 51
-0.21642412 -0.56515968 -0.76845932 95 64 112
-0.21713625 -0.57010961 -0.76975954 63 35 49
-0.2130774 -0.56858778 -0.76646525 69 34 58
-0.21341917 -0.57137096 -0.7670626 68 39 52
-0.2132424 -0.56934649 -0.76668626 69 35 56
-0.21357417 -0.56908262 -0.7669245 69 35 57
-0.21417917 -0.57051045 -0.76757896 68 38 53
-0.2134645 -0.56922758 -0.76685238 69 35 56
-0.21308599 -0.56954658 -0.76658267 69 36 56
-0.21402945 -0.56845605 -0.76713383 67 33 56
-0.21621172 -0.57095921 -0.76921612 67 39 50
-0.21553916 -0.56839693 -0.76821822 63 33 52
-0.21518821 -0.56859195 -0.76800227 65 33 53
-0.21503985 -0.5690493 -0.76798546 66 35 53
-0.21654481 -0.57182634 -0.76963043 67 41 49
-0.21672314 -0.57187694 -0.76976997 67 41 49
-0.21283333 -0.57181579 -0.76664019 68 40 51
-0.21271791 -0.57172489 -0.76653773 68 40 51
-0.21204111 -0.57195413 -0.76602519 68 40 50
-0.21634562 -0.5728417 -0.76961279 69 43 52
-0.21444814 -0.5760206 -0.76852739 81 56 68
-0.21543708 -0.57375211 -0.76899129 72 46 56
-0.21417052 -0.57586086 -0.76826471 79 54 68
-0.21522625 -0.57563156 -0.76912457 80 57 66
-0.213782 -0.57523435 -0.76783192 76 49 64
-0.21410361 -0.57269794 -0.76777411 69 42 52
-0.21448678 -0.57313061 -0.76813871 70 43 54
-0.21554673 -0.57307029 -0.76898944 70 43 53
-0.21395855 -0.57438838 -0.76786876 73 47 60
-0.21592766 -0.57273781 -0.76925617 69 43 51
-0.21389358 -0.57256228 -0.76758707 68 42 51
-0.21255711 -0.57486749 -0.7667864 74 47 62
-0.21256684 -0.57448769 -0.76674688 73 46 60
-0.21175382 -0.57452792 -0.76608557 73 46 59
-0.2126393 -0.57234567 -0.76654637 68 41 51
-0.21503466 -0.57806164 -0.76933217 74 51 61
-0.21421912 -0.57792622 -0.76861835 74 48 62
-0.21563472 -0.57693559 -0.76967537 80 58 65
-0.21414517 -0.57765818 -0.76851559 75 49 63
-0.21544498 -0.5794329 -0.76988488 69 46 55
-0.21540853 -0.57662421 -0.76943672 81 59 67
-0.2138764 -0.57841468 -0.76834154 72 47 61
-0.21307454 -0.57671517 -0.7674436 77 50 68
-0.21337534 -0.57830918 -0.76784295 72 47 62
-0.21434809 -0.5787313 -0.76882523 71 46 59
-0.2147139 -0.57971984 -0.76924878 68 44 55
-0.21206839 -0.57960755 -0.76682347 70 45 60
-0.2124465 -0.5795241 -0.76710701 70 45 60
-0.21119806 -0.5797773 -0.76616919 71 46 59
-0.211926 -0.57729119 -0.76653516 76 49 65
-0.21180978 -0.57725507 -0.76643485 76 49 65
-0.21151116 -0.57645005 -0.76610684 76 49 65
-0.2143871 -0.58179843 -0.76916933 68 44 58
-0.21490285 -0.58065337 -0.76953048 67 43 55
-0.21373455 -0.58117855 -0.76845032 68 44 58
-0.21425419 -0.58107328 -0.76894701 68 43 57
-0.21373175 -0.58144027 -0.76848072 68 44 59
-0.21294208 -0.58179343 -0.76784968 68 45 60
-0.21397559 -0.58382171 -0.7691204 69 45 61
-0.21309622 -0.58057767 -0.76775354 68 44 59
-0.21340658 -0.58121145 -0.76813978 68 44 59
-0.21202159 -0.58363128 -0.7674346 70 47 63
-0.2120658 -0.58397764 -0.76753622 70 47 63
-0.21249954 -0.58310372 -0.76772952 69 46 61
-0.21224183 -0.58115578 -0.7671504 69 45 60
-0.21202134 -0.58191484 -0.76711136 70 46 61
-0.21103233 -0.58057517 -0.76613522 71 46 59
-0.21132338 -0.58173478 -0.76652813 71 46 61
-0.21087041 -0.58223593 -0.7662555 72 47 62
-0.21184804 -0.58090186 -0.76680678 70 45 60
-0.21381205 -0.58556592 -0.7691837 80 58 73
-0.21384715 -0.58470815 -0.76911986 74 51 66
-0.21329592 -0.58492476 -0.76866943 75 54 68
-0.21347456 -0.5846318 -0.76879096 73 51 66
-0.21353136 -0.5878154 -0.76936048 83 62 75
-0.21313739 -0.58587629 -0.76873684 74 53 67
-0.21400973 -0.5876298 -0.76963592 90 70 83
-0.21233442 -0.5876444 -0.76848578 68 47 60
-0.21121714 -0.5861659 -0.7673493 55 35 51
-0.21156436 -0.58651936 -0.76768237 59 39 54
-0.21172819 -0.58661944 -0.76782686 61 40 55
-0.21124536 -0.58616346 -0.7673704 55 36 52
-0.21215677 -0.58577055 -0.76799423 63 43 58
-0.21120672 -0.58577383 -0.76726693 54 35 51
-0.21129416 -0.58428055 -0.76697433 69 45 62
-0.21047719 -0.58493608 -0.76646262 64 41 58
-0.21017937 -0.58515531 -0.76627123 63 40 57
-0.20969824 -0.58617604 -0.76612669 53 32 50
-0.20961596 -0.58614796 -0.76605189 54 32 50
-0.21376717 -0.58847189 -0.76954448 89 68 78
-0.21330281 -0.58904815 -0.76925933 83 63 69
-0.21375456 -0.59059167 -0.76959252 95 77 74
-0.21334329 -0.59046513 -0.76928753 96 76 74
-0.21020359 -0.58978808 -0.76710129 59 38 44
-0.21248043 -0.58809304 -0.76866585 71 49 61
-0.20938456 -0.59010071 -0.76650691 53 33 38
-0.20927833 -0.58887464 -0.76629549 45 26 38
-0.20903838 -0.59115154 -0.76635319 55 35 35
-0.21221384 -0.59129173 -0.76850432 96 77 70
-0.21250093 -0.58934897 -0.76869851 82 61 66
-0.21280284 -0.589935 -0.76889533 91 71 72
-0.21182491 -0.59024346 -0.76825166 81 61 62
-0.2094609 -0.59175396 -0.76669359 64 44 40
-0.212341 -0.58969849 -0.76859242 83 62 65
-0.20870501 -0.59075981 -0.76601982 53 33 36
-0.21363086 -0.59341186 -0.76961052 126 105 104
-0.21343595 -0.59210879 -0.76937443 111 93 84
-0.21297134 -0.59547901 -0.76926076 153 128 135
-0.21289261 -0.59404516 -0.76910347 136 114 114
-0.20911106 -0.59396476 -0.76649678 102 77 84
-0.21056326 -0.59361905 -0.76752931 103 79 82
-0.20953283 -0.5937888 -0.76679575 101 76 82
-0.2113332 -0.59556705 -0.76810235 145 119 129
-0.20931366 -0.59215188 -0.76661962 67 46 44
-0.2122812 -0.59250879 -0.76859605 110 90 84
-0.21222213 -0.59456027 -0.76869798 133 110 114
-0.20965888 -0.59198767 -0.7668367 70 49 45
-0.21282972 -0.59543222 -0.76915717 152 127 134
-0.21240407 -0.59415704 -0.76878989 131 108 110
-0.20873326 -0.59229773 -0.76616842 68 46 46
-0.21336509 -0.59621656 -0.76958805 151 124 135
-0.21261765 -0.59654236 -0.76898134 145 119 130
-0.17851588 -0.58606827 -0.74620414 77 55 69
-0.1785429 -0.58581281 -0.74619758 78 55 69
-0.17821087 -0.58604944 -0.74605513 78 55 70
-0.17839663 -0.5877164 -0.7462765 77 53 70
-0.17767698 -0.58695662 -0.74587208 79 55 72
-0.17812635 -0.59057426 -0.74634373 74 48 65
-0.17832559 -0.58995283 -0.74639666 74 49 66
-0.17565493 -0.59553945 -0.74597526 69 38 58
-0.17683545 -0.59348464 -0.7461341 71 42 61
-0.17579937 -0.59493768 -0.74594367 70 39 60
-0.17691214 -0.5939104 -0.74622589 70 42 59
-0.17716545 -0.59257048 -0.74612904 72 44 63
-0.17690016 -0.59241951 -0.74599904 73 44 65
-0.17431185 -0.5937196 -0.74515355 74 43 71
-0.17619455 -0.59273314 -0.74576163 73 44 67
-0.17721324 -0.59227204 -0.74610299 72 45 64
-0.1745432 -0.59406006 -0.74530637 73 42 68
-0.17408 -0.59416801 -0.745134 74 42 70
-0.17354271 -0.5955295 -0.74516225 72 41 68
-0.17255928 -0.59467822 -0.74470061 84 52 80
-0.17292823 -0.59398586 -0.74471909 83 51 80
-0.17333928 -0.59366149 -0.74479228 80 48 78
-0.1751781 -0.59652406 -0.7459358 70 39 59
-0.17578511 -0.59736073 -0.74629545 70 41 57
-0.17503808 -0.59794891 -0.74609268 71 42 60
-0.17431596 -0.59621173 -0.7455548 70 39 63
-0.17490284 -0.59614629 -0.7457729 70 39 60
-0.17488562 -0.59912199 -0.74622238 71 42 59
-0.17472261 -0.59921718 -0.74618232 71 41 59
-0.17321955 -0.5992927 -0.7456544 74 44 64
-0.1738034 -0.59942055 -0.74589986 69 38 58
-0.17359819 -0.59857184 -0.74567705 71 40 61
-0.17227462 -0.59704667 -0.74489832 81 53 76
-0.17279823 -0.59734374 -0.74515533 77 48 71
-0.17212197 -0.5965268 -0.74475116 83 54 79
-0.17287295 -0.59702283 -0.74513143 77 47 71
-0.17516407 -0.59988624 -0.74646246 73 45 60
-0.20630158 -0.56531578 -0.76074582 94 66 111
-0.20612253 -0.56535006 -0.7606169 94 66 110
-0.20599559 -0.56512243 -0.76049107 96 69 113
-0.207417 -0.566122 -0.76168817 87 55 100
-0.20670748 -0.56785905 -0.76136124 73 39 72
-0.20593388 -0.56689227 -0.76064175 81 50 86
-0.20540887 -0.5681951 -0.76034057 70 33 68
-0.2060141 -0.56655896 -0.76067495 84 54 91
-0.20348428 -0.56803018 -0.75895619 74 38 77
-0.20493041 -0.56638604 -0.75979775 85 55 95
-0.20320337 -0.56834322 -0.75879216 71 35 74
-0.20395018 -0.56757665 -0.75923455 77 42 82
-0.20265 -0.56786287 -0.75836492 76 42 82
-0.20410536 -0.56563467 -0.75915879 94 66 109
-0.20263968 -0.56711888 -0.75829577 85 54 93
-0.20394573 -0.56552005 -0.75904167 96 70 111
-0.2064379 -0.56890529 -0.76123023 68 33 63
-0.20667103 -0.56977654 -0.76148266 68 34 60
-0.20629062 -0.57004392 -0.76119375 68 34 60
-0.20582874 -0.56876498 -0.76072615 68 32 64
-0.20521988 -0.57152092 -0.7604574 68 37 53
-0.20624836 -0.57205129 -0.76131862 67 38 52
-0.20614889 -0.57070744 -0.76113051 67 35 58
-0.20377088 -0.57209331 -0.75953209 66 38 50
-0.20465791 -0.57124609 -0.76004618 67 36 54
-0.20483685 -0.57115662 -0.76015651 67 36 54
-0.20433718 -0.57185119 -0.75988454 67 37 51
-0.20422541 -0.57081747 -0.75972724 67 35 56
-0.20453525 -0.57093966 -0.75994074 67 36 55
-0.20295839 -0.56932938 -0.75873101 69 35 67
-0.20201729 -0.57121432 -0.75828803 66 37 56
-0.20298536 -0.56880051 -0.75869155 70 35 71
-0.20357673 -0.56915969 -0.7591393 69 34 66
-0.20337152 -0.57023352 -0.75911546 66 34 59
-0.20641576 -0.57255363 -0.76150936 67 39 52
-0.20682894 -0.57265508 -0.76185215 67 39 53
-0.20690019 -0.57236695 -0.76186866 67 38 52
-0.20638068 -0.57499725 -0.76182234 72 45 55
-0.20633319 -0.57609421 -0.76194042 74 49 57
-0.20525302 -0.57486147 -0.76091939 73 46 55
-0.20509793 -0.57511216 -0.76083511 73 47 55
-0.2040233 -0.57395017 -0.75988984 69 42 52
-0.20341037 -0.57521719 -0.75963247 71 45 54
-0.2041509 -0.57500488 -0.76013553 71 45 54
-0.20237406 -0.57562715 -0.75894499 69 44 54
-0.20375282 -0.57571268 -0.75995159 72 47 56
-0.20494585 -0.57294929 -0.7604093 69 40 51
-0.20396139 -0.57287568 -0.75972176 67 39 50
-0.20383275 -0.57319385 -0.75966352 67 40 51
-0.20214659 -0.57330507 -0.75856477 65 39 51
-0.20241122 -0.57477325 -0.75886017 68 42 53
-0.20269458 -0.57378477 -0.75896454 67 40 51
-0.20264365 -0.57386237 -0.75893748 67 40 52
-0.20581985 -0.57889849 -0.76185805 84 61 63
-0.20545346 -0.57753104 -0.76141906 80 56 60
-0.20555191 -0.57618058 -0.76134413 75 50 58
-0.20526956 -0.57766819 -0.76128405 81 57 61
-0.20580184 -0.5793398 -0.76189345 86 63 64
-0.20295118 -0.57660264 -0.75946218 73 47 56
-0.20220679 -0.57649112 -0.75891984 71 46 55
-0.20213801 -0.57882249 -0.75899523 76 49 57
-0.20127408 -0.57741094 -0.75829506 71 45 55
-0.20323731 -0.5773868 -0.75971103 75 49 57
-0.20449711 -0.57671839 -0.76058424 76 50 57
-0.20132111 -0.57722127 -0.75831872 71 45 55
-0.20506464 -0.57788837 -0.76113772 82 59 62
-0.2035217 -0.57944947 -0.76010936 83 59 62
-0.20441569 -0.57791847 -0.76064169 80 56 60
-0.20373972 -0.57845032 -0.7601757 80 55 60
-0.20220053 -0.57994044 -0.75914305 80 54 60
-0.20493187 -0.5773195 -0.76097792 80 56 60
-0.20475227 -0.57975113 -0.76108634 89 67 66
-0.20585614 -0.58057284 -0.76209539 87 65 66
-0.20333111 -0.58320105 -0.76053125 76 57 64
-0.20328979 -0.58280891 -0.7604391 77 57 64
-0.20390426 -0.58351594 -0.76102757 77 59 66
-0.20293559 -0.58190572 -0.76002425 78 56 63
-0.20133072 -0.58174014 -0.75874376 74 49 57
-0.20212001 -0.58338976 -0.7596128 73 51 59
-0.20236759 -0.58366036 -0.7598477 73 52 60
-0.20415938 -0.58138943 -0.76088071 84 64 66
-0.20470974 -0.58082467 -0.76121044 88 67 67
-0.20467964 -0.58289009 -0.76152945 81 64 68
-0.2048033 -0.58265108 -0.76158494 83 65 68
-0.20305789 -0.58153188 -0.76005721 79 57 63
-0.20321991 -0.58163416 -0.76019871 80 58 64
-0.20084904 -0.58390844 -0.7587356 69 46 55
-0.20064604 -0.5821414 -0.758331 72 47 55
-0.2044882 -0.58679515 -0.76198691 53 37 48
-0.20411216 -0.58535212 -0.76146078 69 53 60
-0.20384443 -0.58726901 -0.76154757 50 34 45
-0.20308177 -0.58634865 -0.76079494 63 46 54
-0.20455125 -0.58660156 -0.76200688 54 39 50
-0.20237663 -0.58690661 -0.76031983 61 42 50
-0.20194085 -0.58451438 -0.75963813 70 49 57
-0.20175859 -0.58415401 -0.75944477 70 49 57
-0.20297283 -0.58402801 -0.76037663 74 55 62
-0.20200579 -0.58419299 -0.75964361 71 50 58
-0.20317027 -0.58537602 -0.76072127 70 52 59
-0.20167945 -0.58569759 -0.75960058 65 44 52
-0.20119447 -0.58496678 -0.7591182 66 44 53
-0.20080078 -0.58698016 -0.75912356 59 38 47
-0.20117019 -0.58586639 -0.7592262 63 41 50
-0.19983827 -0.587071 -0.75845951 58 38 46
-0.20052162 -0.58444512 -0.75858605 67 44 53
-0.20019206 -0.58412951 -0.75832802 67 44 53
-0.20275189 -0.5891735 -0.7609539 47 30 40
-0.20292629 -0.58986789 -0.76119077 45 29 38
-0.20377903 -0.58876169 -0.76171535 43 27 39
-0.20244515 -0.58884627 -0.76066315 49 31 41
-0.20309018 -0.58970672 -0.76129878 45 28 38
-0.20209037 -0.58883905 -0.76037908 50 32 41
-0.201407 -0.59022045 -0.76005775 47 31 39
-0.20140049 -0.58886051 -0.75984102 52 33 42
-0.20323698 -0.59124613 -0.76163572 42 26 35
-0.20209624 -0.59069037 -0.76066506 45 29 37
-0.20103906 -0.5885582 -0.75952202 53 34 43
-0.20115128 -0.59038556 -0.75988656 47 31 39
-0.20100686 -0.59045529 -0.75979435 47 31 39
-0.2008819 -0.58832961 -0.75937426 55 35 44
-0.19911647 -0.59130573 -0.75857782 48 32 38
-0.19930404 -0.59052539 -0.75859082 50 33 40
-0.19869567 -0.59132963 -0.75828248 48 32 38
-0.20029067 -0.58819866 -0.75893897 55 35 44
-0.20222569 -0.59223378 -0.76100856 43 29 36
-0.20212857 -0.59261507 -0.76099515 45 30 36
-0.20284221 -0.59324169 -0.76164997 47 32 37
-0.20312354 -0.5918135 -0.7616362 40 26 34
-0.20237105 -0.5949803 -0.76157933 54 37 40
-0.20237219 -0.59528667 -0.76163739 54 37 40
-0.20131429 -0.5925591 -0.7603659 43 29 36
-0.19835693 -0.59482312 -0.75866812 48 32 42
-0.20061895 -0.59536225 -0.76039076 46 28 39
-0.20084618 -0.59389901 -0.76028025 44 28 38
-0.20082641 -0.59386653 -0.76025999 44 29 38
-0.20084937 -0.59533811 -0.76055151 46 28 39
-0.1991058 -0.59550989 -0.75933343 48 31 41
-0.19873266 -0.59247559 -0.75850505 47 31 38
-0.19800067 -0.59490532 -0.75842881 49 33 42
-0.19844367 -0.59302956 -0.75840056 48 32 39
-0.19872637 -0.59378952 -0.7587418 47 32 40
-0.20288323 -0.59584749 -0.76210815 58 41 42
-0.19822618 -0.59651446 -0.75884223 46 30 40
-0.2007633 -0.59576899 -0.76056641 46 28 39
-0.19742346 -0.59770131 -0.7584157 43 28 38
-0.20036152 -0.59615666 -0.76032716 45 28 38
-0.19767235 -0.59744865 -0.75856245 43 29 38
-0.19779509 -0.59755677 -0.75866383 43 28 38
-0.1996479 -0.59682137 -0.75989902 43 27 37
-0.19813849 -0.59881061 -0.75907081 38 25 34
-0.19907603 -0.59927028 -0.75988609 38 22 36
-0.19932328 -0.59808505 -0.75985724 40 25 36
-0.20065801 -0.59724826 -0.76073951 42 24 38
-0.2003247 -0.59745878 -0.7605195 42 24 37
-0.20016199 -0.5990296 -0.76068604 38 20 38
-0.19762571 -0.60311955 -0.75980926 37 22 33
-0.19889823 -0.59969473 -0.75983506 37 21 35
-0.1978862 -0.600591 -0.75929999 37 23 34
-0.19763197 -0.60096097 -0.75920635 37 23 33
-0.19733022 -0.60168153 -0.75917447 37 23 33
-0.19958946 -0.6006335 -0.76063716 37 19 37
-0.19639829 -0.60145849 -0.75839013 39 25 35
-0.19640483 -0.60242367 -0.75866699 39 24 35
-0.19587594 -0.60313678 -0.75845844 41 25 36
-0.1964397 -0.60104662 -0.75831366 39 25 35
-0.19728917 -0.60388601 -0.7596944 41 25 35
-0.19741341 -0.60465133 -0.75984871 51 32 43
-0.19518834 -0.60693675 -0.75862712 59 34 42
-0.19623077 -0.60635716 -0.75925893 59 33 43
-0.19560674 -0.60584831 -0.75878805 51 30 38
-0.19665974 -0.60470164 -0.75936544 45 27 36
-0.19572499 -0.60645181 -0.75893211 57 33 42
-0.19573601 -0.60475105 -0.75868571 46 27 37
-0.19660126 -0.60438579 -0.75928766 42 25 35
-0.19582205 -0.603679 -0.75855368 42 25 36
-0.19454254 -0.60759521 -0.75828952 61 34 42
-0.19623056 -0.60802656 -0.75951421 68 36 45
-0.19632167 -0.60766286 -0.75949061 69 37 47
-0.19583873 -0.60802919 -0.7592538 67 36 44
-0.19377296 -0.61066443 -0.75849241 55 27 27
-0.19379893 -0.61120647 -0.75860119 60 32 32
-0.19584724 -0.60977131 -0.75955826 80 48 56
-0.19287163 -0.61282372 -0.75835383 78 49 55
-0.19220757 -0.61434484 -0.75824249 101 70 86
-0.19171223 -0.61549908 -0.75823486 114 80 102
-0.22736175 -0.56679308 -0.77758801 93 66 96
-0.22601922 -0.56552362 -0.77632076 98 75 108
-0.22693038 -0.56623572 -0.77716249 95 70 101
-0.22721623 -0.56744862 -0.77754796 88 62 91
-0.22720532 -0.56640846 -0.77741128 95 68 100
-0.2251884 -0.56496406 -0.77556431 99 79 113
-0.2264515 -0.56783652 -0.77700949 82 57 83
-0.22508053 -0.56802672 -0.77604091 70 46 66
-0.22682081 -0.56809562 -0.77732885 82 56 83
-0.22580671 -0.56782961 -0.77653575 77 53 76
-0.22350013 -0.56650764 -0.77447337 82 58 83
-0.22444493 -0.56533659 -0.77504998 93 72 103
-0.22401747 -0.56568551 -0.77475506 90 68 97
-0.22407754 -0.56783974 -0.77521169 69 44 63
-0.22379573 -0.56544989 -0.77450848 92 70 101
-0.22320382 -0.56584114 -0.77405894 87 64 96
-0.22655936 -0.56883949 -0.77726954 80 54 78
-0.22649087 -0.56884903 -0.77722102 79 53 77
-0.22613956 -0.56974012 -0.77711689 82 55 78
-0.22587013 -0.57015425 -0.77699071 82 55 77
-0.22596921 -0.56879735 -0.77682996 75 50 72
-0.2254339 -0.57052147 -0.77671456 81 53 73
-0.22546233 -0.57198626 -0.7769087 87 58 77
-0.22603187 -0.5717445 -0.77736801 92 62 85
-0.22472225 -0.56935376 -0.77597028 69 44 60
-0.22444168 -0.56946039 -0.77573824 68 43 58
-0.22325306 -0.57133353 -0.77490795 75 51 64
-0.22401327 -0.56977743 -0.77539748 69 45 59
-0.22294158 -0.57113564 -0.77461052 74 50 63
-0.22221807 -0.56986576 -0.77387601 70 43 58
-0.22269776 -0.56860089 -0.77416694 65 37 54
-0.22251728 -0.56841308 -0.77399766 65 36 53
-0.22308576 -0.56891918 -0.77452302 66 40 56
-0.22497144 -0.57436907 -0.77717113 76 43 65
-0.22570665 -0.57313854 -0.77741987 88 56 79
-0.22556847 -0.5745185 -0.77772814 82 47 73
-0.22571251 -0.57407361 -0.77771384 85 51 76
-0.22324216 -0.57247043 -0.77507484 77 52 65
-0.22122759 -0.57433975 -0.77392447 61 44 60
-0.22255358 -0.57334471 -0.77476031 70 48 63
-0.22191632 -0.57404768 -0.77443373 64 44 61
-0.22389506 -0.5728938 -0.77578992 74 49 64
-0.22307707 -0.57356262 -0.77529246 68 46 62
-0.22397618 -0.57535088 -0.77664763 67 34 59
-0.22228222 -0.57613701 -0.77541769 57 34 57
-0.22296225 -0.57525706 -0.77573025 63 37 59
-0.22108117 -0.57612288 -0.77436215 52 37 58
-0.22373107 -0.5749343 -0.77629936 67 37 60
-0.22373241 -0.57475454 -0.77624285 68 38 60
-0.22153923 -0.57558012 -0.7745887 56 39 59
-0.22283238 -0.57432032 -0.77531588 65 43 61
-0.22408994 -0.57956028 -0.77772796 132 118 101
-0.2228505 -0.57836348 -0.77645844 78 53 69
-0.22383234 -0.57946819 -0.77749318 125 110 98
-0.22245881 -0.57876581 -0.77621686 78 55 70
-0.2230203 -0.57858694 -0.77664399 87 64 74
-0.2230722 -0.57917541 -0.77680629 101 83 84
-0.22137851 -0.5796113 -0.77549684 73 55 70
-0.22315419 -0.57713938 -0.77643633 66 35 60
-0.22142729 -0.57741904 -0.77499592 59 41 61
-0.22188067 -0.57697791 -0.77528119 59 38 60
-0.22280671 -0.57628226 -0.77591574 60 33 57
-0.22276688 -0.5776819 -0.77623457 66 38 62
-0.2214198 -0.57692385 -0.7748642 57 39 60
-0.22125547 -0.57670707 -0.77466571 55 38 59
-0.22063997 -0.57826632 -0.77451885 60 46 64
-0.22054252 -0.5792821 -0.77468681 65 50 67
-0.22045049 -0.57711971 -0.77405667 56 41 61
-0.22034526 -0.57652688 -0.77383244 52 39 59
-0.22202154 -0.58143979 -0.77608323 108 94 103
-0.22104119 -0.58115047 -0.7752887 89 76 85
-0.22056876 -0.58230621 -0.77486151 102 91 91
-0.22063133 -0.58038902 -0.77495903 73 59 72
-0.22021867 -0.58041042 -0.77458155 74 59 74
-0.21977921 -0.58295292 -0.77409273 109 101 97
-0.21959661 -0.58263993 -0.77393746 106 96 95
-0.22028336 -0.58428448 -0.77456272 126 117 107
-0.18949379 -0.5674777 -0.75028479 151 139 141
-0.18743943 -0.56757021 -0.74916983 147 133 141
-0.18742667 -0.5677861 -0.74917394 146 132 140
-0.18762197 -0.57088065 -0.74955517 125 102 123
-0.18811253 -0.56986654 -0.74973518 136 118 130
-0.18927529 -0.56905866 -0.75032979 140 128 130
-0.18745714 -0.57067555 -0.74943721 129 106 127
-0.18790923 -0.56908196 -0.74954534 141 125 134
-0.18753052 -0.56980389 -0.74939507 136 117 132
-0.18766366 -0.56888586 -0.74938732 141 126 135
-0.18856762 -0.56876934 -0.74989235 144 131 135
-0.18847129 -0.56925184 -0.74988139 141 127 134
-0.18871681 -0.57287508 -0.75034368 98 70 95
-0.18851823 -0.57277083 -0.75022715 100 71 97
-0.18812583 -0.57324982 -0.74999964 101 71 99
-0.18821079 -0.57715523 -0.75022036 90 54 87
-0.18661058 -0.58178079 -0.74971884 83 47 80
-0.18706569 -0.58256364 -0.75003344 77 43 71
-0.1860691 -0.58287776 -0.74948949 77 41 71
-0.1865128 -0.58219218 -0.74968565 81 45 77
-0.18680394 -0.58311218 -0.74991643 75 40 67
-0.18222499 -0.58180672 -0.74744058 98 57 93
-0.18370357 -0.58307213 -0.74830729 83 46 75
-0.18272309 -0.58126026 -0.74757642 100 54 99
-0.18326016 -0.58320844 -0.74813014 83 49 74
-0.18356019 -0.58395588 -0.74838477 77 47 65
-0.18382463 -0.583233 -0.74838746 81 45 73
-0.18420602 -0.58256018 -0.74845773 85 44 81
-0.1850165 -0.58335555 -0.74895048 76 38 70
-0.18371965 -0.58173913 -0.7481364 93 49 90
-0.18265027 -0.58099437 -0.747509 102 55 102
-0.18527117 -0.58256495 -0.74902773 80 43 76
-0.18004839 -0.58389348 -0.74676418 81 57 68
-0.18071397 -0.58330894 -0.74698347 87 58 75
-0.18731216 -0.58410037 -0.75027311 68 35 58
-0.186774 -0.58689147 -0.75017703 63 35 49
-0.18659034 -0.5842585 -0.7498824 68 35 58
-0.1860221 -0.58596557 -0.74969244 65 34 53
-0.18576884 -0.58469743 -0.74945706 68 34 59
-0.18314682 -0.58564359 -0.74833018 74 49 59
-0.18228324 -0.58661848 -0.74802399 73 49 59
-0.1822333 -0.58784062 -0.74809939 69 46 56
-0.1827735 -0.58684248 -0.74825984 71 47 57
-0.18383998 -0.58727694 -0.74876881 66 42 52
-0.18406169 -0.58757627 -0.74889129 65 40 51
-0.18508849 -0.58457941 -0.74912035 70 37 60
-0.18504268 -0.58463955 -0.74910432 70 37 60
-0.18384594 -0.58439881 -0.74854898 75 45 62
-0.18546465 -0.58592623 -0.74939114 65 35 54
-0.18527253 -0.584939 -0.74923015 68 36 58
-0.18163538 -0.58734238 -0.7477935 72 49 59
-0.17969091 -0.58669364 -0.74681294 78 55 68
-0.18088284 -0.58670324 -0.747383 76 52 63
-0.18113512 -0.58709002 -0.74753439 74 51 62
-0.17914024 -0.58657205 -0.74654466 77 54 68
-0.17951229 -0.58616108 -0.74668902 78 55 68
-0.1804201 -0.58524686 -0.7470479 80 57 68
-0.18650638 -0.58844846 -0.7501756 62 36 46
-0.18601933 -0.5879941 -0.74984992 60 35 46
-0.18563698 -0.59034669 -0.74992388 65 38 48
-0.18344817 -0.59052753 -0.74892288 69 44 54
-0.18516664 -0.59177995 -0.7498557 68 41 50
-0.18203627 -0.58883494 -0.74810529 70 47 57
-0.18299928 -0.59008497 -0.74867034 69 45 55
-0.18323433 -0.59092087 -0.74884927 69 44 54
-0.18255086 -0.59061766 -0.74849337 69 45 56
-0.18540984 -0.58967721 -0.74972868 64 38 48
-0.18364339 -0.5879339 -0.74873555 65 41 51
-0.1824626 -0.58860689 -0.7482906 70 46 56
-0.18383017 -0.58847529 -0.74888307 66 41 51
-0.18410316 -0.58915985 -0.74908596 66 41 51
-0.1843363 -0.58986783 -0.74927396 67 42 51
-0.18025948 -0.59001595 -0.74732959 71 46 60
-0.18066464 -0.59033602 -0.74755222 71 46 59
-0.1796333 -0.59082597 -0.74708641 72 46 60
-0.18154323 -0.58830589 -0.74782431 70 47 58
-0.1808745 -0.59172189 -0.74776191 70 46 59
-0.17940369 -0.58848375 -0.74681169 74 50 65
-0.17941922 -0.5902397 -0.74693847 72 47 61
-0.17977706 -0.5898869 -0.74708539 72 47 61
-0.17856494 -0.58999568 -0.74651384 74 49 65
-0.17935838 -0.58844084 -0.74678713 74 50 65
-0.18574812 -0.59452254 -0.75035709 67 41 54
-0.18217719 -0.59527147 -0.74873084 75 46 59
-0.18300059 -0.59544647 -0.74912649 73 45 58
-0.18178627 -0.5950982 -0.74853414 76 47 59
-0.18214633 -0.59402436 -0.74859375 73 46 58
-0.1844409 -0.59526205 -0.74977022 69 42 56
-0.18233067 -0.59471786 -0.74874681 74 46 58
-0.18421084 -0.5937615 -0.74953288 68 42 55
-0.18390825 -0.59232223 -0.74928254 68 43 54
-0.18209232 -0.59193575 -0.74837148 69 45 57
-0.18446106 -0.59318697 -0.7496134 68 42 54
-0.18397158 -0.59357572 -0.74940318 68 43 55
-0.18225868 -0.59233618 -0.74848115 69 45 57
-0.17962325 -0.59256554 -0.7472679 70 44 57
-0.17855036 -0.59290665 -0.74679339 71 44 58
-0.17835268 -0.5946359 -0.74694937 69 41 52
-0.17814422 -0.59471226 -0.7468586 69 41 52
-0.17955278 -0.59361202 -0.7473864 69 43 54
-0.18038644 -0.59290975 -0.74769133 69 44 55
-0.18102983 -0.5928238 -0.7479735 70 45 56
-0.18141955 -0.59372419 -0.74823427 73 46 58
-0.18092656 -0.5928964 -0.74793512 70 45 56
-0.1794277 -0.59490055 -0.74747121 71 43 53
-0.18019386 -0.59398603 -0.74771923 71 44 55
-0.18120746 -0.59262753 -0.74803251 70 45 57
-0.17746362 -0.59506857 -0.74660623 69 40 53
-0.18377952 -0.59816927 -0.74993336 81 58 64
-0.18485765 -0.59683621 -0.75020194 72 47 59
-0.18497756 -0.5962792 -0.75015664 71 46 58
-0.1832203 -0.59840858 -0.74971086 85 63 67
-0.18448773 -0.59593189 -0.7498734 71 44 57
-0.1832255 -0.59729725 -0.74952126 81 57 64
-0.18200089 -0.59574807 -0.7486999 77 47 59
-0.18193458 -0.59728473 -0.74892592 84 59 65
-0.1838993 -0.59718299 -0.74981183 78 55 63
-0.18248922 -0.59678382 -0.74909717 80 54 63
-0.17984037 -0.5993337 -0.74827683 87 66 67
-0.1795357 -0.59878039 -0.74806011 85 62 64
-0.17777117 -0.59931928 -0.74727821 78 54 59
-0.17963256 -0.59800619 -0.74800879 83 60 63
-0.18044841 -0.59870553 -0.74849027 89 67 68
-0.18085848 -0.59646237 -0.74830848 79 52 60
-0.18060078 -0.59846777 -0.74852949 89 67 67
-0.18017605 -0.59596276 -0.74792391 75 46 57
-0.18116637 -0.5980255 -0.74870521 88 64 67
-0.17917146 -0.59646714 -0.74756479 76 48 56
-0.18148719 -0.59874547 -0.74896699 92 71 71
-0.17742649 -0.59829593 -0.74702322 74 48 56
-0.17582369 -0.5995906 -0.74662578 74 46 59
-0.17702626 -0.59813935 -0.74686331 73 46 55
-0.1773546 -0.59784025 -0.74694049 73 46 55
-0.17628111 -0.59741694 -0.7464962 70 41 55
-0.18301399 -0.60157275 -0.75008541 87 63 70
-0.18260632 -0.60011977 -0.7497046 90 68 71
-0.18287827 -0.60132819 -0.74998933 88 64 70
-0.18310662 -0.60286087 -0.75029486 85 60 70
-0.18230939 -0.6019634 -0.74980909 91 67 73
-0.18199082 -0.6023559 -0.74972665 92 68 73
-0.17927149 -0.60324657 -0.74866408 79 52 61
-0.17941484 -0.60229659 -0.74854273 82 56 64
-0.17925277 -0.60325003 -0.74865663 79 52 61
-0.180512 -0.60342163 -0.74923444 86 60 68
-0.17849897 -0.60129964 -0.74795413 79 54 61
-0.18073237 -0.60300493 -0.74924934 88 62 70
-0.18025118 -0.60096985 -0.74870527 89 65 69
-0.17927496 -0.5998379 -0.74807215 85 63 65
-0.18079817 -0.60193294 -0.74910736 90 66 71
-0.18082957 -0.59988672 -0.74882805 92 72 71
-0.18053253 -0.60064846 -0.74879462 90 68 70
-0.18015203 -0.60187578 -0.74878782 87 62 68
-0.17677565 -0.59980911 -0.7470082 77 51 60
-0.17602421 -0.59977639 -0.74673748 75 48 60
-0.1759882 -0.60117817 -0.74705464 80 54 67
-0.1771663 -0.600007 -0.74719149 79 54 61
-0.17678519 -0.60274625 -0.74761045 74 47 60
-0.1767576 -0.60294449 -0.74764019 74 47 60
-0.17629534 -0.60128587 -0.7471779 80 54 66
-0.17674072 -0.60078877 -0.74721897 79 54 64
-0.17694792 -0.6012581 -0.74737334 77 52 62
-0.18177129 -0.60424381 -0.74998766 95 69 74
-0.18052456 -0.60516989 -0.74968088 93 65 74
-0.18062338 -0.60465008 -0.74958724 92 64 73
-0.17976417 -0.60678828 -0.74977022 94 65 75
-0.17904563 -0.60632044 -0.74932563 90 60 72
-0.1802693 -0.60501266 -0.74952531 91 63 73
-0.17927332 -0.60561162 -0.7492432 88 59 71
-0.18057641 -0.60372835 -0.74933386 87 61 69
-0.17965208 -0.60537499 -0.74934763 89 61 72
-0.18037917 -0.60367054 -0.74923396 86 59 67
-0.18083419 -0.60430169 -0.74958938 91 64 73
-0.17646959 -0.606341 -0.74836957 87 56 74
-0.17679048 -0.60719746 -0.74867791 89 57 76
-0.17654118 -0.60673511 -0.74848723 88 57 75
-0.17696117 -0.60655421 -0.74857622 86 56 72
-0.18010722 -0.60792375 -0.75022155 98 70 78
-0.17951053 -0.607943 -0.74996024 95 67 77
-0.17861371 -0.60751945 -0.74944997 91 61 74
-0.17971236 -0.60900027 -0.75032502 97 71 81
-0.17683473 -0.60792649 -0.74888521 90 59 78
-0.17757142 -0.6076048 -0.74903077 88 57 73
-0.21312621 -0.56499666 -0.76595801 100 82 129
-0.21275735 -0.56597233 -0.7658177 91 68 109
-0.21168323 -0.56733412 -0.76517493 78 49 80
-0.21051066 -0.56831354 -0.76439422 69 35 59
-0.21000476 -0.56762546 -0.76388413 75 46 74
-0.21173336 -0.56665915 -0.76510954 85 59 94
-0.21250117 -0.56711733 -0.76579219 80 52 85
-0.2114642 -0.56788868 -0.76508701 73 41 68
-0.2101578 -0.56617045 -0.76379597 88 60 102
-0.20997134 -0.56624466 -0.76366103 87 58 100
-0.20963748 -0.56615698 -0.76338863 87 57 100
-0.21229632 -0.56478304 -0.76526946 102 84 133
-0.21023206 -0.56481856 -0.76366562 99 71 126
-0.2105148 -0.56681627 -0.76416415 83 57 91
-0.20806356 -0.56828022 -0.7624734 69 35 63
-0.20982985 -0.56872386 -0.76390052 68 36 58
-0.20964868 -0.56848007 -0.7637288 68 35 58
-0.21149273 -0.56944901 -0.76530612 68 36 56
-0.21147291 -0.56916451 -0.76525825 68 35 57
-0.21061234 -0.56863886 -0.76451385 68 35 58
-0.2123428 -0.56945628 -0.7659837 68 35 56
-0.21028571 -0.57003039 -0.76441091 68 38 55
