ply
format ascii 1.0
comment PCL generated
element vertex 691
property float x
property float y
property float z
property uchar red
property uchar green
property uchar blue
element camera 1
property float view_px
property float view_py
property float view_pz
property float x_axisx
property float x_axisy
property float x_axisz
property float y_axisx
property float y_axisy
property float y_axisz
property float z_axisx
property float z_axisy
property float z_axisz
property float focal
property float scalex
property float scaley
property float centerx
property float centery
property int viewportx
property int viewporty
property float k1
property float k2
end_header
-0.23866852 0.047484171 -0.80672479 98 74 99
-0.23880491 0.047081687 -0.80708981 103 81 101
-0.23903142 0.048407063 -0.80703962 100 74 102
-0.2388254 0.047627062 -0.8069452 100 76 101
-0.23919335 0.047503628 -0.80761307 107 85 105
-0.23883671 0.048529465 -0.80666739 96 69 100
-0.23794328 0.045365497 -0.80582261 102 82 92
-0.2385568 0.046615347 -0.80674779 102 80 99
-0.23837852 0.045528445 -0.80664229 107 88 98
-0.2382575 0.045983493 -0.80630147 102 81 96
-0.23917536 0.045240052 -0.80827534 119 105 108
-0.23843342 0.046011053 -0.8066414 104 84 98
-0.23903446 0.042435609 -0.80892026 107 88 98
-0.23880871 0.042682994 -0.80831856 108 89 98
-0.23852852 0.041646678 -0.80809844 100 78 91
-0.23913229 0.04294572 -0.80893898 111 93 101
-0.23912284 0.044283301 -0.80839336 120 106 108
-0.23822519 0.043398079 -0.80682063 108 89 96
-0.23792049 0.044519749 -0.80596846 105 85 93
-0.23744792 0.043335028 -0.80530536 98 76 87
-0.23849957 0.044236336 -0.80717182 112 95 100
-0.23936871 0.044845283 -0.80874491 124 111 111
-0.23828101 0.044024751 -0.80678934 109 91 97
-0.23861174 0.039201517 -0.80869246 90 76 82
-0.23744962 0.038600478 -0.80679411 92 85 81
-0.23873714 0.039571956 -0.80889034 91 75 84
-0.23868538 0.040399693 -0.80878639 94 75 87
-0.23839957 0.039652571 -0.8083331 92 78 84
-0.23772538 0.038267441 -0.80725533 89 84 79
-0.23731363 0.039285064 -0.80630398 92 81 81
-0.23812325 0.040250901 -0.80773777 95 77 86
-0.23749124 0.039521549 -0.80660897 93 80 82
-0.23796153 0.040934686 -0.80710971 95 71 86
-0.23660345 0.038146503 -0.80515987 90 87 77
-0.23736952 0.040164366 -0.8060863 93 74 82
-0.23770915 0.034409579 -0.80699521 68 54 55
-0.23807725 0.034389559 -0.80776858 69 55 56
-0.23779221 0.034294475 -0.8071785 68 53 54
-0.23869434 0.035758264 -0.80895364 76 66 67
-0.23751633 0.033958837 -0.80662674 66 50 51
-0.23782463 0.034036573 -0.80726695 67 51 53
-0.23724101 0.034258503 -0.80604893 67 52 52
-0.2369269 0.03691674 -0.8059386 86 88 73
-0.23700227 0.034581125 -0.80570543 70 58 54
-0.23705563 0.033913072 -0.80569112 65 49 49
-0.23707484 0.036525965 -0.80612218 83 82 70
-0.23680311 0.035563022 -0.80552793 77 72 63
-0.23649804 0.032119188 -0.80513072 69 51 52
-0.24511172 0.055034958 -0.81954879 144 127 149
-0.24537997 0.053358823 -0.82028311 118 96 133
-0.24511039 0.05525472 -0.81961197 148 131 151
-0.24435744 0.05073553 -0.81712258 130 120 136
-0.24501863 0.051179763 -0.81901282 121 105 124
-0.24528615 0.052141301 -0.81995821 113 92 127
-0.24537967 0.049232695 -0.82004434 134 122 119
-0.2449505 0.050325725 -0.81870407 128 115 121
-0.24527973 0.051339105 -0.81985223 119 101 123
-0.24553032 0.049212683 -0.82053834 134 120 119
-0.2454316 0.052003983 -0.82039464 113 92 125
-0.24486899 0.045767426 -0.8187809 126 118 113
-0.24444871 0.045622785 -0.81798238 133 129 125
-0.24457017 0.045202535 -0.81837726 130 125 123
-0.24502271 0.046701234 -0.8187809 126 116 107
-0.24548906 0.045356281 -0.82018501 115 101 98
-0.24515995 0.045804463 -0.81935918 121 110 105
-0.24539903 0.045966852 -0.8198818 119 106 101
-0.2448011 0.04863245 -0.81810212 139 131 117
-0.24562767 0.045695949 -0.82061458 116 101 99
-0.24530005 0.048479076 -0.81973189 135 124 116
-0.24540696 0.048381876 -0.82007664 134 122 116
-0.24398859 0.045499813 -0.81720954 136 135 131
-0.24432744 0.044843674 -0.81799054 133 131 130
-0.24474519 0.044519562 -0.81885391 123 118 117
-0.24547711 0.041939121 -0.82048237 93 87 81
-0.24454759 0.044907443 -0.81843203 129 126 125
-0.24561587 0.044031326 -0.82064271 105 93 90
-0.24461903 0.042650066 -0.81863099 109 107 104
-0.24422695 0.044598166 -0.81779462 132 132 131
-0.24526046 0.041298185 -0.82003838 90 86 80
-0.24474476 0.042694908 -0.81891346 109 106 103
-0.24409489 0.043127712 -0.81750876 117 116 116
-0.24382961 0.042409256 -0.81713605 110 108 107
-0.24367937 0.041742131 -0.81692094 103 100 99
-0.24489705 0.038984857 -0.81965637 74 57 57
-0.24499758 0.03917256 -0.81984103 75 59 57
-0.24531497 0.040936679 -0.82017148 86 81 75
-0.24515034 0.04059384 -0.81987679 85 78 73
-0.24486984 0.039504223 -0.81948352 78 65 64
-0.24470551 0.038756501 -0.81928051 73 55 56
-0.24454848 0.037390541 -0.81927443 59 32 33
-0.24491422 0.037329495 -0.82007211 59 32 32
-0.2434831 0.037371669 -0.81718087 62 38 39
-0.2437956 0.037244283 -0.81779385 59 33 33
-0.24412104 0.040806159 -0.81753951 93 89 90
-0.24357772 0.039806068 -0.81691599 84 75 75
-0.24466628 0.037022632 -0.81959939 57 28 28
-0.24472012 0.036668435 -0.81973451 57 28 29
-0.24451692 0.036707941 -0.81929725 56 28 29
-0.24469338 0.03345447 -0.81993425 56 31 33
-0.24478188 0.033443224 -0.82010412 57 31 34
-0.24450909 0.033245794 -0.81960654 54 29 32
-0.24322651 0.034580439 -0.81741297 57 33 34
-0.24347226 0.033950642 -0.81784451 55 32 33
-0.2430048 0.033546247 -0.81720418 57 35 36
-0.24328043 0.035183359 -0.81736457 57 34 34
-0.24297751 0.034853794 -0.81688541 59 37 37
-0.24464536 0.033063319 -0.81990665 57 32 34
-0.24460627 0.030338217 -0.82052749 83 61 61
-0.24468379 0.032571863 -0.82010525 62 37 39
-0.24416398 0.031721305 -0.8193258 65 42 43
-0.24435338 0.030780474 -0.81993067 76 54 55
-0.24352688 0.031684704 -0.81845057 80 59 61
-0.24290657 0.032900263 -0.81719202 63 42 44
-0.24445301 0.028648518 -0.82051706 99 77 80
-0.24424197 0.027671885 -0.82015198 108 84 91
-0.24410686 0.026641309 -0.81999481 119 92 103
-0.24391289 0.026286606 -0.81969279 123 95 108
-0.24341618 0.027327027 -0.81879896 111 86 94
-0.24411577 0.025777863 -0.82006294 129 100 114
-0.24302061 0.02757681 -0.81819618 114 90 98
-0.2435603 0.028330237 -0.81900412 101 78 83
-0.24817443 0.046014715 -0.83656013 59 39 48
-0.24964866 0.045387674 -0.83635467 64 39 44
-0.25202841 0.041321285 -0.83824146 60 28 24
-0.25208887 0.041927479 -0.83703196 61 29 26
-0.25137663 0.041934211 -0.83634073 61 30 27
-0.25175145 0.04109282 -0.83848906 59 27 23
-0.24933295 0.044700924 -0.83640039 63 39 43
-0.25203741 0.040311266 -0.83768302 62 30 26
-0.25207803 0.040789552 -0.83807933 60 28 24
-0.25221595 0.040777877 -0.83725274 62 29 25
-0.2484381 0.039153371 -0.83636999 39 26 24
-0.24885869 0.038169064 -0.83670503 31 20 18
-0.24851996 0.037970118 -0.83693057 22 14 13
-0.25041711 0.037659295 -0.83637905 51 33 29
-0.25100493 0.040972423 -0.83662194 60 30 26
-0.2517876 0.039899863 -0.83720827 63 32 28
-0.25122395 0.040681757 -0.83679861 61 31 27
-0.25198007 0.033984464 -0.83950412 74 56 58
-0.24965055 0.034384783 -0.84004259 31 24 25
-0.24955425 0.035007279 -0.83948767 29 22 23
-0.25086364 0.034730859 -0.83981669 55 42 44
-0.24834161 0.036160275 -0.83839238 5 4 4
-0.24880806 0.036206521 -0.83838201 15 11 12
-0.25009757 0.034233067 -0.84020543 40 30 32
-0.25146148 0.03365818 -0.83692151 55 39 37
-0.25145748 0.033621885 -0.83680564 55 38 36
-0.25058848 0.034649134 -0.83739293 42 30 29
-0.25184184 0.034234155 -0.83962905 72 55 57
-0.25041479 0.034934565 -0.83774197 41 29 29
-0.25172621 0.033872727 -0.83826733 65 48 48
-0.2506001 0.034977999 -0.83837545 46 34 35
-0.24942134 0.0368906 -0.83703399 24 15 13
-0.25104403 0.036093548 -0.83646238 51 34 30
-0.24995586 0.035962194 -0.83687317 31 21 19
-0.25135586 0.036177993 -0.83634263 57 38 33
-0.25157091 0.033510063 -0.83637279 55 38 35
-0.24612135 0.035901066 -0.8366816 64 62 66
-0.24664836 0.036550671 -0.83663309 29 28 30
-0.24561024 0.034924723 -0.83706802 101 98 104
-0.2455769 0.034798466 -0.83715796 103 99 106
-0.24541086 0.03428397 -0.83746928 110 106 113
-0.24773379 0.035883747 -0.83831304 13 12 13
-0.24755162 0.034389138 -0.83945358 20 20 21
-0.24569544 0.034019936 -0.83797812 98 95 101
-0.24530219 0.03362561 -0.83794409 114 111 118
-0.24743301 0.03466545 -0.83909494 25 24 26
-0.24574104 0.033712417 -0.83829337 96 93 99
-0.2450565 0.033357181 -0.83794725 122 118 126
-0.24715403 0.033747509 -0.83964556 31 30 32
-0.24428916 0.049841132 -0.8167603 136 129 129
-0.24393557 0.049300734 -0.81609166 133 125 118
-0.2430428 0.049338669 -0.81467545 124 113 113
-0.24410066 0.050032217 -0.81646752 132 124 129
-0.24317405 0.049186587 -0.81486106 126 115 112
-0.24221782 0.048913669 -0.81329578 118 103 102
-0.2422082 0.049349468 -0.8133356 117 102 107
-0.24430428 0.048260711 -0.81678832 141 137 121
-0.2436823 0.045590371 -0.81678909 132 130 127
-0.24383208 0.048732173 -0.81588989 133 126 112
-0.24286664 0.047795262 -0.81470358 124 114 110
-0.24333657 0.047917787 -0.81540614 128 120 112
-0.24306339 0.048264474 -0.81484091 126 116 109
-0.24328659 0.046110898 -0.81600457 127 122 120
-0.24167521 0.046707015 -0.81295192 116 99 102
-0.24190257 0.047225934 -0.81321943 117 101 103
-0.24248743 0.045959376 -0.81464678 122 111 113
-0.2419524 0.047608644 -0.81320167 117 102 103
-0.24272701 0.046465859 -0.81494021 122 114 114
-0.24216311 0.045695171 -0.81412989 120 107 110
-0.24351628 0.041754015 -0.81667292 102 98 98
-0.24338575 0.043609582 -0.81651217 117 114 114
-0.24262242 0.043014094 -0.81503993 111 103 104
-0.24260548 0.042182885 -0.81496918 103 96 96
-0.24220969 0.041133925 -0.81417137 94 83 84
-0.24252628 0.042658087 -0.81484139 107 99 100
-0.2425485 0.04383551 -0.81496572 116 107 109
-0.24254154 0.043360248 -0.81491476 113 104 105
-0.24200065 0.044840816 -0.8140465 120 105 110
-0.24231137 0.044585079 -0.81459308 120 108 111
-0.24168447 0.042078737 -0.81324744 99 85 87
-0.24200705 0.043606136 -0.81395894 111 98 101
-0.24189529 0.037399646 -0.81405693 72 55 55
-0.24279125 0.039555315 -0.81545061 87 79 78
-0.2433369 0.040089708 -0.81644118 88 81 80
-0.243256 0.038853079 -0.81650519 77 63 63
-0.24299966 0.038221583 -0.81610912 73 56 56
-0.24330033 0.038361281 -0.81668323 72 55 55
-0.24203496 0.040635511 -0.8138817 91 79 80
-0.2420468 0.040296849 -0.81394547 89 78 78
-0.24202512 0.040966112 -0.81382269 92 81 81
-0.24225597 0.039550051 -0.81443244 86 76 75
-0.24193518 0.038721118 -0.81392658 82 70 69
-0.24332799 0.040938128 -0.81629181 95 90 89
-0.24241441 0.035743617 -0.81573474 60 39 40
-0.24238789 0.035803244 -0.81567687 60 39 41
-0.24169017 0.034192216 -0.81488872 59 41 44
-0.24228521 0.035276625 -0.81562763 60 39 41
-0.24265154 0.033611149 -0.81662065 58 38 39
-0.24292776 0.035667595 -0.81660551 59 37 38
-0.24273153 0.036888395 -0.81588227 63 41 41
-0.241366 0.034649629 -0.81422585 60 43 46
-0.24145651 0.036222093 -0.81365734 68 51 51
-0.24160396 0.035443418 -0.81432217 63 45 47
-0.2411425 0.034437288 -0.81388128 61 44 47
-0.24161969 0.037070677 -0.81357855 71 54 53
-0.24191618 0.033156991 -0.81549406 59 41 43
-0.24856831 0.054560274 -0.83126813 117 111 106
-0.24857129 0.054146264 -0.83204257 100 95 85
-0.24887407 0.05372142 -0.83034259 127 112 120
-0.2489634 0.05277453 -0.83009505 110 88 107
-0.2488589 0.053664513 -0.83020681 125 109 120
-0.24880497 0.054508172 -0.83057857 140 133 132
-0.24847329 0.055312552 -0.82928181 144 132 146
-0.24957071 0.048855931 -0.83129102 118 107 103
-0.24911332 0.049999166 -0.83004427 130 123 117
-0.2494207 0.049742598 -0.8311401 122 113 106
-0.24929626 0.049186524 -0.83036375 125 116 112
-0.24943785 0.050631229 -0.8316564 122 114 104
-0.24912599 0.052312348 -0.83090723 119 105 107
-0.24898846 0.052602511 -0.83017451 111 90 107
-0.24930283 0.052242473 -0.83193046 127 121 106
-0.24915776 0.051791862 -0.83095539 124 114 109
-0.24895225 0.051128536 -0.82956767 121 106 115
-0.24887031 0.051057566 -0.82906592 118 100 116
-0.25004971 0.046453416 -0.83150607 91 72 69
-0.25003386 0.046297714 -0.83134401 90 70 67
-0.24971041 0.045328628 -0.82952815 79 52 51
-0.25021768 0.045363307 -0.83137268 83 61 60
-0.25008759 0.045166437 -0.83077264 80 57 55
-0.25004199 0.046362896 -0.83141726 91 71 68
-0.24939911 0.048317123 -0.83026612 116 103 101
-0.24911636 0.048240326 -0.82909 122 111 110
-0.24961162 0.048799776 -0.83142191 117 105 101
-0.24942593 0.045623455 -0.82864964 84 58 57
-0.24931729 0.046427161 -0.82873076 96 75 73
-0.24934295 0.046264008 -0.82872874 93 71 70
-0.25015092 0.041274607 -0.82988518 73 59 54
-0.25067142 0.043963671 -0.83213508 78 58 57
-0.2498301 0.041794904 -0.82949805 76 67 61
-0.25038439 0.043267317 -0.83125544 78 61 58
-0.25106722 0.041753322 -0.83189273 70 44 42
-0.25132704 0.041336477 -0.83220828 67 38 37
-0.2503387 0.044553444 -0.83150744 80 61 59
-0.2495276 0.042003781 -0.82858366 75 64 58
-0.24950792 0.043531723 -0.82852006 74 53 50
-0.25005937 0.043174546 -0.83049816 78 65 61
-0.24957579 0.043558184 -0.8287639 75 54 51
-0.2510159 0.039886057 -0.83150089 65 35 35
-0.25022772 0.037968323 -0.83015198 66 38 38
-0.25076708 0.038505677 -0.83180076 67 38 36
-0.25137308 0.040701397 -0.8321625 65 34 33
-0.25105315 0.03914867 -0.83234 67 37 34
-0.24970652 0.039192978 -0.82880294 70 53 50
-0.25014964 0.040310498 -0.82972664 70 53 49
-0.24960828 0.038957197 -0.8285988 69 53 50
-0.25026488 0.03851312 -0.82985628 65 37 38
-0.25032255 0.040082913 -0.83005196 69 48 45
-0.24968088 0.037737474 -0.82867587 66 42 43
-0.24963288 0.03491303 -0.83074158 65 42 40
-0.24914713 0.033232123 -0.83019775 65 45 46
-0.24903041 0.033615768 -0.8296479 62 42 41
-0.24883775 0.033486225 -0.82914633 61 41 40
-0.25009698 0.035136193 -0.83199722 69 46 44
-0.24949829 0.035145748 -0.83013594 63 40 38
-0.24998342 0.037071887 -0.83002132 66 39 39
-0.25017652 0.036541566 -0.83135629 67 40 37
-0.2500281 0.036991823 -0.83028483 66 39 39
-0.24935433 0.035045728 -0.82966805 63 40 38
-0.249314 0.035878155 -0.82862109 63 39 40
-0.24894826 0.030415865 -0.8302775 75 50 58
-0.24949686 0.031812023 -0.83151066 76 54 58
-0.24960738 0.030968623 -0.83169776 85 61 69
-0.2489334 0.029476969 -0.83019495 82 56 66
-0.24929525 0.030396011 -0.83100826 83 58 66
-0.24870186 0.030366467 -0.82975513 70 45 52
-0.24969208 0.03280123 -0.83195859 73 52 55
-0.24838856 0.031349886 -0.82857382 63 40 43
-0.2483494 0.031167513 -0.82851756 63 40 44
-0.24861279 0.030680373 -0.8294571 67 43 49
-0.2490398 0.031965025 -0.83030087 68 46 49
-0.24920122 0.031823464 -0.83082527 70 48 52
-0.24890903 0.025895789 -0.83095497 121 101 111
-0.24879074 0.025986595 -0.83066064 122 102 113
-0.24884337 0.025973221 -0.83078712 121 101 111
-0.24882042 0.025906919 -0.83074409 123 104 114
-0.24815193 0.028990723 -0.82860512 73 46 56
-0.24876763 0.027243625 -0.83037603 93 70 80
-0.24947532 0.02576402 -0.83227998 110 91 102
-0.24916805 0.02713123 -0.8312636 98 76 86
-0.24968567 0.027040727 -0.83237964 110 88 99
-0.24875151 0.027561042 -0.83026922 87 64 74
-0.24922885 0.028495042 -0.83102435 93 68 79
-0.24895708 0.027363883 -0.83075589 92 69 80
-0.24893479 0.024356123 -0.83222342 127 108 118
-0.24905984 0.02491134 -0.83191592 126 107 117
-0.24907362 0.02475385 -0.83211935 124 105 115
-0.24844265 0.024229871 -0.83119941 144 125 134
-0.24798003 0.023442492 -0.83097214 153 134 142
-0.24772692 0.022409612 -0.83153939 145 124 131
-0.23666386 0.044159271 -0.80408359 93 65 85
-0.23735859 0.043716252 -0.80505532 97 75 86
-0.23640427 0.038311597 -0.80480099 88 84 75
-0.23575757 0.038241383 -0.80361718 79 67 65
-0.23623885 0.037210204 -0.80477202 87 90 73
-0.2354835 0.037582982 -0.80326426 76 65 62
-0.23605739 0.038053099 -0.8042255 84 77 70
-0.23620485 0.038128402 -0.80448359 85 81 72
-0.23528779 0.03854904 -0.80266082 72 51 58
-0.23664744 0.034008756 -0.8050316 67 53 50
-0.2361584 0.036466248 -0.80465263 83 84 69
-0.23611978 0.036602587 -0.80462086 84 86 70
-0.23630494 0.03340606 -0.80442083 62 46 45
-0.23560838 0.036502734 -0.80374777 77 74 64
-0.23630843 0.032346476 -0.80474544 67 50 51
-0.24602814 0.053029448 -0.82207334 108 84 124
-0.24637087 0.0541857 -0.8230933 123 101 133
-0.24660344 0.053385962 -0.82360101 109 86 122
-0.24597892 0.05286324 -0.82192683 106 82 123
-0.24653319 0.054433011 -0.82354134 125 104 134
-0.24589938 0.053497095 -0.82179517 116 93 131
-0.246088 0.05465791 -0.8224287 132 111 141
-0.24653083 0.050627153 -0.82351124 112 93 109
-0.24655184 0.048890356 -0.82413405 114 100 100
-0.24593489 0.049492888 -0.82173532 127 112 115
-0.24665396 0.050030459 -0.82414025 110 93 104
-0.24616693 0.049824171 -0.82246155 121 105 112
-0.24598536 0.050030485 -0.82179075 125 108 117
-0.24605332 0.051034044 -0.82201743 116 97 118
-0.2458581 0.052505832 -0.8215881 107 83 122
-0.24634126 0.05270404 -0.82284629 102 77 118
-0.24654458 0.052610803 -0.82336676 101 77 115
-0.24588722 0.051967368 -0.82163584 111 88 121
-0.24659531 0.046562675 -0.82352877 102 84 84
-0.24716339 0.045665607 -0.82452333 89 64 64
-0.24642086 0.046224605 -0.82298434 104 86 86
-0.24658497 0.048303142 -0.82418215 111 96 96
-0.24711074 0.045973301 -0.82451862 91 68 68
-0.24647489 0.047351126 -0.82355094 108 92 92
-0.24621294 0.047901172 -0.82286996 116 102 101
-0.24605352 0.048400275 -0.82233709 123 110 107
-0.24584037 0.048452687 -0.82157797 128 115 111
-0.24582215 0.047904622 -0.82147104 125 112 109
-0.24590625 0.04819772 -0.82179445 125 112 109
-0.24577248 0.041248042 -0.82113147 84 77 70
-0.24741232 0.041941863 -0.82424259 73 50 50
-0.24688324 0.041531023 -0.82320547 76 59 57
-0.24686182 0.041962422 -0.82324332 77 60 57
-0.24707887 0.04247399 -0.82372987 77 57 55
-0.24749985 0.041448992 -0.82431424 71 48 49
-0.24663141 0.044465043 -0.82300591 91 70 69
-0.2458038 0.044438329 -0.82104969 105 90 88
-0.24561629 0.042702142 -0.82072282 96 87 82
-0.24688068 0.043964621 -0.82362926 83 62 60
-0.24636403 0.04402072 -0.82240319 93 75 72
-0.24565613 0.037831523 -0.82144111 59 31 32
-0.2452291 0.037125949 -0.82080805 58 29 29
-0.24543646 0.03738901 -0.82116818 58 30 30
-0.24709657 0.039871775 -0.82380176 65 41 41
-0.24609247 0.037348203 -0.82288659 61 34 34
-0.24541123 0.039218094 -0.8207472 72 56 52
-0.24599059 0.040495217 -0.8215788 78 65 61
-0.24549253 0.038222689 -0.8210699 64 40 39
-0.24649526 0.039683718 -0.82264048 67 45 44
-0.24677549 0.039783873 -0.82313347 65 42 42
-0.24735624 0.040928476 -0.82399076 70 49 49
-0.24634975 0.034955703 -0.82362503 57 33 32
-0.24630012 0.035564031 -0.82358319 60 35 35
-0.2455879 0.03396954 -0.82187629 58 33 35
-0.2455947 0.03335619 -0.82182521 56 31 33
-0.24671671 0.036750291 -0.82460868 61 36 36
-0.24660602 0.035274301 -0.8242119 57 32 32
-0.24522439 0.036642883 -0.82083851 58 29 30
-0.24668278 0.037070367 -0.82456976 62 37 37
-0.24511871 0.034547526 -0.82070714 58 32 34
-0.24561618 0.034581862 -0.82198739 60 35 37
-0.24556349 0.035813134 -0.82176864 59 33 34
-0.24557622 0.030594464 -0.82260352 80 58 57
-0.24607883 0.030984515 -0.82366544 77 55 54
-0.2455745 0.029360441 -0.82320327 99 78 79
-0.24555668 0.030189967 -0.82275283 86 64 64
-0.24551617 0.030315882 -0.82259017 84 62 61
-0.24652077 0.031338099 -0.82459396 75 53 52
-0.24526028 0.032404959 -0.82131803 64 40 41
-0.24559423 0.031585399 -0.82227498 69 46 45
-0.24631503 0.032477051 -0.8235721 57 34 32
-0.24507253 0.032283306 -0.82094818 66 42 44
-0.24537764 0.031167928 -0.82192838 73 50 50
-0.24668224 0.032957338 -0.82422537 52 28 25
-0.24591061 0.02758475 -0.82429457 128 107 113
-0.24553381 0.027600404 -0.82323766 122 99 106
-0.24587528 0.027553355 -0.82420105 128 107 113
-0.24584474 0.027944788 -0.82404965 121 100 105
-0.24487191 0.028809428 -0.82150292 101 79 81
-0.24481624 0.02721113 -0.82142937 120 96 104
-0.24503587 0.027016025 -0.82198489 124 99 109
-0.24484153 0.028310033 -0.82144761 107 84 88
-0.24538098 0.027605938 -0.82282102 119 96 103
-0.24578007 0.029128935 -0.82375354 104 83 84
-0.24832654 0.063042626 -0.83576417 81 60 65
-0.24817087 0.063806459 -0.83518231 79 56 63
-0.24868625 0.052902129 -0.83397263 98 85 75
-0.24812819 0.053066492 -0.83520305 76 57 53
-0.24892366 0.053049315 -0.83306122 107 99 86
-0.24806936 0.050167773 -0.83597958 70 47 59
-0.24838534 0.052342746 -0.83509821 86 67 64
-0.2486569 0.052019596 -0.83435929 96 81 76
-0.24823061 0.050327156 -0.83553791 77 56 65
-0.24877237 0.051214807 -0.83405077 100 86 84
-0.24805494 0.048934415 -0.83602941 68 45 62
-0.24945626 0.050592076 -0.83278006 113 102 94
-0.24853025 0.050106674 -0.83475918 88 71 76
-0.24906288 0.050703794 -0.83354026 105 92 88
-0.2495911 0.05042937 -0.83255106 116 105 96
-0.2486437 0.04954173 -0.83467501 87 69 76
-0.24810919 0.048817478 -0.83593071 69 46 63
-0.2492062 0.047512095 -0.83493483 80 60 65
-0.24944749 0.048435189 -0.8335247 98 81 81
-0.2498084 0.047040604 -0.83447051 87 67 67
-0.24913257 0.047862984 -0.83466882 84 64 69
-0.24912478 0.046833433 -0.83581477 70 47 55
-0.24999635 0.048080385 -0.8324405 106 91 86
-0.25013533 0.04544745 -0.83525896 73 50 51
-0.25046277 0.044990461 -0.83334976 78 57 57
-0.25006354 0.047503438 -0.83276761 100 84 80
-0.25029442 0.045186181 -0.83438993 75 53 54
-0.25025523 0.045418624 -0.83435392 77 55 56
-0.25239906 0.04107194 -0.83625937 63 30 25
-0.25220439 0.041738518 -0.83609474 63 30 26
-0.25168878 0.042105775 -0.83586848 62 31 28
-0.25165904 0.041411407 -0.83514482 63 31 28
-0.25018907 0.041768868 -0.83378249 64 36 37
-0.24989077 0.041042574 -0.8336997 63 35 34
-0.24898763 0.042933967 -0.83522737 64 40 42
-0.24889338 0.042440161 -0.83508629 63 39 40
-0.24840231 0.041087188 -0.83488148 60 36 35
-0.24914475 0.043940376 -0.83595473 64 40 43
-0.24847525 0.043526739 -0.8359217 64 41 45
-0.24857718 0.043954857 -0.83623052 64 41 45
-0.25071722 0.041938633 -0.83355886 65 36 36
-0.25124511 0.041312847 -0.832793 65 34 34
-0.25041953 0.044221014 -0.83509779 67 41 43
-0.25044882 0.044862691 -0.83367229 76 54 55
-0.25082448 0.043022428 -0.83412558 66 38 39
-0.25042266 0.044029541 -0.83542931 65 37 39
-0.25044009 0.044644557 -0.83414733 73 50 51
-0.2508392 0.043720756 -0.83271003 75 52 51
-0.25222474 0.040795848 -0.83560848 63 31 27
-0.2521753 0.040380254 -0.83581781 64 32 28
-0.25130659 0.040708713 -0.83575147 62 32 28
-0.25188771 0.040976051 -0.83426917 64 32 28
-0.24881791 0.039881453 -0.83557963 56 35 33
-0.24935924 0.039205391 -0.83579946 55 35 32
-0.25074515 0.039483752 -0.83448541 61 36 33
-0.25050309 0.038950738 -0.83518386 60 36 33
-0.25114295 0.039751362 -0.83391887 62 35 33
-0.25104678 0.040092226 -0.83366823 63 35 33
-0.25029659 0.038977318 -0.8353197 59 37 33
-0.25031814 0.038732454 -0.8355369 59 37 33
-0.25034818 0.039798021 -0.83449495 61 36 33
-0.25133631 0.038427681 -0.83484191 61 36 33
-0.2508119 0.037125826 -0.83361536 65 40 35
-0.25119853 0.038531598 -0.83393306 63 37 33
-0.25101972 0.03723184 -0.83464068 62 39 34
-0.2513335 0.040004302 -0.83275253 65 35 33
-0.24790943 0.039825544 -0.83586645 42 27 25
-0.24771377 0.039218504 -0.83604032 33 21 20
-0.24615888 0.038651321 -0.83448869 44 31 33
-0.24670134 0.037971169 -0.83558673 20 13 14
-0.24681436 0.039442271 -0.8347308 49 32 33
-0.2453745 0.037809364 -0.83412868 40 30 33
-0.24604729 0.037336428 -0.83524126 18 14 16
-0.246877 0.037403867 -0.8361758 5 3 3
-0.24693412 0.039943058 -0.83458441 56 37 37
-0.24438676 0.037956495 -0.83359712 41 32 36
-0.24436216 0.039173346 -0.83426404 26 20 22
-0.24621661 0.040368065 -0.83484513 39 26 26
-0.2475905 0.040747657 -0.83499908 56 35 34
-0.24697474 0.040978778 -0.83514965 43 27 26
-0.25069454 0.034794331 -0.83450711 65 45 44
-0.25133187 0.036518726 -0.83627355 58 38 33
-0.25131708 0.03626987 -0.83618319 58 38 34
-0.25041583 0.034020972 -0.8337301 68 48 48
-0.25099191 0.034961913 -0.83518076 62 43 40
-0.25082514 0.0357107 -0.83500218 63 43 40
-0.25107494 0.036838081 -0.83538461 61 39 35
-0.25046855 0.035053909 -0.83378327 67 46 45
-0.25063294 0.036769446 -0.8329767 67 41 38
-0.25091273 0.037043542 -0.83426863 63 39 35
-0.25088546 0.03617223 -0.8349933 62 42 38
-0.25053239 0.035031032 -0.83416408 66 46 45
-0.24462312 0.035920028 -0.83495641 84 78 84
-0.2449284 0.036538798 -0.83466953 55 49 54
-0.24515079 0.035611395 -0.83590251 86 82 88
-0.24454644 0.034622047 -0.83622396 134 130 138
-0.24564382 0.036880888 -0.83515644 29 26 28
-0.25143251 0.032553289 -0.83582085 66 47 47
-0.25089598 0.031403862 -0.83551973 85 65 68
-0.25069699 0.0309579 -0.83511573 91 70 75
-0.25146276 0.032623604 -0.83591944 66 47 46
-0.2508297 0.031211065 -0.83472764 85 63 67
-0.25046369 0.03053982 -0.83619851 105 84 89
-0.25084955 0.031897478 -0.83438951 76 55 58
-0.25032774 0.030861363 -0.83321983 90 67 74
-0.25022325 0.031879883 -0.83305323 82 60 65
-0.25051478 0.031336624 -0.83364481 84 62 67
-0.25080809 0.032782301 -0.83434993 69 49 50
-0.250251 0.031268202 -0.83307868 87 65 71
-0.24974212 0.027779842 -0.83488351 122 102 111
-0.2496441 0.025569713 -0.83312255 118 99 111
-0.2498689 0.02857173 -0.83587694 127 106 116
-0.25018826 0.025494037 -0.83522683 140 119 134
-0.24999687 0.027137689 -0.8354916 132 111 123
-0.24995154 0.029041111 -0.83272725 109 83 95
-0.24965043 0.026917577 -0.83365905 117 96 107
-0.24980111 0.028585244 -0.83560777 125 103 113
-0.24970716 0.027162755 -0.83286518 112 90 102
-0.24985401 0.028388288 -0.83316875 112 88 99
-0.24806915 0.022426195 -0.83290279 145 127 133
-0.24888529 0.023865255 -0.83531862 136 121 132
-0.24845187 0.023820221 -0.83610731 123 113 123
-0.24992967 0.024793804 -0.83578026 148 128 142
-0.24837404 0.02343167 -0.83515304 130 118 126
-0.24914551 0.023670474 -0.83416909 150 130 140
-0.24981134 0.025284257 -0.83386678 128 108 121
-0.24964589 0.024310285 -0.83498377 150 130 143
-0.24950883 0.025009573 -0.83317029 124 105 116
-0.2490003 0.024257615 -0.83252728 127 107 117
-0.24093029 0.046011645 -0.81151229 119 99 109
-0.24026725 0.045600373 -0.81009823 130 116 120
-0.24103099 0.045839429 -0.81180543 118 98 107
-0.24145952 0.046565987 -0.81252706 116 98 103
-0.24130563 0.046824705 -0.81208664 116 97 105
-0.24126285 0.048060764 -0.81155294 116 98 105
-0.24131265 0.047981463 -0.81169397 116 98 105
-0.24021249 0.046173178 -0.80979222 128 113 119
-0.23990378 0.04540582 -0.80951798 128 115 117
-0.24118704 0.042133614 -0.81218964 103 90 90
-0.2409206 0.044212978 -0.81178045 119 104 107
-0.24126783 0.04470931 -0.81264406 117 98 104
-0.24127883 0.042739652 -0.81246686 105 90 92
-0.24090312 0.04212169 -0.81174427 106 94 95
-0.24023801 0.043733325 -0.81046057 125 114 115
-0.24030805 0.042529512 -0.81077629 116 105 107
-0.23975991 0.042247787 -0.81006455 112 97 103
-0.23929417 0.04161533 -0.80953699 104 85 96
-0.23945037 0.042469319 -0.80960184 111 93 102
-0.23953083 0.04457571 -0.80914307 124 111 112
-0.23949 0.043176077 -0.80949467 116 99 106
-0.24055967 0.040266361 -0.81149262 99 87 90
-0.24059437 0.040610433 -0.81151146 100 89 92
-0.24136862 0.038531888 -0.81288022 80 65 65
-0.2402914 0.040518943 -0.81105137 103 92 95
-0.24113683 0.037575182 -0.8126204 78 62 62
-0.24030055 0.03835994 -0.8111816 87 75 74
-0.23957378 0.03898333 -0.8100729 93 85 86
-0.2395786 0.038851254 -0.81008691 92 84 84
-0.24005882 0.037420206 -0.81086457 81 69 67
-0.23888913 0.037680466 -0.80915004 84 78 77
-0.23974229 0.039996479 -0.81027478 99 90 93
-0.23896052 0.039047237 -0.80922192 90 78 83
-0.24097313 0.036847174 -0.81247622 74 59 58
-0.24036372 0.036421396 -0.81162804 75 61 60
-0.24023671 0.036097415 -0.81154221 74 60 59
-0.23927499 0.03472368 -0.80989408 71 54 57
-0.2400617 0.036631573 -0.81093305 77 63 61
-0.23889944 0.033858743 -0.80937994 68 51 55
-0.23889601 0.033254541 -0.80961126 66 47 53
-0.23891073 0.036186676 -0.80925518 77 68 67
-0.2390523 0.034605421 -0.80954951 71 55 58
-0.24007756 0.037022099 -0.81091332 78 66 63
-0.23911828 0.036962241 -0.80951542 79 73 70
-0.24830705 0.055136785 -0.82835853 136 117 144
-0.24805517 0.053409278 -0.82703519 94 64 110
-0.24830778 0.053050078 -0.82757866 94 62 108
-0.24842131 0.053950772 -0.82822126 115 89 125
-0.24800178 0.052826721 -0.82669979 83 49 101
-0.24756293 0.054767799 -0.82650578 129 112 140
-0.247807 0.053902015 -0.82669383 108 83 122
-0.24700254 0.054237287 -0.82475138 119 98 128
-0.24719545 0.056215286 -0.82560122 150 134 154
-0.24721994 0.055494156 -0.82557708 139 122 145
-0.24696973 0.05583806 -0.82486981 144 126 147
-0.24863391 0.051436629 -0.82817799 107 82 113
-0.24867953 0.051504005 -0.8283087 108 82 113
-0.24822408 0.051606715 -0.82714522 95 68 106
-0.24825753 0.049421065 -0.82729173 119 107 114
-0.24808632 0.048954628 -0.82697749 122 112 112
-0.24780744 0.050447125 -0.8264432 103 83 104
-0.24698761 0.04946233 -0.82510346 107 90 99
-0.2474421 0.049727224 -0.82585675 108 91 102
-0.24709554 0.051947117 -0.82490695 97 73 106
-0.24709065 0.050021656 -0.82525289 102 82 98
-0.24732803 0.051061425 -0.82555914 96 71 100
-0.24697317 0.049702395 -0.8250652 105 86 98
-0.24913262 0.046836141 -0.82838988 102 84 83
-0.24868469 0.047551662 -0.82774454 109 94 92
-0.248229 0.047447059 -0.82677853 105 89 87
-0.24921648 0.045619957 -0.82816988 82 56 55
-0.24829495 0.046443928 -0.82654756 93 71 69
-0.24846715 0.045177568 -0.82644171 77 49 47
-0.24851415 0.045786478 -0.82676375 85 59 58
-0.248005 0.047730312 -0.82645261 109 95 93
-0.2474063 0.048609167 -0.82576978 115 103 102
-0.24726775 0.048339032 -0.8254624 112 98 97
-0.24718253 0.046428822 -0.82479131 95 73 73
-0.24914494 0.042809561 -0.82775813 75 58 53
-0.24817523 0.044694785 -0.8257373 75 46 44
-0.2486739 0.043430805 -0.82677573 75 54 50
-0.248928 0.042652864 -0.82730448 75 60 54
-0.24902882 0.042338211 -0.82751423 75 62 56
-0.24875872 0.041262157 -0.82679278 71 58 54
-0.24815969 0.042570531 -0.82551932 70 48 46
-0.24810877 0.043618295 -0.82549566 72 46 45
-0.24826512 0.042493932 -0.82575732 71 49 47
-0.24816357 0.041473098 -0.82542914 68 48 47
-0.24780948 0.042006325 -0.82485473 69 45 45
-0.24764155 0.043041106 -0.82477003 74 48 48
-0.24764453 0.04191808 -0.82464314 71 47 47
-0.24232586 0.04111525 -0.82845509 42 39 39
-0.24166358 0.041124552 -0.82786381 37 33 34
-0.24915117 0.038910646 -0.82754964 67 46 46
-0.24934772 0.040307213 -0.8280943 72 62 57
-0.24925844 0.040638875 -0.8279078 73 63 58
-0.24928175 0.040848229 -0.82797515 74 65 59
-0.24853002 0.04084928 -0.82622868 69 53 51
-0.24898869 0.037114795 -0.82747972 63 36 37
-0.24846721 0.037214674 -0.82659847 62 34 34
-0.24819155 0.040434323 -0.82547611 66 45 45
-0.24821925 0.040077701 -0.8255958 65 44 44
-0.24832074 0.038382441 -0.82611465 63 38 37
-0.24672544 0.037176274 -0.8246209 63 38 38
-0.24762015 0.039148618 -0.82508677 64 41 41
-0.24701141 0.03827893 -0.82462597 64 40 40
-0.24921866 0.03574178 -0.82846218 62 39 40
-0.24870469 0.0348964 -0.82798624 60 38 37
-0.24820143 0.036846321 -0.82629746 61 33 32
-0.24906106 0.035395969 -0.82835436 62 39 39
-0.24826278 0.035496607 -0.8269906 60 35 34
-0.2481674 0.0350076 -0.8268432 55 31 30
-0.24814643 0.035803434 -0.82656819 58 32 31
-0.24801986 0.036109034 -0.82613993 57 30 29
-0.24787952 0.034315508 -0.8263337 50 27 25
-0.24804188 0.035173107 -0.82643646 53 29 27
-0.24800333 0.036180556 -0.82608676 57 30 29
-0.24719392 0.036551688 -0.82506579 60 34 33
-0.24742806 0.036402497 -0.82528752 59 32 31
-0.2471471 0.035574287 -0.82497257 56 31 29
-0.24809735 0.032127641 -0.82747072 52 30 31
-0.24822211 0.032930855 -0.82757568 51 31 30
-0.24806505 0.029655786 -0.82824886 65 38 46
-0.24694894 0.029466061 -0.82614875 87 64 68
-0.24752799 0.029316001 -0.82732606 77 51 58
-0.24751161 0.031655069 -0.82647681 64 43 43
-0.24700019 0.029333448 -0.8262946 87 63 68
-0.2464063 0.029859735 -0.82495683 96 75 76
-0.24801143 0.032173395 -0.82726669 52 30 31
-0.24795441 0.033101775 -0.82682687 47 27 25
-0.24758616 0.032820679 -0.82618475 52 31 29
-0.24688701 0.031464078 -0.82529706 73 51 50
-0.24755767 0.033103999 -0.82601219 48 27 24
-0.24674739 0.028811743 -0.82589638 104 82 86
-0.24780251 0.028045274 -0.82807279 102 78 87
-0.24747144 0.027861822 -0.82745987 113 91 98
-0.24748161 0.027919762 -0.82747006 111 89 96
-0.24785991 0.029017324 -0.82802373 77 51 60
-0.24618153 0.028135188 -0.82486498 122 102 106
-0.24858569 0.03332698 -0.84087801 11 9 10
-0.24888356 0.033816602 -0.8403452 18 15 16
-0.24952398 0.033789214 -0.84032506 32 26 28
-0.25164431 0.033444803 -0.84044874 77 63 68
0 0 0 1 0 0 0 1 0 0 0 1 0 0 0 0 0 691 1 0 0
