ply
format ascii 1.0
comment PCL generated
element vertex 1021
property float x
property float y
property float z
property uchar red
property uchar green
property uchar blue
element camera 0
property float view_px
property float view_py
property float view_pz
property float x_axisx
property float x_axisy
property float x_axisz
property float y_axisx
property float y_axisy
property float y_axisz
property float z_axisx
property float z_axisy
property float z_axisz
property float focal
property float scalex
property float scaley
property float centerx
property float centery
property int viewportx
property int viewporty
property float k1
property float k2
end_header
-0.2169438 0.41738775 -0.83646184 157 130 127
-0.21717437 0.41880172 -0.83733207 158 135 132
-0.21777299 0.41608587 -0.83683562 164 136 134
-0.21802971 0.41748723 -0.83768934 167 142 139
-0.21820465 0.41656905 -0.83749247 168 141 140
-0.21713737 0.41803628 -0.8369748 158 133 130
-0.21809769 0.41610956 -0.83718848 167 139 138
-0.21938947 0.41900927 -0.83967316 174 156 149
-0.21841449 0.41986859 -0.83900613 165 147 139
-0.21909241 0.41984284 -0.83967853 169 153 144
-0.21930303 0.41913584 -0.83963239 173 155 148
-0.21662736 0.41881353 -0.83668667 158 134 130
-0.2188202 0.41461855 -0.83717948 178 156 152
-0.21821144 0.41570276 -0.83710539 169 142 140
-0.21859027 0.41488266 -0.83707517 175 152 148
-0.21713401 0.46294099 -0.84715909 158 124 134
-0.2180997 0.46131337 -0.84781426 165 129 139
-0.21816331 0.4610422 -0.84783888 166 129 140
-0.21824302 0.46100578 -0.84790432 166 130 140
-0.21709275 0.46145996 -0.84689534 161 124 135
-0.21815802 0.45952576 -0.84762502 168 126 141
-0.21776319 0.46082965 -0.84746242 164 123 140
-0.21695012 0.46221468 -0.84688872 158 122 135
-0.21585007 0.45992571 -0.84568161 149 120 124
-0.21517487 0.45945153 -0.84514499 141 113 117
-0.216316 0.46163481 -0.84630597 152 119 129
-0.21594185 0.45964879 -0.8456918 151 123 124
-0.21632902 0.45998734 -0.84601182 156 126 128
-0.21506847 0.46098503 -0.84533197 137 105 116
-0.2186767 0.45767212 -0.84795016 163 122 138
-0.2175253 0.45854247 -0.84684604 165 132 135
-0.218371 0.456375 -0.84753627 155 120 130
-0.21825679 0.45782933 -0.84753484 163 125 136
-0.21688384 0.45653129 -0.84593761 138 105 114
-0.21714213 0.45829412 -0.8464331 162 133 131
-0.21706077 0.45528424 -0.84598041 126 91 107
-0.21746247 0.45651239 -0.84656823 146 113 121
-0.21620291 0.45707709 -0.8454169 142 110 118
-0.2166876 0.45809576 -0.84594113 155 125 125
-0.2167515 0.45630178 -0.84577721 134 101 112
-0.21461007 0.45767725 -0.84442526 125 97 108
-0.21552606 0.45641714 -0.84478664 131 99 113
-0.21544388 0.4563643 -0.8447215 130 98 112
-0.21544302 0.45738229 -0.84492171 136 106 115
-0.21475665 0.45791274 -0.84456933 129 101 110
-0.21778078 0.45506263 -0.84674138 134 97 114
-0.21858367 0.45289725 -0.84738302 160 137 135
-0.21843928 0.45303831 -0.84724051 157 133 133
-0.21916211 0.45232514 -0.8479532 172 152 145
-0.2186387 0.45403218 -0.8475672 152 122 130
-0.21802033 0.45295677 -0.84677798 151 127 128
-0.21779202 0.45340523 -0.84657544 145 119 123
-0.21728888 0.45416504 -0.84610826 133 102 113
-0.21529622 0.45422295 -0.84430003 117 84 105
-0.21596535 0.45428219 -0.84486246 119 85 104
-0.21547274 0.45250627 -0.84419519 121 89 108
-0.2194147 0.44875321 -0.84782869 183 163 161
-0.21906863 0.45001614 -0.84760231 177 159 154
-0.21937326 0.44989717 -0.8479138 182 166 157
-0.21998407 0.44471377 -0.84754777 181 161 148
-0.22018054 0.44449699 -0.84770584 185 167 151
-0.22053559 0.44396511 -0.84795141 191 177 154
-0.22076684 0.4428871 -0.84790331 194 180 155
-0.22112593 0.44017065 -0.84760237 203 180 166
-0.21689522 0.44287118 -0.84414166 134 108 109
-0.21879828 0.44097328 -0.84548175 173 147 141
-0.21779522 0.44214183 -0.84482086 149 123 122
-0.21893124 0.43970954 -0.84522599 198 174 161
-0.21981068 0.43975544 -0.84613687 198 172 161
-0.218786 0.43986836 -0.84512711 194 171 158
-0.21851893 0.44078493 -0.84513861 176 151 144
-0.21993048 0.44332248 -0.84719825 179 164 143
-0.21946086 0.44305176 -0.84667504 172 154 137
-0.2195711 0.44297764 -0.8467626 174 156 139
-0.22063315 0.4426403 -0.84770232 193 178 154
-0.21949027 0.44130021 -0.84625465 178 153 144
-0.22012086 0.44287235 -0.84726679 184 168 147
-0.21813591 0.44224778 -0.84518886 151 126 123
-0.21998413 0.44184366 -0.84687108 185 164 149
-0.22208597 0.43761796 -0.84785205 198 180 170
-0.22225863 0.43680772 -0.847767 194 179 168
-0.2215839 0.43681461 -0.84712929 198 183 171
-0.22130021 0.43715665 -0.84694868 200 183 172
-0.22172809 0.43578929 -0.84701335 198 186 175
-0.22273257 0.43580186 -0.84795147 190 180 169
-0.21965449 0.43662128 -0.84511143 203 180 174
-0.21977979 0.43652648 -0.84522587 204 182 174
-0.22002696 0.4362267 -0.84542394 204 185 176
-0.22004099 0.43603051 -0.84539151 204 186 177
-0.22016656 0.43875149 -0.84621119 204 178 168
-0.21887237 0.4360581 -0.84414363 202 179 174
-0.2197448 0.43837065 -0.84567541 203 178 169
-0.21951441 0.43931884 -0.84570384 203 179 166
-0.21993341 0.43790144 -0.8457374 204 178 170
-0.22031961 0.43918937 -0.84648889 204 178 167
-0.22198182 0.43442795 -0.84698057 184 172 160
-0.22223538 0.4342114 -0.84717596 180 168 156
-0.22240128 0.43466666 -0.8474158 183 172 161
-0.22137119 0.4352392 -0.84656429 197 186 174
-0.22325593 0.43182573 -0.8476752 148 132 122
-0.22277611 0.43219471 -0.84729546 155 141 131
-0.22259091 0.43287584 -0.84725463 164 149 138
-0.22111146 0.43315104 -0.84591448 178 166 158
-0.22110622 0.43187538 -0.84565902 165 152 148
-0.22215717 0.4324156 -0.8467555 162 148 140
-0.22003911 0.43246761 -0.84460038 194 182 174
-0.22012624 0.43227959 -0.84466785 189 177 170
-0.21972905 0.43514383 -0.84484261 203 185 178
-0.22023459 0.43457183 -0.84527171 202 189 179
-0.22013825 0.43513185 -0.84528905 203 189 179
-0.22108503 0.42795685 -0.84434402 171 150 151
-0.22104597 0.42774382 -0.84423703 171 151 151
-0.22108705 0.43100849 -0.84536999 163 149 147
-0.22189616 0.43032482 -0.8458764 157 138 140
-0.22096092 0.42900571 -0.84458315 169 152 151
-0.22145185 0.429986 -0.84535861 162 144 145
-0.22365631 0.43109289 -0.84781414 143 125 117
-0.22313172 0.43120456 -0.84736097 147 130 123
-0.22060846 0.43038386 -0.84469974 173 159 156
-0.22044061 0.43042022 -0.84451091 177 164 160
-0.22311477 0.42392787 -0.84546953 156 134 129
-0.22202858 0.42467445 -0.84429175 160 137 139
-0.22197053 0.42578688 -0.8445428 161 138 141
-0.22380872 0.42013237 -0.84521961 189 173 160
-0.22258118 0.42370185 -0.84472668 158 136 134
-0.22263551 0.42188007 -0.84433401 171 148 144
-0.22276394 0.42089006 -0.84425223 177 155 149
-0.22570838 0.41794416 -0.84725815 189 171 163
-0.22598509 0.41703704 -0.84747666 181 161 157
-0.22519916 0.41741219 -0.84625399 169 152 143
-0.22473855 0.41846135 -0.84578049 176 163 149
-0.22518726 0.41836783 -0.84651393 185 170 159
-0.22501004 0.41890362 -0.84637052 190 176 164
-0.2235883 0.41912943 -0.84464478 177 160 149
-0.22378686 0.41917181 -0.84486932 180 164 151
-0.2243644 0.41855177 -0.84527665 175 163 148
-0.22521634 0.41554534 -0.84561342 143 126 120
-0.22541392 0.41582033 -0.84610057 149 130 125
-0.22559975 0.41505373 -0.84599161 151 132 129
-0.22540058 0.41516164 -0.84571362 147 128 124
-0.22651467 0.41587764 -0.84803218 176 152 153
-0.22623418 0.41459462 -0.846883 167 145 145
-0.2264632 0.41476241 -0.84748048 174 153 152
-0.23391412 0.46561465 -0.87113637 196 165 158
-0.23405473 0.46675557 -0.87126732 195 161 158
-0.2306097 0.46059522 -0.87147647 181 141 146
-0.23083726 0.45906442 -0.87108064 174 140 138
-0.23083581 0.45943698 -0.87125146 177 139 141
-0.23088907 0.45944893 -0.87130117 177 139 141
-0.23312527 0.45522577 -0.87014818 202 180 168
-0.23114637 0.45602661 -0.87097329 193 174 162
-0.23159006 0.45617938 -0.87135839 194 171 161
-0.23118623 0.45532787 -0.87102795 200 179 167
-0.23251371 0.45304906 -0.87083191 201 186 172
-0.23259562 0.4513686 -0.86932433 201 188 177
-0.23282036 0.45217365 -0.86942047 203 187 178
-0.23303995 0.45209217 -0.86869007 204 187 183
-0.23312151 0.45129982 -0.86760813 205 187 187
-0.23307292 0.45472643 -0.87078738 203 184 172
-0.23310047 0.45281366 -0.86900097 204 186 180
-0.23312376 0.45185167 -0.86785263 205 186 184
-0.23307224 0.45460698 -0.87073994 203 184 173
-0.23234822 0.45386398 -0.87145448 201 185 169
-0.23168893 0.45419043 -0.87112683 201 183 168
-0.23202474 0.45329255 -0.87082523 200 185 170
-0.23041861 0.45318428 -0.86951506 200 180 168
-0.23140366 0.45409876 -0.87090915 200 182 168
-0.23156746 0.45222053 -0.86972713 200 185 172
-0.23139448 0.45151907 -0.86951023 202 185 176
-0.23057459 0.45287785 -0.8695057 200 181 170
-0.23111396 0.4513846 -0.86944765 203 185 178
-0.23250115 0.44954219 -0.86865246 204 188 174
-0.2324551 0.44925958 -0.86865658 204 187 173
-0.23285064 0.45096704 -0.86828279 204 188 182
-0.23258932 0.44795597 -0.8676309 207 187 171
-0.22877127 0.44942588 -0.86859709 210 183 187
-0.23036827 0.44853941 -0.86826807 209 185 179
-0.22932805 0.44763839 -0.86818451 209 187 182
-0.22983688 0.44966719 -0.86854535 209 182 183
-0.23038673 0.44830951 -0.86822003 209 185 179
-0.22986627 0.45034549 -0.86881995 208 182 184
-0.23228256 0.44913942 -0.86867428 204 187 172
-0.23239967 0.44944659 -0.86883909 203 188 172
-0.23227629 0.44773197 -0.86801165 207 186 171
-0.23226458 0.4484053 -0.86832607 206 187 172
-0.23174913 0.45052639 -0.86923319 203 187 176
-0.22769359 0.44736496 -0.8678441 199 178 176
-0.22722276 0.44774395 -0.86777514 193 171 170
-0.22683279 0.44901493 -0.86808175 186 158 163
-0.22755398 0.44864294 -0.86820239 196 170 173
-0.22842585 0.44884089 -0.86847883 209 183 186
-0.22910477 0.44422561 -0.8676818 197 178 165
-0.22881907 0.44447383 -0.86771286 198 179 167
-0.22950339 0.44532841 -0.86790687 201 180 171
-0.2292521 0.4457508 -0.86796218 203 182 174
-0.23151098 0.44409156 -0.86794007 193 172 162
-0.23220123 0.4450359 -0.86789531 197 176 163
-0.23174562 0.44619229 -0.8679089 203 182 169
-0.22992295 0.44720918 -0.86805487 209 188 179
-0.23111013 0.44687197 -0.86795157 206 185 173
-0.23197551 0.44515198 -0.86791366 198 176 164
-0.23061728 0.44532573 -0.86803716 199 178 170
-0.22849883 0.446605 -0.86806303 207 186 180
-0.22820573 0.44500282 -0.86764842 197 178 167
-0.23244676 0.44271347 -0.86782521 189 169 158
-0.23224495 0.43976936 -0.86768222 183 173 164
-0.23101242 0.44173518 -0.86758995 190 174 163
-0.23068835 0.44243404 -0.86758786 191 173 161
-0.23193404 0.44166756 -0.86772674 189 172 162
-0.2094893 0.42494676 -0.8322798 164 138 135
-0.20509852 0.42508712 -0.82899362 129 89 111
-0.20525739 0.42453668 -0.82886434 131 91 112
-0.20605879 0.42480168 -0.82957697 146 112 124
-0.20618568 0.42518318 -0.82984883 149 117 126
-0.20582247 0.42395106 -0.82900506 140 101 119
-0.20572063 0.42433044 -0.82910794 139 101 118
-0.20677052 0.42458564 -0.82999843 158 128 134
-0.20851251 0.42539212 -0.83167541 168 145 140
-0.20817612 0.42553544 -0.83149201 167 143 139
-0.20611162 0.42672774 -0.83051831 149 122 127
-0.20774078 0.42555374 -0.83117318 167 143 141
-0.21013053 0.42232776 -0.83180314 190 170 161
-0.21052755 0.42172354 -0.83195418 189 169 161
-0.21087764 0.42166007 -0.83227527 182 160 155
-0.20976283 0.4208827 -0.83086383 186 161 159
-0.20951045 0.4207626 -0.83056682 185 158 159
-0.21116292 0.42030576 -0.83201617 187 164 161
-0.20930313 0.42201141 -0.83085996 190 166 161
-0.20943514 0.42038476 -0.83034182 184 155 158
-0.20869875 0.42026499 -0.82962787 178 147 152
-0.20889995 0.42309061 -0.83091003 191 171 162
-0.20818955 0.42053041 -0.82933956 170 139 146
-0.2074386 0.42076954 -0.8288669 158 126 135
-0.20810264 0.42171705 -0.82974714 173 146 147
-0.20718685 0.42309952 -0.82964748 161 130 137
-0.20648028 0.42172822 -0.82856041 145 107 124
-0.20803759 0.42180949 -0.82973766 172 145 146
-0.20695715 0.42252737 -0.82924169 156 122 132
-0.20729811 0.42055142 -0.82867336 155 121 133
-0.21303891 0.41615015 -0.83181405 118 90 100
-0.20918764 0.41817626 -0.82890469 136 104 116
-0.21030492 0.4170092 -0.82938552 111 79 94
-0.21057178 0.41667804 -0.82947505 104 72 89
-0.20928457 0.41938946 -0.82971644 169 137 145
-0.21140437 0.41676214 -0.83042991 115 85 98
-0.21172281 0.41696534 -0.83089846 125 95 106
-0.20987479 0.41798279 -0.82950699 135 103 115
-0.21152568 0.41866845 -0.83158702 161 134 138
-0.21137996 0.41827834 -0.83124584 153 125 131
-0.21198897 0.41771156 -0.83156031 142 115 122
-0.21116535 0.41963637 -0.83172101 180 155 155
-0.21007061 0.41898981 -0.83031309 165 134 141
-0.21179768 0.41800597 -0.83152044 148 121 127
-0.2123183 0.41865069 -0.83238083 164 142 142
-0.20876989 0.41849139 -0.82871968 141 109 120
-0.20882513 0.41960961 -0.82940853 171 139 146
-0.21483864 0.41391963 -0.83235902 144 108 122
-0.21527764 0.41235954 -0.83194113 145 104 121
-0.21465528 0.41343325 -0.83191258 135 98 114
-0.21311542 0.41515446 -0.83135784 113 83 95
-0.21294992 0.41476151 -0.83099908 110 82 93
-0.21356352 0.41441813 -0.83139735 119 87 101
-0.21326953 0.4144257 -0.83112532 115 85 97
-0.21253966 0.41382167 -0.8299998 111 86 93
-0.21233647 0.41259462 -0.82910007 113 90 94
-0.21172041 0.4138093 -0.82908088 105 79 87
-0.21088259 0.41601163 -0.8294099 88 56 75
-0.21088631 0.41532782 -0.82902932 91 60 76
-0.21107671 0.41564184 -0.8294127 92 61 77
-0.21031347 0.41597515 -0.82877147 82 50 70
-0.21216835 0.41416255 -0.82976586 108 83 90
-0.21702573 0.40968475 -0.83224672 166 138 139
-0.21308391 0.41114882 -0.82918459 110 86 93
-0.2137484 0.410294 -0.82932341 114 91 96
-0.21383104 0.41009304 -0.829283 115 92 97
-0.21479018 0.41166458 -0.83112329 135 102 114
-0.21534662 0.41136232 -0.83148879 143 108 120
-0.21599875 0.41016588 -0.83148021 149 121 124
-0.21386723 0.41124943 -0.83004147 120 96 101
-0.21512215 0.41151094 -0.83135521 140 106 118
-0.21630156 0.41052571 -0.83195424 155 122 130
-0.21251449 0.41127342 -0.82859087 113 92 94
-0.21779352 0.4069342 -0.83164513 163 144 136
-0.21811086 0.40703097 -0.83198917 164 142 137
-0.21714942 0.4071992 -0.83105201 162 141 136
-0.22707045 0.45965564 -0.85728061 184 155 154
-0.22671984 0.45868191 -0.85668051 188 163 160
-0.22602662 0.45843872 -0.85596198 186 162 159
-0.22808693 0.45184785 -0.85775697 207 189 175
-0.2272256 0.4512544 -0.85673738 211 195 181
-0.22668508 0.45256239 -0.85633653 208 189 176
-0.22923768 0.44826925 -0.85970479 169 149 138
-0.22902055 0.44914249 -0.85923737 180 161 150
-0.22873583 0.44994876 -0.85859925 192 174 162
-0.22889048 0.44886532 -0.85890651 179 160 149
-0.22750033 0.4481622 -0.85688341 202 184 172
-0.22784702 0.44884694 -0.85730368 200 183 170
-0.22810757 0.44802919 -0.85757148 187 168 156
-0.22845228 0.45040098 -0.85805047 201 185 171
-0.22740234 0.44919461 -0.85681486 210 193 181
-0.22679599 0.44932121 -0.85615295 213 195 183
-0.22689059 0.45017609 -0.85630393 212 196 183
-0.22712056 0.45079169 -0.85659111 212 195 182
-0.22901884 0.44607776 -0.85888147 176 155 148
-0.22921175 0.44630879 -0.85936308 170 148 142
-0.22856215 0.44359651 -0.85745227 196 173 170
-0.2285631 0.44705293 -0.85807174 173 152 141
-0.22874507 0.44383875 -0.85788321 194 171 169
-0.22768492 0.44431904 -0.85649288 190 169 156
-0.22834012 0.444067 -0.85722888 193 170 164
-0.22778901 0.44391868 -0.85654545 193 172 160
-0.22694497 0.4459458 -0.85596049 205 186 174
-0.22791943 0.44636106 -0.85715324 184 164 152
-0.22719657 0.44595048 -0.8562485 200 180 168
-0.22731668 0.44480002 -0.85616177 197 176 163
-0.22855963 0.44313774 -0.85732013 197 175 172
-0.22953646 0.44333091 -0.85946387 196 174 176
-0.22892687 0.44205213 -0.85768455 195 177 176
-0.22862102 0.44074646 -0.85653865 195 181 177
-0.2297924 0.44251722 -0.85971302 194 175 176
-0.22909744 0.43989569 -0.85724413 193 182 178
-0.22991671 0.43980345 -0.85898459 191 181 176
-0.22936045 0.43970585 -0.85774398 192 182 178
-0.22986212 0.44146964 -0.85947889 193 177 176
-0.23015612 0.44034511 -0.85970223 191 179 176
-0.2276278 0.44318402 -0.85618627 197 176 164
-0.22807559 0.44140831 -0.85603982 196 180 172
-0.22765295 0.44275865 -0.85605335 196 177 165
-0.23032065 0.43908727 -0.85973781 185 173 170
-0.23002231 0.43774101 -0.85894716 174 155 155
-0.23005959 0.43870234 -0.85900754 186 174 171
-0.22970207 0.43882188 -0.85825831 188 176 173
-0.22901151 0.43908015 -0.85681695 191 180 176
-0.2290566 0.43683913 -0.85644364 179 160 160
-0.22873124 0.43921748 -0.85623878 192 182 177
-0.23160757 0.45138711 -0.86316025 211 194 187
-0.23170951 0.45236513 -0.86345112 207 184 180
-0.23195021 0.451637 -0.86366767 211 193 188
-0.23068444 0.44844568 -0.86227626 189 171 166
-0.22996594 0.44772157 -0.86104345 173 153 146
-0.23000562 0.44819209 -0.86084235 172 152 145
-0.23109165 0.44982639 -0.86236829 195 177 171
-0.23102905 0.448071 -0.86331898 200 183 179
-0.23097104 0.44831264 -0.8630318 198 181 176
-0.22983682 0.45067942 -0.86067855 199 182 168
-0.23072325 0.45059907 -0.86188716 202 185 175
-0.22978178 0.44812384 -0.86046988 169 149 141
-0.23078085 0.45097804 -0.86198574 207 190 179
-0.23014162 0.44994473 -0.86105728 192 174 163
-0.23057868 0.44986707 -0.86165118 193 175 166
-0.23076701 0.44476277 -0.86300749 189 175 171
-0.23053299 0.44571769 -0.86235666 198 180 179
-0.23022737 0.44402069 -0.86140543 192 174 173
-0.23041204 0.44554892 -0.86199749 199 180 179
-0.23029982 0.44396093 -0.861615 191 173 172
-0.23048835 0.4440532 -0.86216897 189 173 170
-0.22993875 0.44642085 -0.86107469 180 160 156
-0.23039477 0.44583347 -0.86201257 197 178 177
-0.23020525 0.44513664 -0.86141151 197 177 177
-0.23054956 0.44709072 -0.86265802 192 174 170
-0.23000042 0.44478673 -0.86085236 194 174 174
-0.23021026 0.44588804 -0.86159199 191 172 170
-0.23067231 0.44139609 -0.86170912 184 174 168
-0.23093387 0.44050866 -0.86155689 185 176 171
-0.2312268 0.44062775 -0.86215889 185 175 170
-0.23070805 0.44059038 -0.86121327 186 176 171
-0.23098922 0.4406684 -0.86176586 185 175 170
-0.23086736 0.4421798 -0.8625989 181 171 165
-0.23031598 0.44024801 -0.86009884 189 178 174
-0.2305821 0.4433035 -0.86239147 183 169 166
-0.2302756 0.44167107 -0.86068654 189 175 172
-0.23080751 0.44253626 -0.86266953 181 170 164
-0.22989094 0.44314912 -0.86029571 193 173 174
-0.23038574 0.44134298 -0.86084563 187 175 172
-0.23001312 0.43722153 -0.86036998 162 140 141
-0.23007172 0.43816155 -0.86028111 175 159 156
-0.23044792 0.43797243 -0.86189938 177 163 160
-0.23082717 0.4379583 -0.86226028 178 163 161
-0.23034093 0.43768883 -0.86219257 175 160 157
-0.23127149 0.43844545 -0.86199129 182 169 167
-0.23134729 0.43800247 -0.86266798 178 164 163
-0.23086669 0.43924952 -0.86073619 188 178 174
-0.2315782 0.43883687 -0.86205739 184 173 171
-0.23197709 0.43883616 -0.86276841 184 172 171
-0.20303592 0.41722342 -0.82404506 100 70 83
-0.20154949 0.41707906 -0.8230949 82 54 65
-0.20173751 0.4182632 -0.82380068 89 55 73
-0.20199077 0.41637146 -0.82300001 84 59 66
-0.20199683 0.41780519 -0.82372373 90 58 74
-0.20282024 0.41616476 -0.82338601 92 69 75
-0.20258182 0.41760677 -0.82396954 96 65 80
-0.20547849 0.4122369 -0.82251018 107 70 92
-0.20559011 0.41380265 -0.82361209 114 83 98
-0.20597154 0.41257417 -0.82311565 112 77 97
-0.20634139 0.4135538 -0.82404059 119 88 103
-0.2076382 0.4121092 -0.82412267 124 90 108
-0.20666364 0.41376689 -0.82443154 122 93 106
-0.20366627 0.41236931 -0.82154673 90 57 73
-0.20502357 0.41219282 -0.82213515 103 66 88
-0.20159012 0.41595414 -0.82254481 77 55 59
-0.20363985 0.41367382 -0.82227767 93 61 76
-0.20456806 0.41308272 -0.82244277 101 67 85
-0.20408444 0.41376242 -0.82259756 98 67 82
-0.20337142 0.41534248 -0.82320029 96 70 78
-0.20461294 0.41561621 -0.82411081 111 86 94
-0.20899421 0.41065198 -0.82442296 120 90 102
-0.2101444 0.40825635 -0.82438833 94 71 80
-0.20556274 0.40979931 -0.82103646 113 83 96
-0.20541093 0.41100231 -0.8216989 110 75 93
-0.20728192 0.40957206 -0.82250822 111 82 93
-0.20654957 0.41038373 -0.8223564 109 77 91
-0.20591946 0.41058618 -0.8219018 110 78 93
-0.2060497 0.40909737 -0.82105047 120 93 101
-0.20649096 0.41022229 -0.82219636 110 79 93
-0.20770276 0.41082394 -0.82352179 117 86 100
-0.20783724 0.40955475 -0.82298404 111 82 93
-0.20817788 0.41190398 -0.82444221 127 94 111
-0.20831576 0.4100154 -0.82359314 117 89 99
-0.20732449 0.41019684 -0.82290703 111 80 93
-0.20829742 0.40920436 -0.82316768 113 86 94
-0.2088138 0.41086867 -0.82439685 122 91 104
-0.20380685 0.41200978 -0.82140398 91 58 74
-0.20460752 0.41102141 -0.82113785 101 68 84
-0.20452702 0.41099858 -0.82108176 100 67 83
-0.21063913 0.40761277 -0.82454401 101 77 88
-0.2102778 0.4074274 -0.82408345 112 87 96
-0.21177535 0.40535 -0.82448041 144 112 128
-0.21046273 0.40536612 -0.82320255 141 108 123
-0.20942752 0.40711394 -0.82307941 123 95 103
-0.21029113 0.40516692 -0.82293439 141 107 124
-0.20955178 0.40582353 -0.82254666 132 100 114
-0.2103654 0.40657619 -0.82372081 132 103 114
-0.20889565 0.40736711 -0.82271427 117 90 98
-0.20852394 0.40614969 -0.82182366 123 91 104
-0.20768519 0.4079389 -0.82186759 120 95 100
-0.20788813 0.4081746 -0.82216525 118 94 98
-0.20858732 0.40615445 -0.82188487 122 91 104
-0.20858786 0.44086474 -0.83612609 78 46 58
-0.20781797 0.44023257 -0.83566046 81 47 58
-0.20986703 0.43706706 -0.83615959 113 85 89
-0.21000904 0.43626469 -0.83607703 123 96 98
-0.20953779 0.43692547 -0.83583897 110 82 86
-0.2087255 0.43800595 -0.83552724 93 63 70
-0.20818859 0.43823653 -0.83535844 93 62 69
-0.20791218 0.43929252 -0.83551127 83 52 59
-0.20870787 0.43815288 -0.83555734 92 61 68
-0.21123075 0.43280309 -0.8362298 160 131 129
-0.21063986 0.43373847 -0.8359645 147 119 119
-0.20969306 0.43470833 -0.83540076 130 101 105
-0.21084574 0.43211296 -0.83568347 155 125 127
-0.21000105 0.43170998 -0.83477759 138 106 117
-0.21069166 0.43251982 -0.83566505 151 122 123
-0.20976561 0.43422955 -0.83532953 132 103 107
-0.20994098 0.43407878 -0.835446 136 107 110
-0.21139738 0.42990661 -0.83573818 167 144 140
-0.21028337 0.43107021 -0.83491534 144 115 123
-0.21123813 0.43133521 -0.8358478 163 134 134
-0.2111105 0.4296332 -0.83542311 162 139 138
-0.21094896 0.4313834 -0.83558846 157 128 130
-0.21080297 0.42928475 -0.83506978 157 133 134
-0.2119883 0.42813957 -0.83596545 180 164 153
-0.21009184 0.42987269 -0.83451289 143 116 123
-0.21337728 0.42547131 -0.8362841 193 177 171
-0.20969848 0.42492077 -0.83247393 160 134 131
-0.20996264 0.4245038 -0.83254439 163 138 133
-0.21015269 0.42433941 -0.83266163 165 140 135
-0.21061899 0.4260093 -0.83390528 149 122 128
-0.2113833 0.42398813 -0.83374953 169 145 144
-0.21101886 0.42417881 -0.83346725 167 143 141
-0.21237797 0.42582509 -0.83550495 176 156 153
-0.21101755 0.42598829 -0.83428067 154 128 133
-0.2114585 0.42636085 -0.83484447 164 141 141
-0.21269768 0.42509744 -0.83552212 176 156 155
-0.21192603 0.42536399 -0.83489597 165 142 144
-0.21220736 0.42723688 -0.83589751 182 165 155
-0.21285655 0.42546687 -0.83582371 184 165 161
-0.21390581 0.42364424 -0.83601898 186 168 169
-0.2143916 0.42208651 -0.83581567 171 150 150
-0.21481907 0.42041349 -0.83548647 172 150 146
-0.21351123 0.42155838 -0.83479071 177 155 153
-0.21296285 0.42036709 -0.83377671 185 164 158
-0.213687 0.4219377 -0.83511466 174 152 151
-0.21303259 0.42108399 -0.83415002 182 160 157
-0.21354331 0.42155209 -0.83481723 176 154 153
-0.21269624 0.42028934 -0.83349389 186 164 159
-0.2122844 0.42106986 -0.83344233 182 160 159
-0.21214961 0.42112228 -0.83333778 182 160 159
-0.21183395 0.42349675 -0.83399731 172 149 149
-0.21096566 0.42374972 -0.83321929 170 147 143
-0.21180744 0.4225693 -0.83358932 176 153 152
-0.21251123 0.42267296 -0.83434671 176 153 156
-0.21103346 0.42299601 -0.83297849 174 150 146
-0.2132549 0.41695249 -0.83245599 143 120 123
-0.21478149 0.41756147 -0.83436608 168 142 139
-0.2139041 0.4169184 -0.83308887 151 127 129
-0.21447805 0.4169772 -0.83374035 157 131 131
-0.21394628 0.41794148 -0.83365476 167 143 140
-0.21485354 0.41736078 -0.834342 165 139 137
-0.2143653 0.41811684 -0.83419776 172 148 144
-0.2156522 0.41611928 -0.83457571 153 125 126
-0.21605772 0.41902715 -0.83610106 166 142 138
-0.21513389 0.41778034 -0.83484155 172 146 142
-0.21563342 0.41815856 -0.83542317 169 143 139
-0.2132757 0.41978431 -0.83382297 185 163 157
-0.21411619 0.41923392 -0.83440322 179 156 151
-0.21584594 0.41881165 -0.83583599 167 143 139
-0.21216512 0.41966939 -0.83271605 182 161 157
-0.21824197 0.41409448 -0.83629274 174 153 148
-0.21683788 0.41508779 -0.83525771 161 129 130
-0.21725571 0.41263539 -0.83428657 166 132 140
-0.21685687 0.41490522 -0.83517116 161 129 131
-0.21709871 0.41414183 -0.8350001 164 133 135
-0.21794707 0.4136945 -0.83572996 174 151 147
-0.21703157 0.41464952 -0.83522391 163 132 134
-0.21672463 0.41380411 -0.83436018 160 124 131
-0.21640165 0.41412359 -0.83417451 158 121 129
-0.21601236 0.41438404 -0.83391082 155 119 127
-0.2154188 0.41589901 -0.83419859 150 122 124
-0.21643046 0.41574994 -0.83520257 158 127 127
-0.21603046 0.41273254 -0.83291596 155 113 129
-0.21483596 0.41582549 -0.8335222 145 118 122
-0.21556635 0.41374603 -0.83303589 151 114 126
-0.22078244 0.4085601 -0.83529425 146 102 129
-0.21768405 0.40921879 -0.83263624 162 131 134
-0.21734068 0.41021216 -0.83287072 162 128 135
-0.21784562 0.41004655 -0.83325797 158 121 132
-0.21856306 0.40849346 -0.83305764 155 122 131
-0.21821307 0.40960911 -0.8333568 156 118 131
-0.21852913 0.40832722 -0.83293223 156 124 131
-0.22011186 0.40854588 -0.83454102 142 96 123
-0.21791206 0.41202477 -0.83467638 172 143 148
-0.21780895 0.41178986 -0.83436775 167 134 143
-0.22051197 0.40972143 -0.83585131 166 134 148
-0.21625219 0.41197842 -0.83272219 158 115 132
-0.21920159 0.40797687 -0.83340263 153 117 129
-0.2198614 0.40738866 -0.83378536 152 113 130
-0.21911877 0.40781775 -0.83326089 155 120 131
-0.21851289 0.40815708 -0.83282864 157 126 132
-0.22015765 0.4672702 -0.85111803 136 101 111
-0.22150363 0.46441734 -0.8519243 168 133 140
-0.22091097 0.4629111 -0.85106325 183 155 149
-0.22080277 0.46349043 -0.85107124 176 147 143
-0.21965757 0.46458921 -0.85002983 154 123 127
-0.21965887 0.46418136 -0.84995288 159 129 131
-0.2198519 0.46451837 -0.85023135 157 125 129
-0.22044812 0.4658145 -0.8511402 145 110 120
-0.2197412 0.46506095 -0.85021293 149 116 124
-0.21914981 0.46515259 -0.84959686 148 116 121
-0.2189436 0.46426958 -0.84918302 154 124 127
-0.21989393 0.46614328 -0.8506065 141 106 116
-0.22134209 0.46174577 -0.85130334 182 154 150
-0.22206788 0.4607892 -0.85185593 183 153 153
-0.22158547 0.46154806 -0.85150659 183 154 151
-0.22136818 0.46093914 -0.85123271 180 151 148
-0.22087508 0.45992264 -0.85071635 172 137 142
-0.22082233 0.45913815 -0.850595 169 130 140
-0.2204221 0.45961717 -0.85020489 170 132 141
-0.21898362 0.45936346 -0.8484593 171 129 144
-0.22066452 0.45960689 -0.85049385 170 132 140
-0.2198271 0.45974591 -0.84950572 172 132 143
-0.21840455 0.46203366 -0.84819299 166 136 138
-0.21957517 0.46189165 -0.84946835 175 144 144
-0.22017385 0.46227723 -0.85018671 179 149 146
-0.21876335 0.46182275 -0.84855974 169 137 140
-0.21874277 0.45967853 -0.84822774 170 129 144
-0.22224814 0.45824906 -0.8518064 175 145 147
-0.22241825 0.45877114 -0.85193557 178 150 150
-0.22223279 0.45801353 -0.85180002 174 144 146
-0.22105399 0.4575769 -0.85077637 165 128 138
-0.2213908 0.45631999 -0.85106558 163 128 137
-0.22098207 0.45714283 -0.85068512 164 127 138
-0.21969338 0.45620388 -0.84903866 156 118 133
-0.21988209 0.45660293 -0.84930283 158 120 134
-0.2206623 0.45880276 -0.85041803 167 127 138
-0.22035408 0.45673087 -0.84992701 161 123 137
-0.21903802 0.4561356 -0.84822297 155 116 132
-0.21893288 0.4573226 -0.84820735 161 120 137
-0.21883047 0.45804152 -0.84815156 165 122 140
-0.21894097 0.45703056 -0.84818989 160 119 136
-0.2214966 0.45413622 -0.85097373 168 135 146
-0.22219567 0.45347551 -0.85158044 173 144 149
-0.22129057 0.45467544 -0.85084879 164 130 142
-0.22082451 0.45225623 -0.84996563 178 157 151
-0.22110331 0.45313674 -0.85040313 174 146 149
-0.22082566 0.45129603 -0.84980512 184 169 154
-0.22126423 0.45360586 -0.850649 171 140 149
-0.21996483 0.4525747 -0.84900635 175 154 149
-0.22053738 0.45328885 -0.84981459 171 145 146
-0.2205985 0.45274505 -0.84979647 175 152 148
-0.21939896 0.45300031 -0.84833348 168 145 143
-0.21945927 0.45320493 -0.84843934 167 142 143
-0.21907066 0.45450038 -0.84809941 155 121 132
-0.21957809 0.45382476 -0.8486762 163 134 140
-0.22251992 0.45024192 -0.851358 192 172 164
-0.22290953 0.44960052 -0.85163569 194 175 166
-0.22207233 0.45005032 -0.85085607 191 174 161
-0.22306269 0.44826353 -0.85153115 198 181 166
-0.22101764 0.44776431 -0.84951305 196 178 173
-0.22222613 0.4481205 -0.85070527 197 180 167
-0.22113691 0.4483858 -0.84970683 195 177 169
-0.2208115 0.44765779 -0.84930372 196 178 174
-0.22282344 0.4477444 -0.85122281 199 182 168
-0.22035782 0.44853249 -0.84890324 190 171 166
-0.22011535 0.44827828 -0.84858137 189 168 165
-0.21999854 0.45044011 -0.84871739 185 170 156
-0.2199643 0.44973579 -0.84858656 186 169 159
-0.21959479 0.4491291 -0.84806538 186 168 161
-0.22131959 0.44489014 -0.84900928 195 179 165
-0.22427875 0.44350743 -0.85136712 197 177 174
-0.22241282 0.44448054 -0.84991097 196 178 169
-0.22148231 0.44371191 -0.84880531 194 180 158
-0.22147673 0.4463627 -0.84960246 197 178 175
-0.22220683 0.4441596 -0.84962058 195 179 166
-0.22235979 0.44465953 -0.84991544 196 178 170
-0.22338043 0.44653723 -0.85146099 201 182 171
-0.22333455 0.44556856 -0.85111457 199 180 174
-0.22285047 0.44544452 -0.85061669 198 178 175
-0.22213463 0.4471058 -0.85045743 200 181 173
-0.22239189 0.44606861 -0.85037702 198 179 175
-0.22223118 0.44666964 -0.85041261 199 180 174
-0.22429828 0.44490981 -0.85181719 201 181 173
-0.21999815 0.4464978 -0.84807646 191 169 166
-0.22041827 0.44640994 -0.84855014 194 175 169
-0.22499985 0.44016254 -0.85180819 197 177 173
-0.22296767 0.440777 -0.84956437 203 179 174
-0.22404221 0.43959749 -0.85056382 200 178 173
-0.22286479 0.43967468 -0.84931874 203 180 173
-0.22381675 0.4401333 -0.85038972 201 178 174
-0.22454436 0.44212011 -0.85141027 198 177 175
-0.22326417 0.44178715 -0.85002702 201 179 173
-0.22367792 0.44217625 -0.85050017 200 178 174
-0.22246498 0.44158635 -0.84923339 201 180 169
-0.22222078 0.44165516 -0.84901929 200 180 167
-0.22408108 0.44277176 -0.85100847 199 177 174
-0.2226339 0.44192928 -0.84946674 200 179 169
-0.22225216 0.44298697 -0.84933949 196 179 162
-0.22503445 0.43852189 -0.85148364 192 172 169
-0.22541216 0.43770352 -0.8517825 187 168 165
-0.22463571 0.43804857 -0.85074884 191 173 168
-0.2256828 0.43621242 -0.85171628 179 160 158
-0.22379608 0.43701276 -0.84949034 191 177 169
-0.22404145 0.43760234 -0.84994519 192 176 170
-0.22327523 0.4357298 -0.84851497 187 177 167
-0.22302264 0.43609679 -0.84835631 190 179 169
-0.22316913 0.43616799 -0.84853578 190 179 169
-0.22271425 0.43828791 -0.84874797 199 180 172
-0.22312279 0.43815881 -0.84914088 198 179 172
-0.2232537 0.43783766 -0.8491748 196 179 171
-0.22282413 0.43898335 -0.84909368 202 180 172
-0.22354111 0.433918 -0.84838903 167 155 145
-0.22338876 0.4331623 -0.84805393 160 147 136
-0.22319651 0.43500301 -0.84825045 181 170 160
-0.22403343 0.43162531 -0.84837139 145 128 118
-0.22666116 0.42334297 -0.8503142 191 171 165
-0.22700453 0.42335796 -0.8507939 197 176 172
-0.22804315 0.41691655 -0.85086578 175 165 145
-0.22808956 0.41709495 -0.85097909 177 168 147
-0.22723655 0.41754097 -0.8496058 186 172 162
-0.22717424 0.41732073 -0.84945631 184 169 160
-0.22637428 0.41696388 -0.8480798 185 165 161
-0.22750486 0.41828012 -0.85021448 192 182 167
-0.22658299 0.41571572 -0.8483777 175 150 153
-0.23361184 0.46604145 -0.87188321 194 163 157
-0.23352046 0.46565717 -0.87189609 195 165 157
-0.23340702 0.46544275 -0.87197369 195 166 157
-0.23347777 0.46508679 -0.87183923 195 167 157
-0.22804128 0.46384108 -0.87149137 185 151 152
-0.23276238 0.4601596 -0.87212789 184 149 142
-0.23342021 0.46031281 -0.87162888 196 165 158
-0.23325193 0.45928159 -0.87175459 193 157 155
-0.23226552 0.45940074 -0.87225974 179 141 137
-0.23160076 0.45978281 -0.87170351 180 146 142
-0.23099044 0.46092594 -0.87166607 184 147 147
-0.23118353 0.45963806 -0.87152523 179 141 142
-0.23109959 0.46151423 -0.87179959 186 152 150
-0.23246409 0.45825607 -0.8722437 182 145 142
-0.23247172 0.45764723 -0.87214893 185 152 147
-0.23221418 0.4570623 -0.87197381 189 159 152
-0.23187387 0.45637357 -0.87161893 194 168 159
-0.23215955 0.45744461 -0.87198377 187 155 149
-0.23221977 0.45492354 -0.87164766 199 181 169
-0.20427817 0.42391935 -0.8280803 122 79 104
-0.20548616 0.42245585 -0.82807899 126 88 108
-0.20698477 0.42019346 -0.82826144 147 113 126
-0.20529927 0.42109448 -0.82726568 113 82 97
-0.20640135 0.42065343 -0.82798797 136 103 117
-0.2054802 0.42263871 -0.82816195 127 88 109
-0.20301718 0.42026857 -0.82556134 95 61 81
-0.20350248 0.42042568 -0.82593024 97 66 83
-0.20327704 0.42154792 -0.82648271 101 70 86
-0.20258589 0.42086175 -0.82567722 96 60 81
-0.20195889 0.4213061 -0.8255927 96 58 81
-0.20201679 0.42118406 -0.82555139 96 58 81
-0.20341848 0.42208958 -0.82682723 105 72 89
-0.20361447 0.4215039 -0.82663161 102 72 87
-0.20328954 0.42202941 -0.82674164 104 71 88
-0.20407031 0.4218908 -0.82701814 107 74 92
-0.20453604 0.42090565 -0.82674897 103 75 89
-0.20899945 0.41699049 -0.82806432 103 75 88
-0.20772205 0.41926759 -0.82834184 142 110 122
-0.20671201 0.41958508 -0.82768631 128 98 110
-0.20797823 0.4186095 -0.82814258 127 97 109
-0.20850028 0.41688451 -0.82760614 89 63 77
-0.2070125 0.41862044 -0.82735604 106 79 91
-0.2069975 0.41888556 -0.82748747 113 85 97
-0.20578595 0.41838911 -0.82630235 99 75 86
-0.20726758 0.41615137 -0.82632345 94 69 80
-0.20593892 0.4184005 -0.82642049 97 73 84
-0.2082843 0.41646138 -0.82722062 81 56 70
-0.20782313 0.41712937 -0.82720041 83 58 72
-0.20553067 0.41805288 -0.82595348 104 79 89
-0.20662685 0.41658667 -0.82605976 99 74 85
-0.20407994 0.41968817 -0.82583898 98 69 84
-0.20470518 0.41846403 -0.82560527 105 79 90
-0.20363787 0.41875258 -0.82514143 101 70 86
-0.20305277 0.41867223 -0.82477283 99 65 84
-0.20321509 0.41902584 -0.82503378 98 65 83
-0.20941854 0.41567215 -0.82776028 80 54 68
-0.21080646 0.41455072 -0.82850713 93 64 78
-0.2097735 0.41308859 -0.82657689 112 84 96
-0.2101897 0.41241369 -0.82661724 119 91 101
-0.20942239 0.41354591 -0.82647324 107 79 92
-0.20978668 0.41338581 -0.82677597 108 80 92
-0.20925936 0.41415507 -0.82667148 99 72 86
-0.20906483 0.41430587 -0.82655036 98 70 85
-0.21106651 0.41260567 -0.82770443 112 88 94
-0.20793912 0.41293433 -0.82485402 126 95 109
-0.20890993 0.41353437 -0.8259275 110 80 95
-0.20560107 0.41594249 -0.82498556 114 89 97
-0.20743026 0.41510624 -0.82581365 105 78 90
-0.20635729 0.41556665 -0.82530922 111 85 94
-0.20727524 0.41382617 -0.82490468 124 95 107
-0.20809761 0.414933 -0.82619768 100 73 86
-0.20818809 0.41595018 -0.82689589 85 60 73
-0.21307828 0.40855682 -0.82767504 104 82 90
-0.21353549 0.40916917 -0.82843858 113 91 95
-0.20989028 0.40938574 -0.8246873 102 76 87
-0.2111167 0.40871036 -0.82565135 99 75 85
-0.21086001 0.40928531 -0.82566971 104 79 90
-0.20913835 0.41185158 -0.8251313 126 94 109
-0.20950244 0.41141692 -0.82530063 123 92 106
-0.21095061 0.40929919 -0.82577449 105 79 91
-0.21253297 0.40875244 -0.82720417 104 80 90
-0.2118689 0.4095141 -0.82688195 109 83 94
-0.21206217 0.41094238 -0.82786584 111 89 94
-0.21241005 0.40941313 -0.82742488 106 83 91
-0.21214832 0.41095385 -0.82796717 111 89 93
-0.21252215 0.40912908 -0.82739538 105 81 90
-0.20915468 0.41197589 -0.82521367 127 95 110
-0.21286745 0.40978828 -0.82818592 109 88 93
-0.20892112 0.41147882 -0.82476491 124 93 107
-0.21278107 0.40718395 -0.82660222 116 90 103
-0.2117383 0.40608546 -0.82485098 130 100 115
-0.21159306 0.40598139 -0.82463503 131 101 116
-0.21076849 0.40787536 -0.82482857 96 73 83
-0.21124272 0.4066298 -0.82462794 119 91 104
-0.21238753 0.40553528 -0.82523626 141 109 126
-0.21143234 0.40705115 -0.825073 113 86 99
-0.21442668 0.4567171 -0.84410542 117 87 104
-0.21412435 0.4576619 -0.84408587 118 90 104
-0.21541752 0.45238566 -0.84413016 121 89 108
-0.21511444 0.45234367 -0.84382552 119 89 107
-0.21486114 0.45175993 -0.84342331 117 86 103
-0.21723616 0.44129342 -0.84400946 165 141 134
-0.21726643 0.44010714 -0.8437022 189 165 153
-0.21670201 0.43965513 -0.8430478 196 170 159
-0.21636954 0.44168445 -0.84328723 151 121 122
-0.21604869 0.44072098 -0.84269297 165 132 134
-0.21678485 0.4428342 -0.84402889 134 108 109
-0.2165544 0.4417921 -0.84350318 151 123 123
-0.21570313 0.43956271 -0.8420189 183 147 148
-0.21591744 0.44282386 -0.84313476 129 98 105
-0.21608566 0.44277844 -0.84329867 129 98 105
-0.21399508 0.4399009 -0.84038824 154 103 125
-0.21775074 0.43834674 -0.84368557 202 178 167
-0.21844546 0.43668401 -0.84390777 202 178 172
-0.21829581 0.43646491 -0.84369695 202 178 172
-0.21777283 0.4365066 -0.84317905 203 180 172
-0.2170191 0.4389573 -0.84316039 202 177 165
-0.21746829 0.43781614 -0.84326881 202 178 168
-0.21614791 0.43741947 -0.84178203 199 177 166
-0.215784 0.43643698 -0.84109896 198 177 167
-0.21660145 0.43619841 -0.84188896 203 181 170
-0.21568552 0.43875957 -0.84174478 188 155 154
-0.21590534 0.4391802 -0.84210217 189 157 154
-0.21521328 0.43581745 -0.84031415 194 174 166
-0.21551014 0.43708766 -0.84102517 193 168 162
-0.21571337 0.43807039 -0.84154868 191 163 158
-0.21922746 0.43444446 -0.84413868 200 179 175
-0.21710625 0.43522248 -0.84214485 203 183 173
-0.21913557 0.43381074 -0.84391677 198 180 174
-0.21902508 0.43487507 -0.84402084 201 179 175
-0.21839023 0.43194425 -0.84290189 190 176 164
-0.21769525 0.4326736 -0.84235895 192 176 163
-0.21870063 0.43222803 -0.84322006 193 178 168
-0.21691509 0.43384334 -0.84179312 196 177 164
-0.21773851 0.43231881 -0.84235436 190 175 162
-0.21795763 0.43256223 -0.84258431 192 177 165
-0.21650782 0.43431216 -0.84145647 196 176 164
-0.21662416 0.43177354 -0.8412568 184 167 151
-0.21579802 0.434778 -0.84076184 195 175 165
-0.21578804 0.43454358 -0.84072661 193 174 163
-0.21657732 0.43525013 -0.84163392 202 181 170
-0.2192075 0.43045899 -0.84330845 184 169 161
-0.21802263 0.43095854 -0.84235555 184 168 155
-0.21925901 0.43060088 -0.84339154 185 171 162
-0.21968648 0.4306249 -0.84378725 186 172 166
-0.21800968 0.43090409 -0.84232992 184 168 155
-0.21989574 0.42857268 -0.84342736 174 156 152
-0.21680276 0.43043315 -0.84110069 176 158 140
-0.2175778 0.42847666 -0.84129274 165 144 130
-0.21831116 0.42970666 -0.84228194 177 159 148
-0.21785517 0.42852405 -0.84155732 167 146 133
-0.21751313 0.430132 -0.84166771 177 158 144
-0.22033691 0.42781129 -0.84362739 171 151 150
-0.21692757 0.42777434 -0.84051728 158 134 117
-0.2188517 0.42951524 -0.84272337 177 159 151
-0.21654773 0.43058848 -0.84088504 176 157 141
-0.21627738 0.42957938 -0.84034866 168 146 131
-0.22074215 0.4276897 -0.8439616 171 152 152
-0.22141832 0.424586 -0.84366477 162 139 142
-0.22098219 0.42415386 -0.84307641 162 138 142
-0.22168766 0.42389867 -0.84372133 160 136 139
-0.21792224 0.42461783 -0.84024853 169 148 135
-0.21833359 0.42593125 -0.84118372 161 137 127
-0.21832348 0.42519203 -0.84087533 164 142 132
-0.21872996 0.42415661 -0.84086031 168 146 139
-0.21921435 0.42454135 -0.84149593 164 141 136
-0.21727674 0.4267213 -0.84045488 161 138 122
-0.21925537 0.42698267 -0.84238201 165 143 137
-0.2204621 0.42464426 -0.84272736 164 139 142
-0.21872945 0.42604068 -0.84160078 161 136 129
-0.21883677 0.42604333 -0.84169924 161 137 130
-0.21770181 0.42752892 -0.84114486 160 137 123
-0.21971478 0.42584363 -0.84243345 164 140 138
-0.22067158 0.4246237 -0.84291124 164 140 143
-0.22150458 0.42361382 -0.84346765 162 138 140
-0.2211626 0.42313376 -0.84302038 166 142 143
-0.22093573 0.42353514 -0.84286588 164 139 142
-0.22119814 0.42046523 -0.84222686 178 158 151
-0.22085941 0.42271525 -0.8425234 168 144 144
-0.22110263 0.42061549 -0.8421554 177 157 150
-0.2214009 0.42025307 -0.84241277 179 159 151
-0.22212146 0.42009798 -0.84326524 181 160 152
-0.22022651 0.4220823 -0.84159929 167 146 144
-0.22000025 0.42004961 -0.84069872 174 158 148
-0.22040644 0.42045972 -0.84127808 175 157 149
-0.21928039 0.42283285 -0.84092385 169 149 142
-0.21861061 0.42358443 -0.84052378 170 150 141
-0.21955428 0.42249864 -0.84107798 169 149 143
-0.21958189 0.42115995 -0.84063506 171 153 145
-0.22009943 0.42331293 -0.84190458 165 143 142
-0.22266576 0.41984215 -0.8438583 183 162 154
-0.22096986 0.41982606 -0.84172863 180 162 152
-0.22284307 0.41915339 -0.84380889 178 157 149
-0.22275755 0.41917774 -0.8437103 180 159 151
-0.21992138 0.41979241 -0.84051663 175 159 148
-0.22048582 0.41928005 -0.84092504 181 162 153
-0.22212735 0.46744177 -0.85302013 154 120 124
-0.22272317 0.4671182 -0.85350603 161 129 129
-0.22179027 0.46751451 -0.85272914 149 115 122
-0.22253463 0.46738836 -0.85337663 159 127 127
-0.22306883 0.46690896 -0.85378474 165 133 131
-0.2224181 0.46685255 -0.85319459 156 122 126
-0.22340402 0.46359304 -0.85359937 191 165 156
-0.22259831 0.46348444 -0.85277295 189 159 155
-0.22343592 0.4659521 -0.85394031 178 148 142
-0.22205222 0.46330839 -0.85221297 186 154 154
-0.22339079 0.4666366 -0.85402673 171 140 135
-0.22172734 0.46600309 -0.85242158 155 119 128
-0.22407573 0.46636903 -0.85458976 183 154 143
-0.22187853 0.46612966 -0.85258025 155 120 128
-0.22557054 0.45950454 -0.85544389 185 162 160
-0.22504042 0.45949835 -0.85472888 185 160 161
-0.22460356 0.46045905 -0.85431224 189 165 162
-0.22344416 0.45911857 -0.85294777 182 155 156
-0.22383493 0.46029243 -0.85353512 187 162 159
-0.22433539 0.46028471 -0.8540206 188 163 161
-0.22445716 0.45956245 -0.85401148 185 159 161
-0.22239888 0.46211609 -0.85239047 188 158 156
-0.2230211 0.460812 -0.85281813 187 160 156
-0.22292809 0.46279073 -0.8530305 192 164 158
-0.22240667 0.46190691 -0.85236597 187 158 156
-0.22276117 0.45968187 -0.85238004 183 156 153
-0.22538325 0.45822579 -0.85513455 186 162 161
-0.22521618 0.45858899 -0.85489285 185 160 161
-0.22466834 0.45718056 -0.85422367 187 165 160
-0.2243268 0.45725903 -0.85385829 183 159 157
-0.22444102 0.45799312 -0.85393697 183 158 159
-0.22314586 0.45639116 -0.85271937 169 141 144
-0.22368692 0.45564923 -0.85329628 177 154 149
-0.22437926 0.45781037 -0.85388404 182 157 158
-0.22355768 0.4574582 -0.85308379 174 146 150
-0.22402586 0.458832 -0.8534947 182 154 158
-0.22406557 0.45841745 -0.85354674 180 152 157
-0.22237772 0.45586821 -0.85198748 164 136 138
-0.22630776 0.45148304 -0.85575116 213 196 182
-0.22557916 0.4518179 -0.85494673 210 192 179
-0.22532703 0.45166811 -0.8546347 210 193 180
-0.22538416 0.45228162 -0.85478091 207 190 176
-0.22497754 0.45194185 -0.85426486 208 190 178
-0.2238704 0.45303017 -0.85320044 192 173 164
-0.22439305 0.45132753 -0.85352957 209 189 180
-0.22422916 0.45199037 -0.85344315 203 183 174
-0.22431968 0.45312655 -0.85368669 197 179 167
-0.2228643 0.45373312 -0.85229439 175 150 149
-0.22330472 0.45214143 -0.85248989 190 168 165
-0.22317505 0.45422241 -0.85268044 176 153 149
-0.22285271 0.45337564 -0.85222781 177 152 152
-0.2238985 0.45410258 -0.85338545 186 167 157
-0.22500627 0.45116231 -0.85419732 213 194 183
-0.22588463 0.44912738 -0.85509974 213 194 183
-0.22623876 0.45099068 -0.85561746 214 197 184
-0.2260306 0.4487513 -0.85524756 213 194 183
-0.22489037 0.45037082 -0.85397911 213 194 183
-0.22555733 0.44771901 -0.85439771 216 198 184
-0.22562602 0.44812274 -0.85458052 215 197 184
-0.22464833 0.45074624 -0.85370606 213 194 183
-0.22594276 0.44845742 -0.85510826 213 195 183
-0.22456929 0.45080125 -0.85361964 213 194 182
-0.22439684 0.44757581 -0.85277653 217 198 181
-0.22360855 0.4502691 -0.85250133 200 179 172
-0.22328615 0.44932964 -0.85197324 196 176 168
-0.22323364 0.45012125 -0.85207641 195 174 169
-0.22468755 0.44412979 -0.85197544 202 181 175
-0.22504824 0.4447622 -0.85273433 205 186 178
-0.22487323 0.44562593 -0.85276812 211 192 181
-0.22495966 0.44674888 -0.85326678 217 199 184
-0.2254694 0.4470908 -0.85411865 217 199 184
-0.22516139 0.44498685 -0.85297281 206 186 179
-0.22648107 0.44572845 -0.85520637 206 187 177
-0.22606301 0.44476515 -0.85428411 203 183 174
-0.22646675 0.44647321 -0.85538477 209 191 181
-0.22640054 0.44632339 -0.85523945 209 190 180
-0.22591509 0.44456631 -0.8539961 202 182 174
-0.22522381 0.44377562 -0.85268772 199 179 174
-0.22425868 0.44715488 -0.85253173 214 196 179
-0.22776204 0.4395273 -0.85497689 195 183 178
-0.22802231 0.43955171 -0.85528541 195 183 178
-0.22729121 0.43980795 -0.85453868 195 181 176
-0.2283628 0.43977898 -0.85576147 195 184 178
-0.22734784 0.4428823 -0.85574114 196 176 163
-0.22670071 0.44159904 -0.85452151 196 177 167
-0.22711016 0.44036126 -0.85453498 196 180 173
-0.22806035 0.44062978 -0.85572803 195 182 174
-0.2253478 0.44298351 -0.85272163 197 177 172
-0.22638647 0.44205651 -0.85424352 197 176 166
-0.22495818 0.44189695 -0.85196 197 177 174
-0.22547734 0.44274926 -0.85289568 197 177 171
-0.22699007 0.44281888 -0.85530102 197 176 162
-0.2252645 0.44200382 -0.85245943 197 177 172
-0.2249843 0.44264141 -0.85210043 197 177 174
-0.22858043 0.43662602 -0.85521817 178 160 161
-0.22851662 0.43831149 -0.85550386 187 175 172
-0.22835548 0.43826064 -0.85531145 187 175 172
-0.22781859 0.43582407 -0.85404658 175 155 157
-0.22844717 0.43609938 -0.85481417 176 155 159
-0.22799405 0.43813699 -0.85487968 187 174 171
-0.22620386 0.43567702 -0.85222977 175 157 155
-0.22644542 0.4385961 -0.85322547 191 175 171
-0.22614764 0.43813637 -0.85277069 188 171 168
-0.22548829 0.43924141 -0.85228062 195 176 172
-0.22725938 0.4383212 -0.85409564 188 175 171
-0.22642574 0.43896925 -0.85329366 193 177 173
-0.22679459 0.43755546 -0.85337406 185 170 166
-0.22577292 0.43722069 -0.85211635 184 165 163
-0.22831759 0.42401952 -0.85275602 197 175 173
-0.22804211 0.42363486 -0.85233343 203 181 180
-0.23304659 0.4518269 -0.86727029 204 184 183
-0.23282364 0.45163885 -0.86626571 206 187 185
-0.23267397 0.45121744 -0.86552459 209 192 190
-0.23214702 0.45184579 -0.86398429 210 191 186
-0.23196048 0.45249572 -0.86381173 208 184 180
-0.23298053 0.45074078 -0.86725277 206 188 186
-0.23247567 0.4500694 -0.86541814 210 192 185
-0.23276815 0.45096117 -0.86610961 208 191 188
-0.23261943 0.44848582 -0.86725146 207 188 174
-0.23246264 0.44949791 -0.86578017 209 191 181
-0.23177458 0.44928712 -0.86416537 207 190 186
-0.23194841 0.44877452 -0.86498982 207 189 182
-0.23164949 0.44883698 -0.86419374 206 189 185
-0.23183878 0.44883966 -0.86466581 206 189 183
-0.23172578 0.44865236 -0.86452502 206 189 183
-0.23193096 0.44821212 -0.86537308 206 187 178
-0.23193721 0.45056221 -0.86382616 211 195 191
-0.23196256 0.45088384 -0.86372685 212 196 192
-0.23245607 0.44721565 -0.86743784 206 185 168
-0.22989441 0.44431001 -0.86540592 190 175 166
-0.23040517 0.44481426 -0.86459547 190 176 168
-0.2298539 0.44482979 -0.86545992 194 178 168
-0.23087491 0.44535714 -0.86384857 190 177 171
-0.23077211 0.44417423 -0.86403167 184 171 165
-0.22968772 0.44442123 -0.86572808 192 176 166
-0.22968231 0.44353244 -0.86572123 187 172 161
-0.2315059 0.44661027 -0.86691141 203 183 169
-0.23202375 0.44707683 -0.86686736 204 184 170
-0.23093829 0.44648194 -0.86585867 202 183 173
-0.23009486 0.4456816 -0.86604661 199 182 171
-0.22997272 0.44528544 -0.86687934 199 181 167
-0.23158672 0.44682777 -0.8664887 203 184 171
-0.23085985 0.44637805 -0.86596078 201 183 172
-0.23114391 0.44353995 -0.86719489 192 172 160
-0.23205955 0.44599459 -0.86726773 201 180 166
-0.23111704 0.44557351 -0.86736411 200 180 165
-0.23172289 0.44381821 -0.86713731 192 172 160
-0.23157732 0.4453932 -0.86728561 199 179 164
-0.22718525 0.44500127 -0.86697131 178 153 149
-0.22748837 0.44508421 -0.86720467 185 162 155
-0.22637106 0.44583374 -0.86662132 168 139 141
-0.22711098 0.44568431 -0.86709869 181 157 154
-0.22837242 0.44363093 -0.86733377 192 172 159
-0.22719285 0.44460034 -0.86676085 177 152 147
-0.22592898 0.44558603 -0.86618167 166 134 137
-0.22579783 0.4460628 -0.86623114 159 126 133
-0.22595459 0.44525793 -0.86610341 171 139 140
-0.2324288 0.44093958 -0.86480141 186 173 168
-0.23250253 0.44324523 -0.86722571 191 170 160
-0.23252533 0.44137484 -0.8658635 189 172 166
-0.23255487 0.44147262 -0.86729681 187 171 162
-0.23255238 0.43947914 -0.86734992 180 172 162
-0.23255998 0.44194463 -0.86750603 188 170 161
