ply
format ascii 1.0
comment PCL generated
element vertex 968
property float x
property float y
property float z
property uchar red
property uchar green
property uchar blue
element camera 0
property float view_px
property float view_py
property float view_pz
property float x_axisx
property float x_axisy
property float x_axisz
property float y_axisx
property float y_axisy
property float y_axisz
property float z_axisx
property float z_axisy
property float z_axisz
property float focal
property float scalex
property float scaley
property float centerx
property float centery
property int viewportx
property int viewporty
property float k1
property float k2
end_header
0.00049955631 -0.52128476 -0.71457803 166 156 168
-0.00061877503 -0.51880431 -0.71339285 172 163 180
0.00033759093 -0.51771098 -0.71304142 174 166 174
-0.0017734916 -0.51865679 -0.71321326 174 166 193
-0.0013846653 -0.51856303 -0.71321476 174 166 189
-0.0014292349 -0.51916319 -0.71345705 172 163 188
-0.0006642401 -0.51923788 -0.71356654 171 161 180
0.0033594337 -0.52146322 -0.71502835 132 120 122
0.0027047521 -0.52115208 -0.7148096 148 137 138
0.0048312028 -0.521173 -0.71510494 96 80 86
0.0048547466 -0.52040446 -0.71478909 96 80 85
0.002207126 -0.52134943 -0.71482438 159 151 150
0.0056485464 -0.52082872 -0.71507221 77 58 66
0.0030488935 -0.51959562 -0.71419531 141 130 129
0.0019788072 -0.52111757 -0.7146911 166 157 156
0.002111448 -0.51913357 -0.71385151 166 157 153
0.0030235196 -0.51910049 -0.7139768 143 131 130
0.0019946196 -0.52055383 -0.71444923 166 158 156
0.0065172822 -0.51779246 -0.71394676 71 51 57
-0.024838867 -0.52518237 -0.71181101 126 115 135
-0.02372124 -0.52516896 -0.71212089 127 115 137
-0.023610001 -0.52432996 -0.7117117 129 115 138
-0.022834145 -0.52424276 -0.71188587 129 115 140
-0.023914006 -0.52481908 -0.71188241 128 115 137
-0.022362143 -0.52293557 -0.71134555 132 117 142
-0.024120035 -0.52390993 -0.71138352 129 117 138
-0.021413026 -0.52296948 -0.71161473 133 116 144
-0.020008864 -0.52261275 -0.71172076 135 118 149
-0.018522164 -0.52221978 -0.71183652 136 119 155
-0.020307798 -0.52371746 -0.71224022 132 117 148
-0.01875939 -0.52245253 -0.71190816 136 118 154
-0.017714681 -0.52302551 -0.71235043 140 124 160
-0.017668759 -0.52173179 -0.7117545 139 120 159
-0.018953444 -0.52404195 -0.71263325 137 121 155
-0.018236902 -0.52349138 -0.71248704 139 123 158
-0.018945102 -0.52296299 -0.71213162 135 118 154
-0.020040341 -0.52475518 -0.71279818 133 119 150
-0.014205996 -0.52427751 -0.7135278 162 153 181
-0.015490929 -0.52332985 -0.71295244 154 143 176
-0.015411439 -0.52362937 -0.71308553 155 144 176
-0.014106758 -0.52475977 -0.71373767 163 154 181
-0.014635842 -0.52336377 -0.71309406 159 149 180
-0.01593646 -0.52485007 -0.71350068 153 142 172
-0.01730103 -0.52240634 -0.71214134 142 125 162
-0.015369209 -0.5216493 -0.71219659 152 139 175
-0.014349159 -0.52164137 -0.7124083 159 148 182
-0.015553934 -0.52324468 -0.71290112 154 143 175
-0.014968581 -0.52204317 -0.71246475 155 144 178
-0.016022068 -0.52336866 -0.71286005 151 139 172
-0.010140541 -0.52409226 -0.71407181 166 156 188
-0.010781987 -0.5243597 -0.71408325 166 156 187
-0.013121428 -0.52520818 -0.71406889 166 157 183
-0.012855019 -0.52464265 -0.71386296 168 159 184
-0.013012499 -0.52511704 -0.71404666 166 157 184
-0.013325405 -0.52374095 -0.71343523 166 157 185
-0.010225342 -0.52168441 -0.71300197 173 165 191
-0.010049695 -0.52156663 -0.71297693 174 166 191
-0.013172011 -0.52355659 -0.7133804 166 157 185
-0.011059579 -0.52179116 -0.71293795 171 163 190
-0.0060059922 -0.52178174 -0.71400684 188 179 196
-0.0079515427 -0.52477586 -0.71480435 172 165 191
-0.006167369 -0.52396339 -0.71481806 183 180 195
-0.0084598996 -0.52418888 -0.71448493 170 160 190
-0.0074337106 -0.52346033 -0.71439219 177 168 192
-0.0080826376 -0.52234113 -0.71376389 178 169 193
-0.0088493209 -0.52216327 -0.71350086 176 167 192
-0.0094412398 -0.52307063 -0.71376014 170 161 190
-0.0071152654 -0.52233475 -0.71399355 182 172 194
-0.008553884 -0.52244908 -0.71369839 176 167 192
-0.0076060523 -0.52299374 -0.71416724 177 168 192
-0.0050683534 -0.52274144 -0.71451283 183 175 193
-0.0053758901 -0.52267021 -0.71444285 185 178 194
-0.0031692588 -0.52386063 -0.7152065 171 161 186
-0.0058046421 -0.52302539 -0.71452057 186 181 196
-0.0032375485 -0.52372754 -0.71514577 171 161 186
-0.0030714395 -0.52265239 -0.71474099 172 159 186
-0.0032469532 -0.52160072 -0.71426332 174 162 190
-0.0051876456 -0.52173179 -0.71410233 185 175 194
-0.00076610525 -0.52290052 -0.71511877 165 153 175
-8.4272353e-05 -0.52274317 -0.71513307 165 154 172
-0.00012588972 -0.52232313 -0.71494514 166 155 173
0.0014648971 -0.52151608 -0.71479851 166 157 160
-0.00024953461 -0.52159643 -0.71461809 166 155 174
0.0030155568 -0.52198839 -0.71520251 140 129 132
-0.033767171 -0.5281592 -0.71154737 119 110 128
-0.035678677 -0.52889109 -0.71145803 115 102 124
-0.033809457 -0.52802062 -0.71147108 119 110 129
-0.031746015 -0.52823609 -0.71189564 115 105 124
-0.02997433 -0.52791816 -0.71202999 112 97 122
-0.03102516 -0.52731323 -0.71154165 119 106 127
-0.031695515 -0.52796954 -0.71177328 117 106 125
-0.030609597 -0.52729946 -0.71158653 118 105 126
-0.029194426 -0.52839178 -0.7124331 106 91 118
-0.028783683 -0.52647698 -0.71148783 120 104 127
-0.027242357 -0.52673584 -0.71202344 117 104 127
-0.026884738 -0.52645725 -0.71196288 119 106 128
-0.026642868 -0.52655369 -0.71207964 118 105 128
-0.028380334 -0.52865326 -0.71277648 105 91 118
-0.027303511 -0.52784818 -0.71260267 112 99 124
-0.026843369 -0.52868515 -0.71313763 114 101 126
-0.026102034 -0.52716672 -0.7125206 120 108 130
-0.027610149 -0.52777207 -0.71249467 111 97 122
-0.026538862 -0.52796841 -0.71283621 117 104 128
-0.023297746 -0.52815992 -0.7137273 131 121 143
-0.022487294 -0.5278939 -0.71378648 136 127 148
-0.02292918 -0.52928424 -0.71432012 141 135 152
-0.022674112 -0.52684337 -0.71326762 128 115 141
-0.021535991 -0.52707899 -0.71362752 138 130 151
-0.022717932 -0.52746791 -0.71354169 132 121 144
-0.023619367 -0.52649164 -0.71283418 126 113 138
-0.024176458 -0.5258373 -0.71233869 126 114 136
-0.023515016 -0.52704644 -0.71315002 126 112 138
-0.023548068 -0.52576232 -0.71247822 127 114 138
-0.02366831 -0.52656645 -0.71285897 126 113 137
-0.023786252 -0.52580118 -0.71243072 126 114 137
-0.019710993 -0.52923113 -0.71492177 159 156 172
-0.018184379 -0.5270167 -0.71413779 152 143 169
-0.020187907 -0.52919233 -0.71482086 157 154 169
-0.017707707 -0.52876788 -0.7150476 166 159 180
-0.018239334 -0.52688569 -0.71406645 151 142 168
-0.018883556 -0.52852422 -0.71472985 159 153 172
-0.01984001 -0.52796137 -0.71429902 151 145 164
-0.019430818 -0.52623791 -0.71357328 142 131 158
-0.019971037 -0.5263359 -0.71353459 140 130 155
-0.020907305 -0.52690262 -0.71364778 140 131 153
-0.019798789 -0.52744776 -0.71406639 148 141 162
-0.020970916 -0.52636945 -0.71339571 136 126 150
-0.020998603 -0.52822047 -0.71423262 147 143 160
-0.015654832 -0.52748978 -0.71481282 161 152 175
-0.017038213 -0.52684838 -0.71426016 155 144 171
-0.01448228 -0.52792168 -0.7152285 165 157 178
-0.016667703 -0.52683973 -0.71432287 155 145 171
-0.017216694 -0.52845621 -0.71498781 165 158 179
-0.016722547 -0.52721941 -0.71449244 158 148 173
-0.015302444 -0.52650499 -0.71440089 156 146 172
-0.015070168 -0.52558088 -0.71394897 158 148 175
-0.016280774 -0.52565867 -0.71380889 152 140 169
-0.015513767 -0.52642816 -0.71432883 155 144 171
-0.01082991 -0.52650213 -0.71513098 162 151 183
-0.012159424 -0.52697963 -0.71515423 163 153 180
-0.012355153 -0.52578342 -0.71449065 164 155 183
-0.0099747255 -0.52594477 -0.71497703 161 150 185
-0.0078097102 -0.52552778 -0.71513385 171 167 191
-0.033886809 -0.52940881 -0.71212268 112 104 122
-0.033356208 -0.52944249 -0.71226221 112 105 122
-0.02831256 -0.53254688 -0.71480256 110 94 120
-0.025904587 -0.53102702 -0.71457261 127 114 136
-0.02657444 -0.53161019 -0.71472156 123 110 132
-0.02690074 -0.5321151 -0.71491104 123 109 131
-0.026909547 -0.53054345 -0.71408045 115 100 126
-0.027917404 -0.53173691 -0.71446919 110 95 121
-0.026927732 -0.53065836 -0.71413559 115 100 126
-0.027062932 -0.52970046 -0.7136119 113 99 125
-0.027206998 -0.53007513 -0.71377254 113 98 124
-0.028269444 -0.53092349 -0.71397126 107 92 119
-0.023747768 -0.53107673 -0.71502972 142 134 153
-0.023572136 -0.53110492 -0.71507758 143 136 155
-0.024328487 -0.53034288 -0.7145322 135 125 146
-0.024747811 -0.53155029 -0.71509308 139 129 148
-0.023691475 -0.53140676 -0.71521509 144 137 155
-0.021563904 -0.53054845 -0.71516776 152 149 167
-0.02238702 -0.52992052 -0.71471471 145 141 159
-0.019575607 -0.52939546 -0.7150203 161 157 173
-0.019877078 -0.52989149 -0.71518147 160 156 174
-0.0074100611 -0.4857488 -0.69877976 158 138 163
-0.0064326171 -0.48632005 -0.69924605 165 148 170
-0.013752498 -0.48878139 -0.69836622 141 113 124
-0.014279997 -0.48931241 -0.69841433 141 114 124
-0.014050339 -0.48794737 -0.69795567 142 117 129
-0.014196604 -0.48993349 -0.69867897 140 112 121
-0.010467414 -0.48971969 -0.6995362 144 122 145
-0.01139925 -0.48924941 -0.69913161 144 118 139
-0.01175875 -0.48914865 -0.69900614 143 116 136
-0.01103914 -0.48880163 -0.69905001 144 119 143
-0.011199638 -0.48887223 -0.69903761 144 118 141
-0.010523394 -0.48792312 -0.69884342 146 121 149
-0.013618883 -0.48879749 -0.69840974 141 113 124
-0.012969611 -0.48886493 -0.69859904 142 113 128
-0.011255024 -0.48761436 -0.69854724 145 118 144
-0.011541179 -0.48689058 -0.69819587 145 120 146
-0.013262718 -0.48917115 -0.69864357 141 112 125
-0.011407914 -0.4869568 -0.698255 145 120 146
-0.0079905316 -0.48825046 -0.6995765 155 137 161
-0.0082926238 -0.48815385 -0.69946766 153 135 160
-0.0067155682 -0.48673216 -0.69931334 162 146 169
-0.02231008 -0.49405548 -0.69812351 134 114 132
-0.022398429 -0.49331039 -0.69781691 134 112 130
-0.022550028 -0.49235538 -0.69741428 133 110 126
-0.022325965 -0.49399722 -0.69809729 134 114 132
-0.022561848 -0.49366453 -0.6979112 133 112 130
-0.018678272 -0.49410617 -0.69910628 136 109 127
-0.016921708 -0.49353343 -0.69935888 135 106 122
-0.014211182 -0.49199224 -0.69949776 138 108 119
-0.014026793 -0.49034914 -0.69889349 140 109 119
-0.015846556 -0.4915393 -0.69884837 139 111 123
-0.01559564 -0.49203417 -0.69912928 137 108 120
-0.012470165 -0.49071461 -0.69943416 141 114 128
-0.01228107 -0.49044147 -0.69937217 141 115 129
-0.022357037 -0.49766129 -0.69956702 131 107 120
-0.023338234 -0.49741632 -0.69923592 126 105 119
-0.022545855 -0.49570587 -0.69873792 132 111 128
-0.022173645 -0.49709922 -0.69938725 132 109 123
-0.022659933 -0.49416518 -0.69807863 132 112 130
-0.021374557 -0.49647689 -0.699332 136 112 127
-0.020005628 -0.49530992 -0.69923639 136 111 127
-0.020744838 -0.49587822 -0.69926316 136 112 128
-0.017325042 -0.49439609 -0.69959688 135 106 122
-0.057640687 -0.50481015 -0.69579691 145 131 149
-0.058212835 -0.50546104 -0.69602251 139 123 143
-0.057743523 -0.50561112 -0.69614071 139 125 144
-0.05346274 -0.50550777 -0.69657052 140 125 139
-0.054306965 -0.50459784 -0.69606262 143 130 145
-0.053943049 -0.50426137 -0.69595093 143 131 145
-0.055691224 -0.5054642 -0.69629979 140 130 145
-0.055315673 -0.50457436 -0.69594312 145 134 148
-0.055103112 -0.50434387 -0.69586349 146 134 149
-0.052609101 -0.50562668 -0.69672686 139 121 136
-0.052023605 -0.50475377 -0.69642591 138 120 133
-0.06941212 -0.50764418 -0.69661784 136 117 149
-0.069276974 -0.50840807 -0.69692528 135 118 148
-0.070694417 -0.50875443 -0.69705105 131 108 149
-0.069545746 -0.50922483 -0.69725019 133 117 147
-0.068450451 -0.50846773 -0.69695681 138 124 147
-0.071387038 -0.50926608 -0.69724971 128 104 149
-0.0647958 -0.50896162 -0.69721717 142 131 161
-0.065593302 -0.50892103 -0.69717723 142 130 157
-0.066761829 -0.50969589 -0.69749051 137 127 152
-0.067152344 -0.50953394 -0.69740766 138 127 151
-0.065131664 -0.50862056 -0.697056 143 132 159
-0.066065535 -0.50834388 -0.6969071 144 131 156
-0.061777797 -0.50930184 -0.69754833 143 131 149
-0.061865482 -0.50837189 -0.69708431 139 123 146
-0.061586771 -0.50946414 -0.69764185 144 132 148
-0.063583747 -0.50930184 -0.69741887 139 127 156
-0.062395688 -0.50789493 -0.6968115 136 119 147
-0.064179033 -0.50816643 -0.69687909 144 131 160
-0.062710114 -0.50797886 -0.6968323 136 119 149
-0.063287117 -0.50853163 -0.69706416 137 123 153
-0.05818304 -0.50764412 -0.69707561 143 133 146
-0.057572927 -0.5071398 -0.69689232 142 132 146
-0.059687953 -0.50955242 -0.69784063 146 135 147
-0.059727103 -0.50970221 -0.69790763 147 135 147
-0.056827515 -0.50703299 -0.69690806 141 130 148
-0.057478666 -0.50927126 -0.69790393 144 130 153
-0.059073266 -0.50721604 -0.69677216 140 126 142
-0.05932872 -0.50780666 -0.69703472 142 129 143
-0.059277471 -0.50707901 -0.69668221 139 124 141
-0.059775215 -0.50775021 -0.69695783 141 126 141
-0.060115289 -0.50730658 -0.696702 138 120 139
-0.059729055 -0.50792956 -0.69705117 142 127 142
-0.055080999 -0.50861722 -0.69785947 144 128 151
-0.054106489 -0.50954062 -0.69846606 153 137 157
-0.05291516 -0.50897956 -0.69835669 155 138 155
-0.053158075 -0.50807244 -0.69786471 150 132 149
-0.053163327 -0.50778759 -0.69772053 148 131 148
-0.055242792 -0.50969201 -0.69837701 149 133 157
-0.055358071 -0.50636321 -0.6967538 140 127 144
-0.05408271 -0.50710177 -0.69724512 141 124 143
-0.05648509 -0.50671226 -0.69679111 140 130 148
-0.054675754 -0.50758219 -0.69740438 141 125 146
-0.053541489 -0.50629163 -0.69692469 140 123 140
-0.05477928 -0.50661349 -0.69693679 140 126 143
-0.05054573 -0.50788486 -0.69814724 144 126 145
-0.049623445 -0.50860882 -0.69862485 139 120 142
-0.049472708 -0.50817406 -0.69843167 137 118 140
-0.050274879 -0.50884289 -0.69865304 143 125 146
-0.04960528 -0.50907797 -0.69885731 139 120 143
-0.051867057 -0.50945848 -0.6987434 154 137 155
-0.051837895 -0.50711823 -0.6975767 144 127 143
-0.051965993 -0.50860852 -0.69830835 152 135 152
-0.052670043 -0.50699317 -0.69739228 145 128 143
-0.072739646 -0.51291227 -0.69898576 110 93 120
-0.073233314 -0.51171947 -0.69836795 121 101 134
-0.072665282 -0.51238155 -0.6987251 113 94 125
-0.068849921 -0.51273155 -0.69891852 107 90 112
-0.069386102 -0.51240355 -0.69876134 111 95 118
-0.069454476 -0.51096481 -0.69806355 125 113 135
-0.068516158 -0.51269054 -0.69889742 107 90 112
-0.069724374 -0.51159036 -0.69836795 119 106 128
-0.071141541 -0.50984627 -0.69749236 127 105 148
-0.071581304 -0.51229274 -0.69870651 112 95 124
-0.070639871 -0.51059818 -0.69787139 124 107 140
-0.069325566 -0.51017499 -0.69767272 130 117 143
-0.072102539 -0.51255685 -0.69883323 109 91 122
-0.068492211 -0.50977188 -0.69747972 135 125 146
-0.066218644 -0.51356661 -0.69936961 113 88 121
-0.065902717 -0.51354629 -0.69936675 116 90 125
-0.064568095 -0.51212829 -0.69871581 130 108 146
-0.066330746 -0.51255095 -0.69887984 116 97 126
-0.065804087 -0.51296103 -0.69908816 118 95 129
-0.065009058 -0.51286942 -0.69906175 124 100 138
-0.066530183 -0.51038885 -0.69783032 131 120 146
-0.0647301 -0.51001793 -0.69769961 137 126 157
-0.065941751 -0.51017815 -0.69774419 134 123 151
-0.067556962 -0.51112533 -0.69815946 123 110 133
-0.065580346 -0.50987732 -0.69760811 137 127 156
-0.067673497 -0.51221895 -0.69868684 112 96 119
-0.063397177 -0.51289326 -0.69916761 131 106 141
-0.06289272 -0.51342386 -0.69948286 133 108 145
-0.06135992 -0.51270109 -0.69926518 140 121 151
-0.061887752 -0.51264781 -0.69918799 138 118 148
-0.063329436 -0.51259905 -0.69902599 132 107 140
-0.063702777 -0.51070124 -0.69808745 138 123 153
-0.062513426 -0.51090825 -0.69827211 139 123 146
-0.064249888 -0.5100131 -0.69771814 139 128 159
-0.063604593 -0.51035297 -0.69792742 139 126 154
-0.063797161 -0.512366 -0.69887942 132 108 143
-0.063518643 -0.51237214 -0.69890231 132 108 142
-0.059178688 -0.5114665 -0.69884622 148 137 155
-0.059198361 -0.51177257 -0.69899845 148 136 156
-0.059199695 -0.51115918 -0.69868952 148 138 154
-0.060239982 -0.51145172 -0.69874173 146 132 151
-0.059593521 -0.51134366 -0.69874644 147 135 153
-0.057564836 -0.51166326 -0.69909191 150 141 161
-0.056829378 -0.51048982 -0.69856161 146 133 159
-0.058299534 -0.51046252 -0.69841754 147 136 154
-0.057257053 -0.51163477 -0.69910467 150 140 162
-0.05505402 -0.51106715 -0.6990782 154 141 161
-0.056154646 -0.51119602 -0.69900006 150 138 162
-0.055976175 -0.51055676 -0.69869894 149 135 159
-0.055989999 -0.51029688 -0.6985653 148 133 158
-0.054229714 -0.51002234 -0.69868308 155 139 159
-0.054175373 -0.51005834 -0.69870806 155 139 159
-0.052304912 -0.5103271 -0.69910365 159 143 159
-0.05098778 -0.51011211 -0.69918185 151 133 153
-0.050666858 -0.50985819 -0.6990996 148 129 151
-0.066799633 -0.51374 -0.69944119 109 85 115
0.00072558864 -0.50489336 -0.70775121 132 111 121
0.0012561515 -0.50524783 -0.70797467 136 118 127
0.00088434468 -0.50492555 -0.70779228 133 113 122
-0.0007660042 -0.5056082 -0.70772111 133 105 121
0.00020485744 -0.50440609 -0.70748192 129 104 114
0.0021790187 -0.50506556 -0.70806944 132 118 126
0.0019663353 -0.50406349 -0.70769322 130 114 119
0.0037399402 -0.50279039 -0.70746559 92 74 84
0.0026696967 -0.50539422 -0.70824373 124 110 120
-0.0097791422 -0.50970811 -0.70771939 148 125 150
-0.0086192284 -0.50921488 -0.70769763 150 128 151
-0.0084834313 -0.50943893 -0.70783013 151 130 154
-0.005874577 -0.50844479 -0.70783979 157 140 161
-0.0088520469 -0.50882596 -0.70748019 150 129 150
-0.0091358051 -0.50924373 -0.70762002 149 127 150
-0.0050439243 -0.508533 -0.70809013 155 134 157
-0.0055960254 -0.50745958 -0.70743734 152 133 151
-0.0033197026 -0.50676435 -0.70767766 142 113 132
-0.0032771383 -0.50950974 -0.7089901 164 150 166
-0.0032045185 -0.50840479 -0.70848423 154 133 152
-0.0020891163 -0.50611597 -0.70767426 135 102 121
-0.0052244943 -0.50918239 -0.70835477 158 139 163
-0.0034496798 -0.50884461 -0.70863229 158 139 158
-0.0022189976 -0.50972432 -0.70935273 168 156 168
0.0010844495 -0.50870466 -0.70932329 149 130 143
0.0012964201 -0.50965995 -0.70970857 148 126 140
0.0017485019 -0.50780672 -0.70904374 144 126 137
0.00074497168 -0.50953662 -0.70960867 152 132 145
0.0013985666 -0.50688213 -0.70865685 145 131 141
0.0013100612 -0.5091415 -0.70951182 148 127 140
-0.0015018499 -0.5072965 -0.70835209 147 124 138
-2.0718086e-05 -0.50723863 -0.70860261 149 134 145
-0.0013657734 -0.50817025 -0.70879179 155 138 151
-0.00098979392 -0.50780195 -0.70868772 152 135 148
-0.001736038 -0.50878567 -0.70901406 160 144 157
-0.0012113053 -0.50845087 -0.7089538 158 143 155
0.0030602212 -0.50627136 -0.70860982 115 99 112
0.0028109555 -0.50644046 -0.70864445 121 105 117
-0.017581355 -0.51261628 -0.70754802 150 135 154
-0.015014711 -0.51234567 -0.70791829 154 140 157
-0.014422376 -0.51195073 -0.70784384 153 140 157
-0.013849562 -0.51342386 -0.70862228 158 143 162
-0.014340267 -0.51305389 -0.70836437 156 142 160
-0.015130882 -0.51312774 -0.70825589 156 141 159
-0.017480072 -0.51319355 -0.70785093 153 138 156
-0.017494924 -0.51294857 -0.70772809 151 137 155
-0.012907749 -0.51178938 -0.70805633 153 138 157
-0.01364574 -0.51354676 -0.7087158 158 143 162
-0.012924714 -0.51137906 -0.70786482 152 137 155
-0.011575612 -0.51088095 -0.70790285 151 132 153
-0.013021727 -0.512824 -0.70850772 156 140 160
-0.0097803194 -0.51281089 -0.70913208 159 145 169
-0.011115763 -0.51265734 -0.70880264 157 141 164
-0.0099895541 -0.51241499 -0.708911 157 142 166
-0.011972327 -0.5126788 -0.70864588 156 140 161
-0.012234958 -0.51272237 -0.70861477 156 140 161
-0.010227841 -0.5118112 -0.70858973 155 137 161
-0.0078897681 -0.51285928 -0.7095471 167 156 179
-0.0073989118 -0.5125224 -0.7094909 168 157 179
-0.0081083346 -0.51307881 -0.70960647 167 157 179
-0.0075877281 -0.51345891 -0.70991123 171 163 183
-0.0073400205 -0.51265323 -0.7095688 169 158 180
-0.0065910276 -0.51174194 -0.70928681 168 156 179
-0.0081402687 -0.51086944 -0.70855308 158 141 166
-0.0097310394 -0.50985342 -0.70779431 148 125 150
-0.0067296457 -0.50997156 -0.70840663 160 143 168
-0.0097294087 -0.51050276 -0.70809036 150 130 154
-0.0094549796 -0.51034427 -0.70806926 151 130 155
-0.0073466003 -0.51029378 -0.70843858 159 142 167
-0.0042522317 -0.51320231 -0.7104646 177 171 188
-0.0023974888 -0.51191682 -0.71023434 173 163 179
-0.0028835232 -0.51189709 -0.71015126 173 165 180
-0.004271186 -0.51247376 -0.71016866 176 169 185
-0.0026284559 -0.51276881 -0.71054137 175 166 183
-0.0022328331 -0.51040483 -0.70965171 170 160 172
-0.0034816852 -0.51040381 -0.70937628 169 158 173
-0.0048217434 -0.5115115 -0.70959318 172 162 180
-0.0032622251 -0.51097691 -0.70971358 172 163 176
-0.0056152856 -0.51024789 -0.7087732 165 151 174
-0.0055875853 -0.51017863 -0.70874584 165 150 174
-0.0034202714 -0.51118749 -0.70977861 172 164 177
0.001819193 -0.51254708 -0.71096474 164 151 154
0.0015517344 -0.51201284 -0.71070999 160 145 152
0.00076261722 -0.51142997 -0.71037573 157 139 153
0.0015381561 -0.51201749 -0.71071047 161 145 152
0.0018730595 -0.51185858 -0.71068168 159 143 149
0.0004587931 -0.51007879 -0.7097947 154 135 149
0.00024994079 -0.51121569 -0.71023202 158 139 156
0.0014065152 -0.50981838 -0.70978069 148 125 139
-0.0012344227 -0.51234543 -0.71054423 169 156 174
9.1314636e-05 -0.51019037 -0.70980442 157 139 153
0.00084607193 -0.5106957 -0.71007991 153 132 148
0.0021685911 -0.51019335 -0.71002054 142 118 132
-0.025512224 -0.51718229 -0.70779061 127 113 135
-0.023832712 -0.51703721 -0.70816392 134 120 143
-0.022710528 -0.5174216 -0.70866364 134 121 147
-0.021822104 -0.51705039 -0.70872426 138 125 151
-0.024429105 -0.51734126 -0.70815045 131 117 139
-0.022561096 -0.51708388 -0.70853734 136 123 148
-0.022623157 -0.51497686 -0.70748103 146 133 153
-0.024701267 -0.51638544 -0.70761639 132 118 139
-0.021440718 -0.51427901 -0.70745313 154 141 160
-0.020378247 -0.51446939 -0.70779908 153 140 158
-0.018195521 -0.51372814 -0.70794702 155 140 158
-0.019263582 -0.51437551 -0.70801574 152 138 158
-0.019889621 -0.51402789 -0.7076956 155 142 159
-0.017958043 -0.51451468 -0.7083804 151 137 158
-0.018120287 -0.51495296 -0.70855182 150 136 158
-0.017987387 -0.51680255 -0.70944619 144 134 160
-0.018167133 -0.51486784 -0.70850217 150 136 157
-0.018939998 -0.51645869 -0.70908606 143 131 157
-0.019841991 -0.51695043 -0.70912802 140 128 155
-0.013993071 -0.51597255 -0.70976472 162 151 174
-0.014301753 -0.51517093 -0.70934671 158 145 167
-0.015373652 -0.5156219 -0.70937234 152 140 164
-0.015078301 -0.51646119 -0.70980543 156 146 170
-0.014442638 -0.51568389 -0.70955724 158 147 169
-0.015093441 -0.51702964 -0.71006244 157 148 173
-0.014544208 -0.51386809 -0.70870292 157 142 162
-0.01673496 -0.51454794 -0.7086271 153 139 160
-0.016812686 -0.51623493 -0.70940351 147 136 162
-0.016019689 -0.51383299 -0.70842087 156 141 160
-0.015455502 -0.51381171 -0.70851249 156 141 160
-0.015822725 -0.51575327 -0.70935601 150 138 162
-0.010446665 -0.51713526 -0.71100128 174 163 186
-0.010302774 -0.51435214 -0.70973462 164 152 176
-0.011100235 -0.51596862 -0.71032524 168 157 181
-0.012401315 -0.51743799 -0.71074504 170 161 185
-0.013158767 -0.5173828 -0.71056539 168 160 184
-0.013194288 -0.51731968 -0.71052873 168 159 184
-0.012047748 -0.51403666 -0.70925015 161 148 170
-0.010794584 -0.51422721 -0.70958072 163 151 174
-0.012662132 -0.51378423 -0.70901549 160 146 166
-0.011787034 -0.51472831 -0.70961672 163 151 174
-0.013642678 -0.51664591 -0.710132 165 156 179
-0.011388963 -0.51440632 -0.70954704 163 151 174
-0.0081067039 -0.51563686 -0.71084648 176 167 188
-0.0068413857 -0.51585418 -0.71125621 182 175 193
-0.0097448165 -0.51465583 -0.70999026 166 154 178
-0.0097135417 -0.5175004 -0.71132237 178 166 189
-0.009718623 -0.51723355 -0.7111969 176 165 188
-0.0087889601 -0.51456201 -0.71017963 170 159 181
-0.0059124385 -0.51472729 -0.71092761 182 177 194
-0.0089469608 -0.51398849 -0.70987141 167 156 179
-0.0049343472 -0.51502085 -0.71122193 182 176 193
-0.0055436948 -0.51517767 -0.71121335 183 178 194
-0.0037322948 -0.5139991 -0.71088129 178 171 190
-0.0017193432 -0.51399994 -0.71118307 176 166 185
-0.034816042 -0.52050197 -0.70743006 136 124 139
-0.033363476 -0.52126688 -0.70819813 137 127 147
-0.036004934 -0.52118558 -0.70750296 133 120 133
-0.03185397 -0.52125239 -0.70842928 135 124 146
-0.030626133 -0.52132767 -0.70862156 134 121 144
-0.029600568 -0.52083606 -0.70854229 131 118 142
-0.03223611 -0.52130127 -0.70840073 136 125 146
-0.031634621 -0.52083606 -0.70827776 134 122 145
-0.03234648 -0.51957852 -0.70752013 136 126 146
-0.031538047 -0.51996756 -0.70790476 132 120 144
-0.030748481 -0.51918191 -0.70765609 129 117 142
-0.029032178 -0.51854908 -0.70764834 125 112 140
-0.027024018 -0.51842386 -0.70802075 127 114 137
-0.026152015 -0.51821095 -0.7081148 128 114 136
-0.028796174 -0.51988888 -0.70827729 129 115 140
-0.027701471 -0.51980793 -0.70847619 130 116 139
-0.027724996 -0.5201503 -0.70863616 131 117 140
-0.02803125 -0.52085847 -0.7089057 133 119 141
-0.027047263 -0.51990426 -0.70870423 131 118 139
-0.027551752 -0.52138484 -0.7093063 134 122 143
-0.027353074 -0.52092016 -0.70912874 134 121 142
-0.027626881 -0.52094471 -0.70906359 133 120 142
-0.022462975 -0.51923174 -0.70959586 136 123 148
-0.021879975 -0.51845461 -0.7093786 136 123 150
-0.022562243 -0.51996154 -0.70989323 136 123 147
-0.022281529 -0.51996952 -0.7099551 136 122 147
-0.021798993 -0.51843792 -0.70938814 136 122 150
-0.022129744 -0.51886076 -0.70950359 136 123 149
-0.025028251 -0.51931745 -0.70897788 133 121 140
-0.022774646 -0.51826966 -0.70907152 135 122 147
-0.022142448 -0.51793844 -0.70907897 135 122 149
-0.024663083 -0.51967686 -0.70925927 134 123 143
-0.022102602 -0.5181334 -0.70918804 136 123 150
-0.023754023 -0.51956809 -0.70945495 136 124 146
-0.020529483 -0.52146947 -0.71098882 136 120 149
-0.018343754 -0.52031153 -0.7109524 140 124 158
-0.01845273 -0.51961154 -0.71061385 140 126 158
-0.018219471 -0.51980162 -0.71075106 140 126 159
-0.017610984 -0.51994282 -0.71094966 141 125 161
-0.018307898 -0.51874542 -0.71025705 141 129 159
-0.02117387 -0.51944089 -0.70995551 136 122 150
-0.020612244 -0.52006274 -0.71034378 137 123 150
-0.020274116 -0.51923704 -0.71005464 138 125 152
-0.020676367 -0.51953751 -0.71010154 137 123 151
-0.019245528 -0.51785302 -0.70966655 140 129 157
-0.021330882 -0.52032518 -0.71030802 136 121 148
-0.014626715 -0.5194279 -0.71127069 159 148 179
-0.017197432 -0.51850104 -0.71037978 144 133 164
-0.014952302 -0.51914799 -0.71108484 157 147 177
-0.014218988 -0.51904202 -0.7111727 161 152 181
-0.014265059 -0.51901001 -0.71114981 161 152 181
-0.014332184 -0.51886106 -0.71106917 161 152 181
-0.01588643 -0.51813352 -0.71045148 152 143 172
-0.015076932 -0.51761097 -0.71033186 158 150 177
-0.013533906 -0.51847351 -0.71101844 166 157 185
-0.013015681 -0.51758087 -0.71068656 169 161 185
-0.01295261 -0.5188542 -0.71132284 167 157 185
-0.045339577 -0.52534515 -0.70782852 126 111 135
-0.042588279 -0.52402717 -0.7076956 132 118 137
-0.042120133 -0.5242933 -0.70794177 132 118 137
-0.041494764 -0.52537441 -0.70866519 131 116 134
-0.041257933 -0.52449334 -0.70823753 133 118 135
-0.044678714 -0.52508461 -0.70782375 128 113 137
-0.037327569 -0.52436399 -0.70895606 126 110 126
-0.038588252 -0.52522737 -0.70918173 127 111 129
-0.038414948 -0.52499551 -0.70908743 127 111 128
-0.037809033 -0.52309543 -0.70814848 129 114 128
-0.037133098 -0.52308345 -0.70827967 127 112 127
-0.037636936 -0.52353829 -0.70843124 127 113 128
-0.040860906 -0.52397889 -0.70803952 134 119 136
-0.03935241 -0.52257037 -0.70755839 133 119 133
-0.040284164 -0.52278531 -0.70749938 135 121 136
-0.040070321 -0.5236119 -0.70798922 133 118 134
-0.03558303 -0.52365774 -0.70898235 129 116 134
-0.036421563 -0.5216049 -0.70762765 131 118 131
-0.036757212 -0.52223271 -0.70789587 130 115 129
-0.036772411 -0.52429503 -0.70904523 126 111 128
-0.036413323 -0.52249044 -0.70812476 130 116 131
-0.036035206 -0.5219214 -0.70789993 131 118 133
-0.034875315 -0.52413309 -0.70936728 130 118 136
-0.033219039 -0.52150923 -0.70836359 137 127 147
-0.035013873 -0.52404648 -0.70929748 130 117 136
-0.035279036 -0.52458346 -0.70951688 129 116 133
-0.033970173 -0.52308261 -0.70901144 134 123 141
-0.033559605 -0.52430367 -0.70970297 133 123 140
-0.031091351 -0.52538639 -0.71054888 129 116 135
-0.031311221 -0.52515346 -0.71041191 130 117 136
-0.030212428 -0.52316397 -0.70957237 131 118 139
-0.032012314 -0.524728 -0.71012861 132 120 138
-0.03227181 -0.5249781 -0.71022075 132 120 138
-0.031712431 -0.52400428 -0.70981216 132 121 140
-0.032397997 -0.52442688 -0.70993733 133 122 140
-0.033094071 -0.52293879 -0.70909905 135 125 144
-0.030939013 -0.52229375 -0.7090553 134 121 143
-0.030201886 -0.52221984 -0.70911402 133 120 142
-0.031449463 -0.52340412 -0.7095468 133 121 141
-0.031392667 -0.52324629 -0.70947486 133 121 141
-0.026984379 -0.52491194 -0.71113193 127 114 134
-0.026934166 -0.52429861 -0.71086335 129 116 135
-0.027387178 -0.52447903 -0.71082824 128 115 135
-0.027787192 -0.52496904 -0.71094978 127 113 133
-0.025723115 -0.52261823 -0.71040446 134 123 140
-0.027638171 -0.52406675 -0.71057242 130 117 136
-0.027648054 -0.5232904 -0.7102018 132 119 138
-0.027620252 -0.52361149 -0.71036482 131 118 137
-0.027932897 -0.52205545 -0.70952439 133 120 141
-0.027877478 -0.52273279 -0.70986736 132 119 139
-0.027228374 -0.52235061 -0.70986646 134 121 141
-0.027618995 -0.52336287 -0.71024501 132 119 138
-0.027999902 -0.52396911 -0.71043015 130 116 136
-0.025189787 -0.52383119 -0.7110979 130 119 137
-0.025152341 -0.52335203 -0.71088558 131 121 139
-0.021817835 -0.52258074 -0.71130937 133 117 144
-0.024704479 -0.52304399 -0.71084821 132 121 140
-0.025059465 -0.52395868 -0.71118718 129 118 137
-0.02511801 -0.52154058 -0.71005672 137 127 144
-0.022135878 -0.52173245 -0.71078569 135 120 145
-0.020347703 -0.5215919 -0.71109742 136 119 149
-0.05790009 -0.52855825 -0.70761484 119 100 120
-0.052774146 -0.52716291 -0.70756263 118 99 121
-0.053705856 -0.52761316 -0.70769268 118 100 122
-0.053997573 -0.52864218 -0.70817012 119 101 121
-0.0532175 -0.52708584 -0.70747805 118 99 122
-0.05643608 -0.52786583 -0.70749938 120 103 124
-0.049859878 -0.52747035 -0.70810628 117 99 119
-0.049708765 -0.52674848 -0.70775557 119 102 121
-0.05206506 -0.5290491 -0.70858908 118 100 119
-0.049050007 -0.52662802 -0.70779306 117 100 120
-0.052371725 -0.5275985 -0.70782745 118 100 121
-0.049521949 -0.52618057 -0.70749718 119 103 122
-0.049917974 -0.52663565 -0.70766997 119 103 122
-0.047961961 -0.52617526 -0.70775771 119 103 124
-0.04673953 -0.5257225 -0.70775628 122 107 130
-0.046884485 -0.5270831 -0.70843267 117 100 123
-0.045905009 -0.52574575 -0.70792735 124 108 132
-0.047685642 -0.52695304 -0.70821279 116 99 121
-0.046289623 -0.52734584 -0.70865446 116 99 122
-0.0414185 -0.52626967 -0.7091074 125 110 128
-0.041230123 -0.52564251 -0.7088502 130 115 132
-0.044913523 -0.52690512 -0.70864528 118 103 125
-0.043157641 -0.52726614 -0.70919597 118 104 121
-0.044532154 -0.52613395 -0.70836514 123 108 131
-0.04192625 -0.52630067 -0.70900875 125 110 127
-0.044053886 -0.52616614 -0.70848405 123 108 130
-0.040074434 -0.5261296 -0.70932257 124 109 128
-0.039767373 -0.52690083 -0.70975322 119 102 123
-0.039335757 -0.52709532 -0.70993412 116 100 121
-0.038672809 -0.52625948 -0.70967048 121 105 124
-0.0380648 -0.52594316 -0.70964348 122 106 125
-0.035823014 -0.52845788 -0.71121329 118 104 125
-0.035164163 -0.52820247 -0.71124357 119 107 127
-0.034749653 -0.5272882 -0.7108891 124 111 130
-0.033376683 -0.52695715 -0.71105182 125 116 133
-0.035625849 -0.52664596 -0.7104184 124 110 129
-0.035987198 -0.52776843 -0.71085209 121 106 126
-0.035104394 -0.52575171 -0.71011728 127 114 132
-0.035732303 -0.5272631 -0.71067441 122 108 128
-0.034880836 -0.52679396 -0.71062613 125 112 131
-0.034061205 -0.52577484 -0.71032578 130 118 135
-0.03212275 -0.5258407 -0.71067834 128 117 135
-0.032167733 -0.52576292 -0.71063399 129 117 135
-0.031483248 -0.52628595 -0.71098089 125 112 132
-0.031706892 -0.52553046 -0.7105611 129 117 135
-0.031710092 -0.52568716 -0.71064872 128 116 135
-0.029169666 -0.52549464 -0.710841 126 110 131
-0.056613978 -0.5296523 -0.70839161 117 101 121
-0.0026477622 -0.53286022 -0.71934539 167 156 180
2.2777822e-06 -0.53251839 -0.71947825 166 160 172
-0.0012218311 -0.53319186 -0.71964383 168 160 179
0.0015681768 -0.53296316 -0.71981972 165 162 164
0.00044077449 -0.53171271 -0.71916848 166 160 169
0.0043512275 -0.53303558 -0.72021043 126 102 111
0.0050306991 -0.53267187 -0.72014767 116 86 97
0.0044599678 -0.53263289 -0.72005445 125 100 110
0.0053106989 -0.53094685 -0.71945447 112 83 97
0.0056543769 -0.53134614 -0.71966982 106 73 88
0.0035251568 -0.53096831 -0.71922362 140 125 132
0.003700675 -0.53161818 -0.71952254 137 122 129
0.0027362939 -0.53145826 -0.71932518 152 143 147
0.0072335079 -0.53129822 -0.71981961 89 58 67
0.0059363302 -0.53165287 -0.71983528 102 67 81
0.0064112693 -0.53235972 -0.72018403 97 61 74
0.0068004997 -0.53176266 -0.71997148 93 60 71
0.007223024 -0.53316277 -0.72058386 90 58 68
-0.014824659 -0.53704613 -0.7195605 169 157 174
-0.015645456 -0.53663373 -0.7192151 168 155 176
-0.010875013 -0.53546816 -0.7195698 167 156 175
-0.010884209 -0.53702778 -0.7201916 167 155 173
-0.012091531 -0.53688252 -0.71994692 168 156 173
-0.010491692 -0.53562015 -0.71968979 166 156 175
-0.010435563 -0.53644019 -0.7200262 167 155 174
-0.012048763 -0.53522027 -0.71923709 166 154 174
-0.013227623 -0.53649116 -0.71959156 168 156 172
-0.0092455568 -0.5343293 -0.71932977 165 154 176
-0.0085586868 -0.53378993 -0.71917182 163 152 174
-0.0083229458 -0.53470868 -0.71955872 163 151 173
-0.0082796533 -0.53529525 -0.71979672 163 150 172
-0.0095615471 -0.53470784 -0.71945459 165 155 176
-0.0065645589 -0.53594404 -0.72031844 163 150 173
-0.006748775 -0.53509367 -0.71990228 162 148 171
-0.0075605535 -0.53593946 -0.72017461 164 151 173
-0.0063822023 -0.53449583 -0.71968031 160 146 171
-0.009101605 -0.53673673 -0.72032088 166 153 173
-0.0076910062 -0.53706336 -0.72067136 166 154 174
-0.0029645343 -0.53668779 -0.7210269 172 162 181
-0.0034975663 -0.53607225 -0.72070682 170 159 180
-0.002508187 -0.53665423 -0.721053 173 163 182
-0.0043410752 -0.53587109 -0.72054207 167 156 178
-0.0039101243 -0.53621227 -0.72073162 169 158 179
-0.0021636526 -0.53430575 -0.72004563 170 161 182
-0.0054897624 -0.53464276 -0.71986139 161 148 172
-0.0028181237 -0.53397524 -0.71983916 168 158 181
-0.0048704119 -0.53603053 -0.72056347 166 155 177
-0.0052094571 -0.53633821 -0.72066855 166 154 176
-0.0053942227 -0.53372401 -0.71945029 160 146 171
-0.0037397514 -0.53405195 -0.71977645 165 154 178
-0.0014159926 -0.5369432 -0.72129983 173 164 180
0.00093094865 -0.53516304 -0.72076768 166 160 168
0.0015554798 -0.53481913 -0.7206893 164 159 165
0.00085529359 -0.53601146 -0.72117001 165 158 168
-0.00055867271 -0.5370456 -0.72147197 170 160 175
0.00032685802 -0.53510147 -0.72065151 169 163 171
-0.00018912705 -0.53514028 -0.72060603 170 164 173
0.00039152568 -0.53356171 -0.71996492 167 162 170
0.00017933268 -0.53461057 -0.72040784 169 163 172
0.00018126681 -0.53349358 -0.7199142 167 162 172
-0.001773804 -0.53412622 -0.72000271 170 161 182
0.0043470766 -0.53576505 -0.72150981 122 96 110
0.0044313455 -0.53593129 -0.72159767 120 94 108
0.004667771 -0.53480983 -0.72109896 119 90 103
0.0028321836 -0.53704882 -0.72193539 144 130 143
0.003665624 -0.53709185 -0.72205287 130 111 124
0.0054086628 -0.53466594 -0.72111797 107 72 87
0.0043506073 -0.53364921 -0.7204985 126 100 110
0.0036451169 -0.53404814 -0.72059798 136 117 126
0.0038148342 -0.53327703 -0.7202453 135 115 122
0.0047476012 -0.53408313 -0.72076321 119 89 102
0.0028754245 -0.53335834 -0.72015864 150 139 142
0.0034199036 -0.53460366 -0.72083825 139 121 131
0.0061470238 -0.53456116 -0.72114593 97 61 75
0.0068907002 -0.53360015 -0.72075832 92 59 70
-0.026481198 -0.54094684 -0.71942836 118 101 132
-0.02541142 -0.54099101 -0.71959376 121 104 137
-0.022718087 -0.53974724 -0.71937561 137 124 154
-0.022117512 -0.54039955 -0.7198236 135 123 151
-0.021999188 -0.53960109 -0.71941692 141 128 158
-0.025031742 -0.54081315 -0.71956074 123 106 139
-0.018107608 -0.54092926 -0.72080356 139 127 155
-0.020070989 -0.54079252 -0.72039896 137 126 152
-0.018115647 -0.53904456 -0.71992207 154 142 167
-0.019295713 -0.54056662 -0.72042799 140 129 155
-0.020536445 -0.54054838 -0.72020411 138 127 153
-0.020433312 -0.53983152 -0.71987718 144 133 158
-0.019390596 -0.53800303 -0.7191506 159 146 173
-0.019434597 -0.53823441 -0.71926361 157 145 171
-0.019270983 -0.53796345 -0.71915811 159 147 173
-0.017226009 -0.53873134 -0.71992946 157 145 170
-0.015589814 -0.53721029 -0.71950471 168 156 175
-0.017311206 -0.54073709 -0.72085232 141 130 157
-0.016989306 -0.5375129 -0.71940118 166 154 177
-0.015015468 -0.53728849 -0.71964175 167 155 174
-0.015210674 -0.54027379 -0.7210663 146 134 156
-0.015748747 -0.53957045 -0.72059524 150 139 161
-0.01621462 -0.54080421 -0.72112024 141 130 155
-0.014825439 -0.53883606 -0.72042084 156 144 164
-0.014296646 -0.53813165 -0.72017729 161 149 167
-0.0097755603 -0.53779197 -0.7207039 161 148 168
-0.011116858 -0.53712779 -0.72019762 167 155 173
-0.010557234 -0.53757083 -0.72050846 164 152 170
-0.013132492 -0.53872043 -0.72069228 158 146 163
-0.013582793 -0.53865266 -0.72058833 158 146 163
-0.013289769 -0.53843641 -0.72052413 159 147 164
-0.012930535 -0.53820688 -0.72046351 161 149 166
-0.0058820536 -0.53815168 -0.72139198 157 146 167
-0.0089842109 -0.53804904 -0.72093195 158 146 166
-0.0068974951 -0.53789556 -0.72115976 159 147 168
-0.0087028909 -0.537422 -0.72068936 164 151 171
-0.0078508435 -0.53724211 -0.72072953 165 153 173
-0.0023810912 -0.53741646 -0.72139573 172 162 179
-0.0054634903 -0.53742808 -0.72112364 164 152 174
-0.0039020819 -0.53715229 -0.72114718 170 159 179
-0.0047957003 -0.53763044 -0.72126943 164 153 173
-0.003898904 -0.53807145 -0.72153682 162 153 172
0.00021712214 -0.53716993 -0.72164482 165 156 170
-0.00076812017 -0.53729111 -0.72156674 168 158 173
0.0016019632 -0.53727067 -0.72189415 158 149 161
0.00074127445 -0.53716946 -0.72171932 163 154 168
0.003380236 -0.53902423 -0.72302389 111 93 103
0.0033344412 -0.53830051 -0.7226457 122 106 117
0.0040250318 -0.53854543 -0.72285742 109 89 100
0.0041627241 -0.53798163 -0.72258425 115 95 108
0.0045209182 -0.53786713 -0.72256678 111 88 101
-0.025832439 -0.54142922 -0.7197485 120 103 134
-0.025777046 -0.5413025 -0.71969497 120 103 134
-0.025492154 -0.54127264 -0.71972114 121 104 136
-0.025669495 -0.54169863 -0.71990579 121 104 134
-0.022752667 -0.54313695 -0.72110236 132 120 139
-0.024048518 -0.543899 -0.72126186 130 118 134
-0.024083167 -0.54445231 -0.72153288 130 118 133
-0.021764202 -0.54454166 -0.72197461 133 121 137
-0.023256728 -0.54347384 -0.72118467 131 120 137
-0.02311877 -0.54421467 -0.72157902 131 120 135
-0.024504142 -0.54109919 -0.71979749 124 108 139
-0.023108846 -0.54184449 -0.72039849 130 117 142
-0.02400885 -0.54195851 -0.7203055 127 113 139
-0.0228817 -0.5411936 -0.72011381 129 116 144
-0.024325754 -0.54283065 -0.72068489 127 115 136
-0.024023239 -0.54191095 -0.72027957 127 113 139
-0.020069666 -0.54362088 -0.72180581 135 123 142
-0.018853964 -0.54320669 -0.72179949 132 120 141
-0.018707067 -0.54320282 -0.72182131 132 119 140
-0.01905458 -0.54305971 -0.72169548 134 122 143
-0.018910203 -0.54324329 -0.72180831 132 120 141
-0.019213935 -0.54346442 -0.72186726 132 120 140
-0.02050467 -0.54217231 -0.72100669 135 123 147
-0.019393543 -0.54220146 -0.72121418 136 125 149
-0.02001234 -0.54280478 -0.72140872 135 124 146
-0.020390337 -0.54351044 -0.72169632 135 123 143
-0.020200243 -0.54325223 -0.72160012 135 124 144
-0.019704601 -0.5426659 -0.72139263 136 124 147
-0.016507495 -0.54159093 -0.72144544 137 125 149
-0.016941011 -0.54171687 -0.72141415 136 124 148
-0.017025182 -0.54170924 -0.72139245 136 124 148
-0.021868687 -0.54564136 -0.72248721 129 117 132
-0.022159744 -0.54521501 -0.72223586 131 119 133
-0.043929193 -0.49209043 -0.69228816 145 125 148
-0.044574898 -0.49226367 -0.69225311 143 122 149
-0.044383265 -0.49280846 -0.69250166 141 121 145
-0.043925084 -0.49316671 -0.69272226 139 121 141
-0.050551131 -0.49768594 -0.69349635 147 130 149
-0.051314659 -0.49793723 -0.69347274 149 133 151
-0.051145624 -0.49739411 -0.69330078 149 130 151
-0.050058376 -0.49764955 -0.69355732 145 128 148
-0.045494165 -0.49694282 -0.69401461 127 110 124
-0.046451136 -0.49744606 -0.69405562 130 114 129
-0.047017489 -0.49682567 -0.69369698 136 120 138
-0.046601702 -0.49668261 -0.69371068 134 118 135
-0.048219722 -0.49776709 -0.69387752 138 124 141
-0.047100406 -0.49781775 -0.69409615 132 117 131
-0.047889173 -0.49506745 -0.69291914 141 118 144
-0.048520587 -0.49665433 -0.6934185 141 122 144
-0.048272349 -0.49610248 -0.69324833 141 121 144
-0.048323136 -0.49630722 -0.69331658 141 121 144
-0.048797909 -0.49764016 -0.69374281 141 125 145
-0.054098032 -0.49954981 -0.69381016 158 143 161
-0.053101275 -0.50019473 -0.69421089 152 138 154
-0.053217392 -0.50163633 -0.69483793 150 139 154
-0.055163555 -0.50090468 -0.69428974 161 148 165
-0.053946014 -0.50042266 -0.69421524 156 142 159
-0.054071404 -0.50129694 -0.69458926 155 143 159
-0.050231773 -0.50022811 -0.69465542 140 125 139
-0.048875526 -0.4983339 -0.69401067 140 125 142
-0.048917767 -0.4987022 -0.69417244 138 123 139
-0.050666299 -0.50126666 -0.69505984 138 122 134
-0.049682453 -0.49899125 -0.69417906 142 128 145
-0.052491982 -0.50181574 -0.6950109 147 135 149
-0.050364748 -0.49834973 -0.69379014 145 130 148
-0.051442266 -0.49996418 -0.69434506 146 133 149
-0.052390948 -0.4987081 -0.69364429 152 136 153
-0.052688107 -0.50131619 -0.69475806 148 136 151
-0.052638825 -0.5018121 -0.69498575 147 136 150
-0.051075183 -0.49988735 -0.69436616 145 132 148
-0.048635982 -0.49839333 -0.69407958 138 123 140
-0.057372194 -0.50422323 -0.6955741 149 136 155
-0.057892576 -0.50436693 -0.69558179 147 133 153
-0.052974664 -0.50344539 -0.69569033 146 132 146
-0.055106424 -0.50382876 -0.69563127 150 137 152
-0.05617442 -0.50287575 -0.695068 159 147 164
-0.055092908 -0.5030421 -0.69526619 155 142 158
-0.053163193 -0.50227761 -0.69513333 149 137 152
-0.052765734 -0.5030719 -0.6955424 146 133 147
-0.052766602 -0.50205398 -0.69507647 148 136 150
-0.052275132 -0.50283724 -0.69551384 144 129 142
-0.0023443874 -0.49801087 -0.70429921 134 113 129
-0.0025874616 -0.49675572 -0.70377207 140 120 134
-0.0033341846 -0.49729452 -0.70382887 137 116 131
-0.0034340201 -0.49746013 -0.7038722 136 115 131
-0.0014294668 -0.49672925 -0.70396054 133 112 126
-0.0015650515 -0.49725077 -0.70414072 133 112 126
-0.0008645287 -0.49548328 -0.70356309 131 110 122
-0.011591845 -0.5015645 -0.70381504 149 125 141
-0.011198448 -0.50077516 -0.70360845 147 123 137
-0.010663278 -0.50187969 -0.70409769 151 128 142
-0.008436108 -0.49967557 -0.70372301 143 119 132
-0.0086834058 -0.50025028 -0.70388168 145 122 135
-0.0072791576 -0.49862364 -0.70355922 137 114 127
-0.0077493903 -0.49987122 -0.70391661 141 119 133
-0.0076729008 -0.50013626 -0.70403385 142 120 134
-0.0076325415 -0.50144309 -0.70454943 148 125 139
-0.0067382455 -0.50153142 -0.70477563 147 124 138
-0.0081344629 -0.50168711 -0.70453626 149 126 140
-0.0074256142 -0.50050032 -0.70422816 144 121 135
-0.004629591 -0.50092071 -0.70497966 144 121 136
-0.0030833427 -0.50107729 -0.70541024 140 120 132
-0.0035682523 -0.50028616 -0.70496047 140 119 133
-0.0040455256 -0.50119901 -0.7052353 142 121 134
-0.0049101063 -0.50105119 -0.70496899 144 122 136
-0.0031119208 -0.49934456 -0.70466846 138 117 132
-0.0056170654 -0.50092441 -0.70477724 143 121 135
-0.0030581921 -0.49874356 -0.70444107 137 115 131
-0.0054945038 -0.5015552 -0.7050463 146 123 138
-0.0044254689 -0.49867716 -0.70414293 135 113 129
-0.0048603462 -0.5005089 -0.70476681 142 120 135
-0.0032661855 -0.49932984 -0.70462704 139 117 132
-0.00073257391 -0.50096995 -0.70587569 124 102 114
-0.00077215885 -0.50146323 -0.70609474 128 108 117
0.00010793679 -0.49990249 -0.70557636 111 84 100
-0.00081626652 -0.50169796 -0.70619315 130 111 119
-0.001903263 -0.49929598 -0.70493042 135 115 129
-0.0017836199 -0.49871844 -0.70470852 133 112 127
-0.00011416897 -0.49956638 -0.70539057 113 87 103
-0.0016250252 -0.5014295 -0.70588928 133 114 125
-0.00020478794 -0.49903157 -0.70514613 114 88 104
0.0038167818 -0.5015949 -0.70702207 86 69 74
-0.017981408 -0.50471824 -0.7038945 138 122 137
-0.018153695 -0.50409621 -0.70356554 136 119 134
-0.019266116 -0.50577587 -0.70403409 130 111 130
-0.017942546 -0.50400013 -0.70357794 137 121 136
-0.016181722 -0.50329566 -0.70364952 142 123 140
-0.017507682 -0.50422263 -0.70379102 140 125 139
-0.015457038 -0.50276726 -0.70356226 143 123 141
-0.015543113 -0.50479472 -0.70446336 143 124 143
-0.01375735 -0.50372386 -0.70435095 143 120 143
-0.015874533 -0.50512248 -0.70454252 143 124 142
-0.015525701 -0.50489855 -0.70451385 143 123 143
-0.01527585 -0.50410384 -0.70420694 144 124 143
-0.017152036 -0.50561631 -0.70449996 143 127 142
-0.010471458 -0.50388765 -0.70497066 151 131 146
-0.011320204 -0.50553447 -0.70551765 149 131 149
-0.0098588504 -0.50287759 -0.70464748 153 132 145
-0.012692981 -0.505539 -0.70533568 143 123 145
-0.010897172 -0.50404805 -0.70497805 149 129 146
-0.010082101 -0.5037899 -0.70498359 153 133 147
-0.013322728 -0.50431037 -0.70469803 143 120 143
-0.013176253 -0.50365871 -0.7044307 144 121 143
-0.011349414 -0.50204432 -0.70403838 150 127 143
-0.012046886 -0.50302905 -0.70435452 147 124 143
-0.013049189 -0.50485432 -0.70499408 142 120 143
-0.010373507 -0.50230259 -0.70433491 151 128 143
-0.006596067 -0.50507843 -0.70618325 149 131 143
-0.0066305511 -0.50301051 -0.70538175 149 128 142
-0.0072412947 -0.50522274 -0.70611101 150 133 145
-0.0060919761 -0.50529844 -0.70636749 148 129 141
-0.0072040586 -0.50579578 -0.70633858 150 134 145
-0.0082218293 -0.5043326 -0.70557493 152 135 148
-0.0065667867 -0.50229877 -0.70511478 149 126 140
-0.0091123739 -0.50380754 -0.70517343 153 134 148
-0.0093922112 -0.50369197 -0.70506692 153 134 147
-0.0075214887 -0.50262469 -0.70504045 150 129 142
-0.0093494365 -0.50467509 -0.7054705 154 137 150
-0.0026447063 -0.50578982 -0.70738834 136 104 121
-0.002618419 -0.50485468 -0.7070294 137 110 124
-0.0019784609 -0.50335771 -0.70659608 136 112 125
-0.0031553525 -0.50378102 -0.70647371 140 119 131
-0.0028139704 -0.50460666 -0.70688343 138 112 126
-0.0025990144 -0.50271028 -0.70618796 139 121 131
-0.0031790901 -0.50233549 -0.70590615 141 122 133
-0.003801987 -0.50332534 -0.70613986 142 124 134
-0.0037010186 -0.50262684 -0.70589519 142 123 134
-0.0058438564 -0.50519568 -0.70637769 147 129 140
-0.0050348788 -0.50372338 -0.70600241 145 126 138
-0.0039265589 -0.50340092 -0.70613956 143 124 135
-0.0018795549 -0.50453633 -0.70708328 134 106 121
-0.0007770377 -0.50403726 -0.70712507 132 107 119
-0.000374361 -0.50312543 -0.70685238 132 112 120
-0.0015071742 -0.50349116 -0.70675147 135 111 123
-0.001651925 -0.50474298 -0.70721412 133 105 120
0.00024666847 -0.50243425 -0.70672601 130 112 117
0.00011532486 -0.50209779 -0.70657754 129 111 114
0.0023934355 -0.50309265 -0.70740622 117 100 104
0.0028086053 -0.50261229 -0.70728868 107 89 94
-0.026324905 -0.50902873 -0.70372361 126 108 129
-0.025678916 -0.50954837 -0.70415401 126 108 129
-0.024250999 -0.50933629 -0.70443428 126 107 128
-0.021879714 -0.5082047 -0.70451689 124 105 127
-0.023184245 -0.50918043 -0.70464325 127 109 130
-0.022116892 -0.50898153 -0.70483142 128 110 130
-0.022730041 -0.50937605 -0.70485967 128 111 131
-0.022757504 -0.5095759 -0.70494956 129 112 132
-0.023754237 -0.50771046 -0.70377606 121 100 123
-0.022484075 -0.50653511 -0.70354342 117 94 120
-0.025178732 -0.50800455 -0.70353889 125 105 128
-0.019188005 -0.50691867 -0.70460808 136 119 136
-0.018751629 -0.50651109 -0.70452595 137 121 137
-0.021374611 -0.50843972 -0.70476609 127 109 129
-0.018710501 -0.50618488 -0.70437819 136 119 136
-0.021239981 -0.50916618 -0.70515519 131 115 134
-0.019354613 -0.50587845 -0.70405787 129 111 130
-0.019702518 -0.50849652 -0.70520616 137 121 139
-0.020490121 -0.50884181 -0.70519251 135 119 137
-0.018365934 -0.50806946 -0.70529646 139 124 142
-0.018861804 -0.50748318 -0.70494789 139 124 140
-0.018784318 -0.50953984 -0.70583373 138 122 143
