ply
format ascii 1.0
comment PCL generated
element vertex 1048
property float x
property float y
property float z
property uchar red
property uchar green
property uchar blue
element camera 0
property float view_px
property float view_py
property float view_pz
property float x_axisx
property float x_axisy
property float x_axisz
property float y_axisx
property float y_axisy
property float y_axisz
property float z_axisx
property float z_axisy
property float z_axisz
property float focal
property float scalex
property float scaley
property float centerx
property float centery
property int viewportx
property int viewporty
property float k1
property float k2
end_header
-0.13596739 -0.62931728 -0.75764167 61 36 49
-0.13742606 -0.62939024 -0.75750548 60 36 49
-0.13827804 -0.62842655 -0.75637907 59 35 47
-0.13736472 -0.62876588 -0.75686496 60 36 47
-0.13514441 -0.62933147 -0.75779057 61 36 49
-0.13537619 -0.62817156 -0.75670594 60 36 49
-0.13620985 -0.62782472 -0.7561869 59 35 47
-0.13483977 -0.62894619 -0.75752753 61 36 49
-0.13528107 -0.62923509 -0.75767052 61 36 49
-0.13225739 -0.62876272 -0.75818849 65 41 57
-0.13363551 -0.62814695 -0.75720209 62 39 53
-0.13271755 -0.62840492 -0.75772458 64 40 55
-0.13210307 -0.62842482 -0.75793922 65 41 57
-0.13330753 -0.62812853 -0.75729108 63 39 54
-0.13126518 -0.62709862 -0.7567935 63 41 56
-0.13321902 -0.62717032 -0.756401 61 39 53
-0.1313502 -0.62723458 -0.75692487 63 41 56
-0.12937003 -0.62749678 -0.75788802 70 47 65
-0.13018288 -0.62737846 -0.75745475 66 44 61
-0.13072799 -0.62821692 -0.75819004 67 44 61
-0.16685578 -0.63119364 -0.75766146 95 60 62
-0.1660478 -0.63135004 -0.75758314 97 64 66
-0.16733688 -0.63131464 -0.75787216 97 60 62
-0.16361076 -0.63222826 -0.75794315 98 66 60
-0.1643537 -0.63222229 -0.75803286 101 69 65
-0.16330923 -0.63125527 -0.75710171 91 57 55
-0.16367215 -0.63113892 -0.75706255 90 57 56
-0.16250084 -0.63125873 -0.75697774 90 57 54
-0.16434008 -0.63144284 -0.75741845 93 59 58
-0.16109943 -0.63269925 -0.75806618 94 61 53
-0.16173398 -0.63159913 -0.75718254 90 57 52
-0.1620169 -0.6327967 -0.75818342 99 67 57
-0.15929072 -0.63175786 -0.7571876 81 49 48
-0.1591166 -0.6311596 -0.75665599 78 48 50
-0.15841877 -0.63273883 -0.75798529 81 49 44
-0.15882248 -0.63136548 -0.75681621 78 47 50
-0.15580554 -0.63264179 -0.75808835 75 43 45
-0.15590222 -0.63243926 -0.75790399 74 43 46
-0.15709314 -0.63165808 -0.75712436 75 44 49
-0.15566894 -0.63150364 -0.75703484 71 43 49
-0.15684293 -0.63134122 -0.75684983 73 44 50
-0.15563229 -0.63164741 -0.75718188 72 43 48
-0.15710236 -0.6313318 -0.75683588 74 44 50
-0.15415877 -0.63141781 -0.75697362 69 42 49
-0.15364346 -0.63235003 -0.75793588 71 42 48
-0.1541225 -0.63152528 -0.75708401 69 42 48
-0.15197462 -0.63254195 -0.75817227 72 44 52
-0.15175584 -0.63145101 -0.75717992 70 44 53
-0.15140165 -0.632016 -0.75766987 71 45 55
-0.15220973 -0.63151896 -0.75717807 70 44 53
-0.14805722 -0.63217551 -0.75817841 74 46 55
-0.14940053 -0.63123941 -0.75728947 71 45 54
-0.14931004 -0.63167495 -0.75764376 72 45 55
-0.14778672 -0.63096678 -0.75707752 70 45 54
-0.14664827 -0.63187385 -0.75807846 75 46 54
-0.1464306 -0.63185054 -0.75806683 75 46 54
-0.14627177 -0.63170576 -0.75793606 74 46 54
-0.14292161 -0.6313585 -0.75806236 70 42 50
-0.14596909 -0.6309343 -0.7571606 70 44 53
-0.18158139 -0.60742033 -0.75072384 103 76 78
-0.18175469 -0.60964584 -0.75125843 106 82 91
-0.181868 -0.60923404 -0.75123394 105 81 88
-0.18175927 -0.60803163 -0.75093389 104 78 81
-0.18226428 -0.6089806 -0.75138855 103 79 84
-0.18267833 -0.60827053 -0.75144881 100 76 78
-0.18079858 -0.61071897 -0.75110805 104 81 94
-0.17932461 -0.61115456 -0.75065619 97 75 90
-0.17929859 -0.61129826 -0.75067574 97 75 90
-0.1811941 -0.61020219 -0.75114828 105 81 93
-0.18013018 -0.61087626 -0.75089502 101 78 92
-0.18100142 -0.60767829 -0.75054532 101 74 78
-0.18355496 -0.61506134 -0.75397575 73 48 68
-0.18405657 -0.6128518 -0.75338185 88 67 76
-0.18283513 -0.61490011 -0.7535373 78 52 69
-0.18196444 -0.61515415 -0.75318098 81 52 69
-0.18360604 -0.6121406 -0.7528739 95 74 85
-0.18221159 -0.61294448 -0.75245857 95 71 86
-0.18250048 -0.61158705 -0.7520864 103 82 95
-0.18331784 -0.61263508 -0.75291443 93 71 82
-0.18391995 -0.61235821 -0.75312084 92 72 81
-0.18308423 -0.61338329 -0.7530809 89 65 77
-0.18383656 -0.61282581 -0.75325739 90 68 77
-0.17834562 -0.61155438 -0.75042439 92 70 84
-0.18086979 -0.61165696 -0.75138783 104 81 97
-0.17924668 -0.61246425 -0.75111228 93 69 84
-0.18005161 -0.61209643 -0.75126159 98 75 90
-0.17886052 -0.61211503 -0.75083572 92 69 83
-0.18083806 -0.61187923 -0.75146288 102 80 95
-0.18136047 -0.61174339 -0.75159925 105 83 98
-0.1805476 -0.61474812 -0.75246394 83 56 72
-0.18013474 -0.613581 -0.75186682 90 65 81
-0.18013547 -0.61287165 -0.75159413 95 72 87
-0.18116367 -0.61498415 -0.75277573 83 54 71
-0.18051469 -0.61498964 -0.75254512 82 53 70
-0.17765923 -0.61450762 -0.75133115 77 52 66
-0.1758779 -0.61520094 -0.75094235 74 51 63
-0.176506 -0.61320609 -0.75039703 82 60 72
-0.17596759 -0.6137805 -0.75042176 80 58 70
-0.18304689 -0.61533219 -0.75381893 74 48 68
-0.18244894 -0.61641675 -0.75396687 75 52 68
-0.18287286 -0.61546677 -0.75378519 75 49 68
-0.18156004 -0.61674887 -0.75366086 80 56 69
-0.17987803 -0.61847365 -0.75383615 89 69 76
-0.17936344 -0.61845541 -0.75364131 93 71 79
-0.18073508 -0.61749417 -0.75371403 84 62 73
-0.18102542 -0.61676544 -0.75349706 84 59 72
-0.17885877 -0.61913896 -0.75376046 95 75 81
-0.1785327 -0.61657131 -0.75251406 86 61 72
-0.17914867 -0.6159963 -0.75248313 83 56 70
-0.18026686 -0.6160289 -0.75289834 85 58 72
-0.17940077 -0.61665654 -0.75286263 88 62 75
-0.17891802 -0.61622137 -0.75249898 84 58 71
-0.17814802 -0.61623448 -0.75222862 82 57 70
-0.17552468 -0.61690485 -0.7516821 90 66 74
-0.1751108 -0.61754376 -0.75185549 96 72 78
-0.17416559 -0.61689728 -0.75117975 90 69 75
-0.17755225 -0.61528438 -0.75160092 74 49 63
-0.17532313 -0.61600071 -0.75114799 82 59 69
-0.17496759 -0.61693513 -0.75149316 90 67 75
-0.17547795 -0.61836553 -0.75234628 102 78 83
-0.17600779 -0.61748421 -0.75211698 94 70 77
-0.17757106 -0.61726838 -0.75248474 89 66 76
-0.17658231 -0.61710107 -0.75211912 90 66 75
-0.17708078 -0.61644101 -0.75197744 84 60 70
-0.17588361 -0.61762136 -0.75214034 95 72 78
-0.1705489 -0.61846513 -0.75105816 91 64 76
-0.17127854 -0.61834073 -0.75118113 95 68 79
-0.17372636 -0.61871523 -0.75195742 106 84 86
-0.17347322 -0.61669075 -0.75086755 87 66 73
-0.17156513 -0.61776346 -0.75096601 92 66 77
-0.17368002 -0.61713654 -0.75114298 92 70 76
-0.17376432 -0.61798483 -0.75159454 100 78 82
-0.17367023 -0.61613995 -0.75063342 83 62 71
-0.16914237 -0.61820978 -0.75060433 87 58 73
-0.16933344 -0.61794138 -0.75051987 86 57 73
-0.12847847 -0.61896956 -0.75084472 69 46 68
-0.12857977 -0.61866462 -0.75061601 71 48 69
-0.12996289 -0.61874318 -0.75047946 67 43 66
-0.12485537 -0.61798674 -0.75082725 83 62 83
-0.12543018 -0.61862916 -0.75114536 79 57 78
-0.12507629 -0.61904538 -0.75150126 78 55 78
-0.12515652 -0.61807269 -0.7508235 82 60 81
-0.12561299 -0.61821353 -0.75082213 80 59 79
-0.17917737 -0.6196776 -0.75423032 96 77 84
-0.17810421 -0.61939615 -0.75365543 102 81 87
-0.17657138 -0.62044454 -0.75377005 112 92 99
-0.17703435 -0.62009168 -0.75371343 109 89 95
-0.17403781 -0.62261075 -0.75423646 125 112 118
-0.17680638 -0.61929554 -0.75316674 106 84 89
-0.17428996 -0.62109852 -0.75344962 118 101 105
-0.17426448 -0.62006086 -0.75285101 114 93 96
-0.17415185 -0.62120539 -0.75346971 119 102 106
-0.17423351 -0.62127513 -0.75353354 119 102 106
-0.17374906 -0.62230057 -0.7539674 124 109 115
-0.17242391 -0.62255883 -0.75364411 115 98 107
-0.17321771 -0.6210131 -0.75304562 114 95 100
-0.17106621 -0.62302071 -0.75343114 106 86 101
-0.1735025 -0.62285918 -0.75419146 126 112 118
-0.17301579 -0.62146384 -0.75323051 115 96 102
-0.17241052 -0.62091285 -0.75270659 107 85 93
-0.17108925 -0.61961198 -0.75173414 97 71 81
-0.17008886 -0.62231165 -0.75274444 96 72 90
-0.17114468 -0.62169963 -0.75272238 101 78 91
-0.17301236 -0.61977333 -0.75228953 107 84 89
-0.17260177 -0.61951184 -0.75206494 105 81 86
-0.17043827 -0.62117153 -0.75229961 96 72 86
-0.16793106 -0.61936826 -0.75088757 90 62 75
-0.16787599 -0.62058336 -0.75148797 90 66 76
-0.16909377 -0.61993915 -0.75143832 90 65 76
-0.16787797 -0.61994368 -0.75116581 90 64 75
-0.16667844 -0.6205107 -0.75118053 90 65 76
-0.16657357 -0.62000954 -0.75090414 90 63 75
-0.16844335 -0.62093282 -0.75178069 91 68 78
-0.16967107 -0.62131238 -0.75218916 93 69 84
-0.16643177 -0.62303323 -0.75238192 92 74 80
-0.16780417 -0.62241805 -0.75235343 93 72 82
-0.16973108 -0.62288582 -0.75293481 96 73 91
-0.16884288 -0.62117112 -0.75196713 92 68 80
-0.16298537 -0.62182003 -0.75102335 84 57 70
-0.16390823 -0.62208837 -0.751351 86 63 73
-0.16450924 -0.62283117 -0.75191051 86 65 73
-0.16422571 -0.62200463 -0.75136924 87 64 74
-0.16547117 -0.62269855 -0.7520079 90 71 77
-0.16476083 -0.61998862 -0.75047654 87 58 72
-0.16402814 -0.62140119 -0.75101906 87 61 73
-0.1631999 -0.62055022 -0.75039786 84 55 70
-0.16600434 -0.6212104 -0.75138104 91 67 76
-0.15908019 -0.6228748 -0.75123078 75 47 60
-0.15829028 -0.62245136 -0.75092524 75 48 62
-0.15910496 -0.62141591 -0.75041318 79 52 69
-0.16041641 -0.62218094 -0.75097013 77 51 66
-0.16025817 -0.6219402 -0.75081247 78 51 67
-0.15675548 -0.62300587 -0.75113744 74 47 58
-0.15705176 -0.62289292 -0.7510888 75 47 59
-0.15814805 -0.62177956 -0.75054896 77 50 67
-0.15751714 -0.62267369 -0.75099397 76 48 60
-0.15042867 -0.62236202 -0.75079721 72 43 59
-0.15069492 -0.62273687 -0.75102437 69 41 55
-0.15325856 -0.62284571 -0.75095403 74 47 59
-0.15181467 -0.62219107 -0.75061226 77 48 63
-0.15392548 -0.62197512 -0.75042319 82 55 66
-0.14741142 -0.62261802 -0.75100046 63 36 50
-0.14713398 -0.62247336 -0.7509169 64 36 50
-0.14694643 -0.62268287 -0.75103986 63 35 49
-0.14993787 -0.62191653 -0.75052392 74 46 62
-0.14897314 -0.62211943 -0.75068021 69 41 56
-0.14976563 -0.62268317 -0.75102293 67 39 53
-0.14540154 -0.62295926 -0.75125378 59 32 47
-0.14471777 -0.62276179 -0.75115824 58 32 47
-0.14347114 -0.62185359 -0.75061566 59 35 48
-0.14432104 -0.62151581 -0.75039941 62 37 51
-0.14603145 -0.62203932 -0.75067389 64 37 51
-0.14460346 -0.62194842 -0.75064683 61 35 49
-0.14085346 -0.62245244 -0.75127703 52 30 46
-0.13949631 -0.6226002 -0.751522 50 29 45
-0.13977252 -0.6221413 -0.75119805 51 29 45
-0.13932522 -0.62260723 -0.75154549 49 28 44
-0.14002283 -0.62124944 -0.75059181 53 31 46
-0.14257273 -0.62178826 -0.75062096 58 34 48
-0.14242557 -0.62269735 -0.75125098 55 31 47
-0.13534781 -0.62074167 -0.75105006 59 35 48
-0.13663556 -0.62227404 -0.75183529 53 31 47
-0.1353692 -0.62137139 -0.75149441 58 34 49
-0.13645738 -0.62299329 -0.75239134 53 31 48
-0.13562448 -0.6211853 -0.75130045 57 34 48
-0.13679059 -0.6216079 -0.75132269 54 32 46
-0.13651222 -0.62082279 -0.7508536 56 33 47
-0.13784128 -0.62189788 -0.75130922 51 30 45
-0.1378004 -0.62116772 -0.7508496 53 30 46
-0.13608293 -0.6205138 -0.75073093 57 34 47
-0.13401085 -0.62033325 -0.75101352 60 36 52
-0.13432173 -0.62193936 -0.75211233 58 35 52
-0.13439526 -0.62219334 -0.75228238 58 34 52
-0.13339786 -0.62103271 -0.75160497 59 36 54
-0.13229847 -0.61922312 -0.75048113 61 37 56
-0.13260968 -0.61971986 -0.75078827 61 37 56
-0.13187133 -0.62096149 -0.75179124 60 36 57
-0.13211052 -0.62202668 -0.7525273 59 36 54
-0.13255614 -0.62293196 -0.75311327 58 36 52
-0.13298911 -0.62248421 -0.75271648 58 35 53
-0.13090104 -0.62061703 -0.75169945 60 37 58
-0.13275668 -0.62235624 -0.75266135 58 36 53
-0.13450205 -0.62297684 -0.75282717 57 34 52
-0.1281947 -0.62047249 -0.75198025 68 46 64
-0.12883501 -0.62166935 -0.75279891 65 43 60
-0.12863006 -0.62137163 -0.75260472 66 44 61
-0.12896125 -0.62284404 -0.75370628 64 41 58
-0.12748475 -0.62188005 -0.75324565 68 45 65
-0.12860364 -0.62271303 -0.75367612 65 42 60
-0.12918086 -0.62240124 -0.75330901 63 41 58
-0.12973857 -0.62009311 -0.75148189 64 41 62
-0.12936036 -0.61955559 -0.75114363 65 42 64
-0.1300979 -0.62158978 -0.75252092 62 40 57
-0.12887211 -0.61982918 -0.75141114 67 44 64
-0.12910473 -0.62050843 -0.75187296 65 43 62
-0.13027196 -0.62094361 -0.7520262 62 39 58
-0.13044712 -0.62259239 -0.75320178 60 39 54
-0.12349927 -0.62035608 -0.75287586 83 61 83
-0.12453406 -0.62136805 -0.75346601 79 56 78
-0.1249167 -0.62201607 -0.75390846 78 55 76
-0.12416144 -0.62221503 -0.75424558 83 61 82
-0.12552983 -0.62015378 -0.75227755 75 52 74
-0.12546211 -0.61917627 -0.75151467 77 54 76
-0.12488256 -0.62018967 -0.75243962 77 54 76
-0.12405622 -0.6195702 -0.75211781 80 57 80
-0.12591189 -0.62155032 -0.75330848 73 49 71
-0.12504661 -0.62094164 -0.7530033 76 53 75
-0.12606482 -0.62132508 -0.75309795 73 49 70
-0.17219681 -0.6235984 -0.75420046 113 96 106
-0.17099893 -0.62361676 -0.7537936 103 83 97
-0.17290294 -0.62319666 -0.75418574 121 106 114
-0.16926146 -0.62372375 -0.75336778 93 71 87
-0.16794871 -0.62511468 -0.7540372 87 64 75
-0.1683535 -0.62485451 -0.75394064 88 65 78
-0.16815606 -0.62374008 -0.7531721 92 71 83
-0.16700792 -0.62432975 -0.7533462 88 68 76
-0.16668405 -0.62453461 -0.75342083 87 67 74
-0.16916068 -0.62311727 -0.752949 95 73 89
-0.16906203 -0.62337768 -0.7531029 94 72 88
-0.16579232 -0.6235916 -0.75261813 89 71 76
-0.16581087 -0.62352479 -0.75257826 89 71 76
-0.16492456 -0.6254589 -0.75365108 80 58 66
-0.16334605 -0.62628472 -0.75382972 75 48 61
-0.16261725 -0.62662303 -0.75388467 72 45 58
-0.16583674 -0.62330616 -0.75243956 90 72 77
-0.16247587 -0.62434506 -0.75246787 76 50 62
-0.16416541 -0.62424177 -0.75270575 83 60 69
-0.16224563 -0.62528163 -0.75299519 74 46 60
-0.1639908 -0.62380207 -0.75240785 83 60 69
-0.16216092 -0.62338507 -0.75182939 76 50 62
-0.16360652 -0.62517565 -0.75317299 79 55 65
-0.16374987 -0.62368673 -0.75229508 82 59 68
-0.15920444 -0.62438786 -0.75215685 73 45 57
-0.15891376 -0.62502539 -0.75253528 73 45 58
-0.15873912 -0.6240564 -0.75191391 73 45 57
-0.16061532 -0.62657857 -0.75363791 72 43 57
-0.16110222 -0.62616467 -0.75341457 71 43 57
-0.15973185 -0.62483513 -0.75247717 72 44 57
-0.16188285 -0.62574357 -0.75322944 72 44 58
-0.16163857 -0.62599254 -0.75335705 72 43 57
-0.16207941 -0.62397641 -0.75217605 75 48 61
-0.16085662 -0.62533754 -0.75288457 72 44 57
-0.16199034 -0.62552452 -0.75310683 73 45 59
-0.16194971 -0.62506574 -0.7528246 73 46 59
-0.16193162 -0.6238609 -0.75209183 75 48 61
-0.15736718 -0.62659115 -0.75343174 73 46 58
-0.15652975 -0.62624604 -0.75318241 73 46 57
-0.15607308 -0.62594295 -0.75297129 73 46 57
-0.15574649 -0.62500548 -0.7523489 73 47 58
-0.15701666 -0.62647384 -0.75334513 73 46 57
-0.15505311 -0.62399197 -0.75166643 74 47 58
-0.15789306 -0.62496847 -0.75242931 74 46 58
-0.15752779 -0.62318665 -0.75129086 74 46 58
-0.15493122 -0.62355989 -0.75138354 74 47 58
-0.15800983 -0.62497813 -0.75244176 74 46 58
-0.15604073 -0.62325376 -0.75125188 74 47 58
-0.1578436 -0.62425965 -0.75198168 74 46 58
-0.15122068 -0.62544787 -0.75279582 68 41 52
-0.1510866 -0.62545282 -0.75280899 68 41 52
-0.15160739 -0.62433869 -0.75202072 67 39 52
-0.15154678 -0.62448448 -0.7521233 67 40 52
-0.15054165 -0.62533742 -0.75277156 67 40 52
-0.15293656 -0.62594265 -0.75300229 68 42 52
-0.15240057 -0.62683463 -0.7536422 69 43 52
-0.15396772 -0.62535268 -0.75255322 71 44 54
-0.15422474 -0.62427992 -0.75183737 73 46 56
-0.15384285 -0.62469476 -0.75212973 71 45 55
-0.15361694 -0.62501132 -0.7523492 70 44 54
-0.15318869 -0.62502486 -0.75238144 69 43 53
-0.15179822 -0.62352926 -0.75147939 68 41 53
-0.15199263 -0.62390763 -0.75171626 68 41 53
-0.14756615 -0.62528902 -0.75279808 64 38 50
-0.1467803 -0.62445253 -0.75223595 63 36 49
-0.14862269 -0.62522376 -0.75271326 65 38 50
-0.14754781 -0.62572956 -0.75310993 65 39 51
-0.14814727 -0.62653774 -0.75365883 67 41 52
-0.14729865 -0.62687993 -0.75393158 67 42 52
-0.15016697 -0.62481606 -0.75243241 67 39 52
-0.14843656 -0.62445289 -0.75219381 64 37 50
-0.14885198 -0.62420535 -0.75202578 64 37 50
-0.14956862 -0.62576306 -0.75307184 67 40 51
-0.14673643 -0.62327319 -0.75140542 61 33 48
-0.14787972 -0.62366414 -0.75166476 63 35 49
-0.14555086 -0.62654281 -0.75379741 65 40 51
-0.14278649 -0.62682021 -0.75428021 63 39 49
-0.14280578 -0.62511247 -0.75299519 59 35 48
-0.14334024 -0.62461787 -0.75257057 59 34 48
-0.14317651 -0.62422341 -0.75229043 58 33 48
-0.14491683 -0.62597704 -0.75343525 63 38 50
-0.14601608 -0.62500829 -0.7526648 63 37 50
-0.14549299 -0.62537873 -0.75295484 63 37 50
-0.14490415 -0.6239453 -0.75197428 59 34 48
-0.14610204 -0.62489218 -0.75257808 63 37 50
-0.14576976 -0.62496346 -0.75264645 62 37 50
-0.14624697 -0.62326628 -0.75142175 60 33 48
-0.14128062 -0.62426019 -0.75250649 55 31 46
-0.14239864 -0.62638611 -0.75399262 61 37 48
-0.14257148 -0.62364185 -0.75191355 56 32 47
-0.13939121 -0.62590837 -0.75393277 56 33 44
-0.1417955 -0.62565458 -0.75350296 59 35 47
-0.14167981 -0.62529099 -0.75324124 58 34 47
-0.14139137 -0.62485576 -0.75294298 57 33 46
-0.14105442 -0.62349927 -0.7519685 53 30 45
-0.13874663 -0.62322092 -0.75201905 48 28 44
-0.14064869 -0.62329733 -0.75186449 52 29 45
-0.14147422 -0.6236577 -0.75203884 54 31 46
-0.1405841 -0.62308758 -0.75171697 51 29 45
-0.14174689 -0.62349308 -0.75188714 54 31 46
-0.13697086 -0.62495947 -0.75375235 55 32 47
-0.13815011 -0.62356627 -0.7524178 50 29 44
-0.13670479 -0.62450558 -0.75348681 54 32 47
-0.13807394 -0.62470311 -0.75327617 53 31 45
-0.13863161 -0.62521166 -0.75350618 53 31 44
-0.13514498 -0.62496918 -0.75423473 58 34 50
-0.13626067 -0.62319463 -0.75259203 53 31 48
-0.13699876 -0.62362802 -0.7527535 52 30 47
-0.13536182 -0.62358522 -0.75311232 56 33 50
-0.13256295 -0.62361228 -0.75366354 59 36 53
-0.13441947 -0.62475801 -0.75423151 59 35 51
-0.1324873 -0.62431604 -0.75422615 60 37 52
-0.13203034 -0.62324131 -0.75344396 58 36 52
-0.13119341 -0.62372488 -0.75398141 60 38 53
-0.12950133 -0.62365514 -0.75426042 63 41 58
-0.16152003 -0.62710792 -0.75404751 71 42 56
-0.1595313 -0.62719643 -0.7539596 72 45 57
-0.15477163 -0.62790436 -0.75422955 70 45 53
-0.15761112 -0.62748486 -0.75403839 73 46 57
-0.15452585 -0.62759769 -0.75401807 70 44 53
-0.15403876 -0.62758005 -0.75402683 69 44 52
-0.15306211 -0.62756121 -0.75411642 69 44 53
-0.15292026 -0.62706864 -0.75379086 69 43 53
-0.146799 -0.62723649 -0.75422829 67 42 53
-0.13585991 -0.63741219 -0.76661485 114 87 93
-0.1356985 -0.63714707 -0.7663641 111 83 91
-0.13251057 -0.63600916 -0.76623678 99 68 86
-0.13334326 -0.63609976 -0.76602268 100 69 85
-0.13446787 -0.63641256 -0.76605237 103 74 86
-0.13431089 -0.63635439 -0.76602399 102 73 86
-0.13405794 -0.63628823 -0.76602441 102 72 86
-0.17031136 -0.59107399 -0.74340099 116 86 114
-0.17113882 -0.59135288 -0.74370986 107 77 106
-0.17125387 -0.58950579 -0.74340755 116 90 111
-0.17193295 -0.59094477 -0.7438826 103 73 101
-0.17232054 -0.5903973 -0.7439031 102 73 99
-0.16900648 -0.59163815 -0.74302262 120 90 119
-0.17002453 -0.59430945 -0.74366492 105 78 105
-0.1713911 -0.59341228 -0.74413067 98 66 96
-0.17069219 -0.59336638 -0.74384981 103 73 102
-0.17103097 -0.59441692 -0.74407285 97 68 95
-0.17101829 -0.59194529 -0.74377871 106 74 105
-0.16961718 -0.59552789 -0.74362391 103 78 102
-0.16816881 -0.59513444 -0.74309993 115 90 110
-0.16906166 -0.59419477 -0.74332309 113 85 110
-0.16950706 -0.59301329 -0.74337417 114 85 113
-0.16898812 -0.59537274 -0.74339765 109 83 106
-0.16835986 -0.59212452 -0.74284065 122 92 119
-0.16851819 -0.59207618 -0.74289656 121 91 119
-0.16797014 -0.59364498 -0.74288887 122 94 116
-0.17176782 -0.59941399 -0.74513835 88 59 80
-0.17033193 -0.59925961 -0.74457538 102 75 95
-0.17198049 -0.59909302 -0.74515587 86 57 77
-0.17077112 -0.59767634 -0.74443531 95 68 91
-0.17022336 -0.59920472 -0.74452454 103 76 96
-0.16980858 -0.59798485 -0.74414158 105 79 100
-0.16919194 -0.59746385 -0.74383861 108 84 103
-0.16988945 -0.59940124 -0.74443954 106 80 100
-0.17336912 -0.60191065 -0.74629772 85 56 76
-0.17309237 -0.60196108 -0.74620491 89 60 80
-0.17218721 -0.60188401 -0.74584162 101 74 92
-0.17059007 -0.6032663 -0.74555218 129 105 122
-0.17253999 -0.60092914 -0.74575514 92 64 82
-0.1703202 -0.60174423 -0.74511063 121 95 113
-0.17160875 -0.60047394 -0.74530804 97 70 89
-0.17093347 -0.60170013 -0.74532872 114 88 106
-0.1706745 -0.60227674 -0.7453602 122 97 114
-0.17090899 -0.60212666 -0.74541408 118 93 110
-0.17180805 -0.59982383 -0.74523818 90 61 81
-0.16937834 -0.60045618 -0.74449849 117 92 109
-0.16954798 -0.60045671 -0.74455446 116 91 108
-0.17038999 -0.60616601 -0.74625969 118 91 110
-0.17218259 -0.60448706 -0.74648386 103 75 95
-0.17238934 -0.60358071 -0.74631447 105 79 98
-0.17245185 -0.6041097 -0.74648321 101 74 94
-0.17068902 -0.60561031 -0.74622154 117 90 109
-0.1688188 -0.60700601 -0.74601549 119 91 112
-0.16684893 -0.60700053 -0.74550045 115 85 115
-0.16629046 -0.60690814 -0.7453267 115 85 117
-0.16735137 -0.60713267 -0.74567175 114 84 113
-0.16658998 -0.60738587 -0.74555057 110 78 112
-0.15885215 -0.60649151 -0.74358076 124 97 112
-0.15948132 -0.60689265 -0.74380928 123 97 112
-0.15856907 -0.60604233 -0.74339759 125 98 113
-0.16049117 -0.60729766 -0.74410462 122 96 111
-0.15997095 -0.60676253 -0.74385482 123 98 113
-0.15849203 -0.6070177 -0.74367601 123 95 110
-0.15442629 -0.60584152 -0.74281418 109 83 105
-0.15493663 -0.60605663 -0.74297243 109 84 104
-0.15470551 -0.60646516 -0.7430824 106 81 102
-0.15548141 -0.60725486 -0.74342811 107 82 101
-0.15549633 -0.60632879 -0.74315262 109 85 104
-0.15291443 -0.6067121 -0.74294567 106 82 105
-0.15267369 -0.60674226 -0.74292856 107 83 106
-0.15385149 -0.60620308 -0.7428717 108 82 104
-0.1687263 -0.60832024 -0.74645478 108 78 102
-0.16821633 -0.60825515 -0.74629873 107 77 103
-0.167622 -0.60775757 -0.74595672 109 78 108
-0.16770086 -0.60842067 -0.74622661 106 74 103
-0.16678895 -0.60784304 -0.74577177 107 75 108
-0.16873837 -0.60762602 -0.74619824 112 83 107
-0.16566779 -0.60966802 -0.74615407 96 63 97
-0.16331983 -0.61023664 -0.7456938 101 71 94
-0.16357118 -0.61072457 -0.74594718 97 66 91
-0.16257977 -0.61101288 -0.74577248 99 69 89
-0.16449548 -0.60945868 -0.74573839 102 70 99
-0.16333504 -0.60918134 -0.74533325 107 78 101
-0.16394517 -0.60910589 -0.74546224 105 75 102
-0.16378662 -0.60959268 -0.74558842 103 72 99
-0.16432817 -0.60826808 -0.74527305 109 79 107
-0.16375804 -0.60897881 -0.74537134 107 77 103
-0.15844706 -0.61023837 -0.74481362 119 97 109
-0.15848194 -0.61065698 -0.74497193 119 97 109
-0.16117398 -0.61091638 -0.74546659 104 76 93
-0.16210535 -0.6100502 -0.74531859 106 79 96
-0.1543193 -0.6101951 -0.74435806 96 68 86
-0.15659803 -0.60983568 -0.74447066 112 90 105
-0.15541153 -0.6090287 -0.74405545 105 81 99
-0.15483871 -0.61050558 -0.74452442 99 72 89
-0.15446033 -0.60888726 -0.74390388 99 73 92
-0.15666753 -0.60988921 -0.74449718 112 90 105
-0.15609358 -0.60832459 -0.74386877 109 85 103
-0.15810609 -0.61028242 -0.74478388 120 98 110
-0.15694243 -0.60930061 -0.74430972 114 91 106
-0.15651202 -0.60858107 -0.74400395 112 88 104
-0.1566871 -0.60883564 -0.7441144 113 89 105
-0.15766172 -0.61002135 -0.74464446 118 96 109
-0.15056235 -0.61089772 -0.74434489 96 68 95
-0.15108533 -0.61095226 -0.74440092 96 68 93
-0.15171081 -0.61085653 -0.74440098 96 67 91
-0.15195842 -0.61065584 -0.74433333 96 68 91
-0.15381768 -0.60916144 -0.74392688 98 71 91
-0.15324414 -0.60842884 -0.74359459 99 73 96
-0.15279908 -0.60946053 -0.74391079 98 70 93
-0.15266423 -0.6094135 -0.74387753 98 70 93
-0.15030357 -0.61087954 -0.74432606 97 69 96
-0.16256554 -0.61144495 -0.74593312 96 66 87
-0.16198573 -0.61240822 -0.74617952 94 62 85
-0.16200233 -0.61213171 -0.74606955 95 64 86
-0.16046368 -0.61267453 -0.74613094 107 82 95
-0.15933833 -0.61226958 -0.74578518 114 92 103
-0.15970603 -0.61162084 -0.74553621 112 89 102
-0.15875654 -0.61189449 -0.74552333 117 97 107
-0.15870863 -0.61273247 -0.74590838 117 97 106
-0.15597112 -0.61305678 -0.74594438 111 90 101
-0.15699343 -0.61349833 -0.74616963 115 96 104
-0.15660846 -0.61296898 -0.74591494 114 93 103
-0.15700842 -0.61401778 -0.74641299 115 96 103
-0.1578514 -0.61249167 -0.74571419 119 99 108
-0.1558356 -0.6125477 -0.74563777 109 86 98
-0.15495138 -0.61144125 -0.74489754 99 71 87
-0.15591244 -0.61190468 -0.74527019 107 83 96
-0.15600838 -0.61260796 -0.7456913 110 88 100
-0.15510085 -0.61314362 -0.74590808 106 82 95
-0.15167327 -0.61461765 -0.74637133 107 83 102
-0.15310733 -0.61381477 -0.74607325 104 79 95
-0.15220714 -0.61421216 -0.74619812 106 81 99
-0.1533086 -0.61301029 -0.74562711 101 74 91
-0.15392867 -0.61216062 -0.74520457 98 69 86
-0.15364127 -0.61147916 -0.74479979 95 66 84
-0.1516165 -0.61334693 -0.74565399 103 76 97
-0.15191922 -0.6131286 -0.74555832 102 75 96
-0.15164818 -0.61267471 -0.74530214 100 73 95
-0.15181325 -0.61153668 -0.74471349 96 67 90
-0.14765356 -0.6138491 -0.7459538 120 102 118
-0.14972185 -0.6146583 -0.74629396 112 89 110
-0.14818226 -0.61336291 -0.74567592 115 95 113
-0.15013327 -0.61404616 -0.74595463 107 83 105
-0.14781173 -0.61436069 -0.7462166 121 103 119
-0.1492514 -0.61398041 -0.7459566 112 89 110
-0.14653769 -0.61423743 -0.74618775 129 114 127
-0.14759809 -0.61149907 -0.74463904 122 100 118
-0.14711344 -0.61370301 -0.74588156 124 107 122
-0.14957684 -0.61152333 -0.74463141 103 77 101
-0.14886582 -0.61244822 -0.74515826 109 86 107
-0.14783305 -0.61339915 -0.74570328 118 99 116
-0.14539517 -0.61273837 -0.745318 127 108 123
-0.14531805 -0.61472625 -0.74643195 125 109 122
-0.14611001 -0.6120317 -0.74494016 131 111 126
-0.14644149 -0.61382771 -0.7459572 130 114 128
-0.14559598 -0.61273623 -0.74532211 128 109 124
-0.14525637 -0.61435151 -0.74621993 126 108 122
-0.14634982 -0.61137116 -0.74457926 133 113 129
-0.13640486 -0.61296988 -0.74590647 113 90 101
-0.13553776 -0.61351418 -0.74630785 102 79 91
-0.13548048 -0.61350036 -0.7463069 102 79 91
-0.13615859 -0.61393845 -0.74647057 101 78 89
-0.13376524 -0.61341065 -0.74644572 98 72 91
-0.13473885 -0.61316997 -0.74614501 102 78 90
-0.1782434 -0.62951022 -0.75922269 141 109 104
-0.17815328 -0.63014066 -0.75957668 148 116 105
-0.17785428 -0.62882596 -0.7586816 131 103 104
-0.17946112 -0.6293304 -0.75949508 144 106 104
-0.17398456 -0.63075793 -0.75890648 107 60 56
-0.17533666 -0.6301983 -0.75888288 123 85 78
-0.1766468 -0.62860322 -0.75823784 117 86 92
-0.1772503 -0.62864077 -0.75841033 123 95 99
-0.17510249 -0.62996906 -0.75868446 119 80 75
-0.17715068 -0.62999314 -0.75920725 139 108 99
-0.17337155 -0.63073963 -0.75876617 104 57 54
-0.17375751 -0.6298964 -0.75831401 104 60 59
-0.140384 -0.63084346 -0.75826371 65 40 51
-0.13595872 -0.63084036 -0.75904417 62 37 51
-0.13520117 -0.62998694 -0.75840652 62 37 50
-0.1366524 -0.63055748 -0.7587266 62 37 51
-0.13663949 -0.63006687 -0.75830567 62 37 50
-0.13181911 -0.62984401 -0.75957501 66 41 58
-0.13254023 -0.63051182 -0.75998729 65 40 56
-0.1314272 -0.62949109 -0.75936306 66 42 59
-0.13179861 -0.63003296 -0.75981385 66 41 58
-0.13402601 -0.6307202 -0.75942957 63 38 52
-0.13421951 -0.63050854 -0.75906914 62 37 52
-0.13393925 -0.62982714 -0.75857407 63 38 52
-0.13176271 -0.62883687 -0.75840384 65 42 58
-0.13465902 -0.62988305 -0.75840026 62 37 50
-0.13061517 -0.63084209 -0.76137215 69 44 62
-0.12878552 -0.63003182 -0.76092982 78 53 74
-0.13058935 -0.63075811 -0.76127815 69 44 62
-0.1290251 -0.62936449 -0.76005548 77 52 72
-0.12865745 -0.63006377 -0.76100576 79 53 75
-0.13008893 -0.62955475 -0.759974 71 47 65
-0.12735468 -0.62812543 -0.75930732 79 55 76
-0.1287351 -0.62881881 -0.75956428 76 52 72
-0.12898855 -0.6282497 -0.75885338 74 50 69
-0.12932855 -0.62870902 -0.75923073 74 50 69
-0.12948534 -0.6290378 -0.75953209 74 50 69
-0.12715906 -0.62752742 -0.75872684 78 55 74
-0.12870988 -0.62854201 -0.75927204 76 51 71
-0.12625109 -0.62705511 -0.75850356 82 60 78
-0.12646584 -0.62781084 -0.75924712 82 59 79
-0.12655474 -0.62731475 -0.75868195 80 58 77
-0.12673211 -0.62800545 -0.75938386 82 58 78
-0.17793369 -0.63120645 -0.76019311 158 130 114
-0.17720003 -0.63151699 -0.76033241 156 128 109
-0.17454918 -0.63124645 -0.75947273 120 78 69
-0.17441911 -0.63311338 -0.76120549 145 115 94
-0.17565121 -0.63241577 -0.76084465 151 121 100
-0.17684951 -0.63147366 -0.76024461 152 122 103
-0.17539088 -0.63212729 -0.76050895 143 111 93
-0.17473626 -0.63239008 -0.76059878 139 105 88
-0.17543645 -0.63128465 -0.75972372 132 94 81
-0.17191926 -0.63158655 -0.7590704 107 63 58
-0.17125998 -0.63090903 -0.75846571 96 52 53
-0.17285316 -0.63129795 -0.75905001 107 61 57
-0.17116445 -0.63309509 -0.75998282 122 82 70
-0.17095931 -0.63203621 -0.75919884 108 67 62
-0.17042524 -0.6318571 -0.75896877 104 63 60
-0.17002511 -0.63308638 -0.75975424 117 79 69
-0.17268302 -0.63285244 -0.7603144 127 88 74
-0.17343469 -0.6317507 -0.75960243 116 72 64
-0.17315629 -0.63252884 -0.76021588 125 86 73
-0.17314295 -0.63157415 -0.75930786 112 66 59
-0.17167535 -0.63393563 -0.76089686 136 101 83
-0.17320912 -0.63320911 -0.7608819 135 101 83
-0.17186847 -0.63469076 -0.76163524 149 118 93
-0.1667365 -0.63423377 -0.76006716 128 90 72
-0.16777714 -0.63441849 -0.76035315 131 94 76
-0.16721438 -0.6339457 -0.75987774 126 89 75
-0.16737887 -0.63347054 -0.75948912 122 87 76
-0.16684367 -0.63292915 -0.75895798 116 83 76
-0.16931577 -0.63269514 -0.75932163 113 75 68
-0.16991478 -0.633488 -0.76001459 122 84 73
-0.16710827 -0.63273102 -0.75884581 114 81 75
-0.16954137 -0.63207406 -0.75893652 105 66 63
-0.16935273 -0.63303059 -0.75956571 117 79 71
-0.1670517 -0.63215679 -0.75842953 107 74 71
-0.16911046 -0.63206416 -0.7588318 105 67 64
-0.16479068 -0.6347329 -0.76015139 124 85 65
-0.16274914 -0.63462925 -0.75964075 112 76 60
-0.16349469 -0.63445652 -0.75967616 116 79 62
-0.16324297 -0.63440299 -0.75958395 114 77 61
-0.1644623 -0.63337052 -0.75901526 113 78 66
-0.16317174 -0.63318461 -0.75867152 107 73 61
-0.16550942 -0.63261765 -0.75851679 110 77 71
-0.16462596 -0.63274872 -0.75850368 108 75 68
-0.15893866 -0.63348138 -0.75859892 87 53 46
-0.16108054 -0.63475692 -0.75964957 102 67 55
-0.15992463 -0.63392609 -0.75895226 94 60 50
-0.15896818 -0.63307011 -0.75827628 86 53 46
-0.16120262 -0.63366133 -0.75877798 99 66 55
-0.15961581 -0.63317668 -0.75837523 89 56 49
-0.15443103 -0.63322759 -0.75875551 73 42 46
-0.15558347 -0.63446069 -0.75979978 78 46 47
-0.15526778 -0.63327914 -0.75871652 74 43 45
-0.15641126 -0.63459778 -0.75984275 79 47 46
-0.15672947 -0.63303781 -0.75836313 78 46 44
-0.15558831 -0.63276404 -0.75821346 75 43 45
-0.15455543 -0.63274133 -0.75828385 72 41 45
-0.15767671 -0.63318187 -0.75841129 80 48 44
-0.15377095 -0.63459337 -0.76005358 77 45 50
-0.15299533 -0.63426977 -0.75974834 76 45 51
-0.15074052 -0.63473314 -0.75998724 77 47 58
-0.1523568 -0.63447416 -0.7598747 76 46 53
-0.15158847 -0.63290256 -0.758524 73 45 54
-0.15240926 -0.63320881 -0.75879467 74 44 52
-0.15241046 -0.63291556 -0.75851762 73 44 51
-0.15288088 -0.63388813 -0.75942576 75 45 51
-0.1489099 -0.63448429 -0.75998521 78 49 58
-0.14776377 -0.63429809 -0.76000679 79 49 57
-0.14703357 -0.63414574 -0.75999129 80 50 56
-0.1469909 -0.63463002 -0.76041877 81 51 57
-0.14713764 -0.63423467 -0.76005191 80 50 56
-0.14935964 -0.63372225 -0.75927198 76 47 57
-0.14890216 -0.63272607 -0.75852454 74 46 56
-0.14861837 -0.63309276 -0.75885051 75 47 56
-0.15001267 -0.6336928 -0.75917488 75 47 57
-0.14525157 -0.6342352 -0.76037151 79 49 54
-0.14305839 -0.63192099 -0.75856411 72 43 50
-0.14434777 -0.63389325 -0.76023799 77 47 53
-0.14418486 -0.63367695 -0.76005936 77 46 53
-0.14379196 -0.63375247 -0.76022536 76 45 52
-0.1430738 -0.63360667 -0.7602452 75 44 51
-0.14432518 -0.63399249 -0.76034242 77 47 53
-0.14408518 -0.63223267 -0.75870377 74 44 52
-0.14595109 -0.63257331 -0.75877684 76 47 54
-0.14384466 -0.63186419 -0.75841242 73 44 51
-0.1440841 -0.63209504 -0.75858438 74 44 52
-0.145317 -0.63186187 -0.75823456 74 45 53
-0.14212878 -0.63171655 -0.75860792 70 42 50
-0.14100239 -0.63149941 -0.75873548 67 41 51
-0.14175679 -0.63158572 -0.758591 69 41 50
-0.14188462 -0.63158876 -0.75855488 69 41 50
-0.14172833 -0.63466173 -0.76171893 74 42 50
-0.14134304 -0.63337994 -0.76054186 71 41 51
-0.14097895 -0.63273084 -0.76000708 70 41 51
-0.14115047 -0.63270181 -0.75991505 70 41 51
-0.14078881 -0.63441384 -0.76179385 73 40 50
-0.14052247 -0.63398594 -0.76143128 71 40 50
-0.13935955 -0.63133162 -0.75904578 64 39 51
-0.14053574 -0.63363028 -0.76106453 71 40 50
-0.1392161 -0.63257051 -0.76037407 67 39 50
-0.1399785 -0.6332801 -0.76086777 69 40 50
-0.13965307 -0.63265026 -0.76031333 68 39 51
-0.13915123 -0.63292903 -0.76077229 68 39 50
-0.13779524 -0.63362521 -0.76186728 69 37 48
-0.13848549 -0.63215619 -0.760162 66 38 50
-0.13761152 -0.63271892 -0.7609576 67 37 49
-0.13706607 -0.6333214 -0.76171827 68 37 48
-0.1370579 -0.63309437 -0.76148152 67 37 49
-0.1385075 -0.63184625 -0.75983107 65 38 50
-0.13484712 -0.63276064 -0.76157111 66 36 49
-0.13483545 -0.63244206 -0.76117265 65 36 49
-0.1355416 -0.63115627 -0.75947988 62 37 50
-0.13806288 -0.63087678 -0.75884581 62 38 51
-0.13646202 -0.63181847 -0.76020736 64 37 50
-0.13238865 -0.63132554 -0.76114917 66 41 58
-0.13341059 -0.63105559 -0.76022166 64 39 55
-0.13324179 -0.63230228 -0.76188332 67 39 54
-0.13136578 -0.63137704 -0.76180321 68 43 61
-0.13312057 -0.63185668 -0.76139402 66 39 55
-0.13459435 -0.63095444 -0.75941265 62 37 51
-0.1313445 -0.63131016 -0.76172876 68 43 61
-0.13170846 -0.63116181 -0.76130956 67 42 59
-0.13027877 -0.63118982 -0.76199192 71 46 65
-0.16447245 -0.63598418 -0.76115596 148 116 94
-0.16360393 -0.63493353 -0.76006591 122 85 66
-0.16493393 -0.63544434 -0.76079035 140 105 83
-0.1624299 -0.63521153 -0.76005459 121 87 70
-0.16386349 -0.63507575 -0.76024395 126 90 71
-0.16505916 -0.63507891 -0.76050222 133 95 74
-0.16221096 -0.63595718 -0.7606504 136 107 88
-0.15970284 -0.63641232 -0.76123321 127 106 90
-0.15971394 -0.63547838 -0.76038361 107 80 67
-0.1594999 -0.63519061 -0.76013207 100 70 59
-0.15943538 -0.63476813 -0.75974911 90 58 49
-0.15842482 -0.63510782 -0.76011467 90 62 54
-0.15691036 -0.63611346 -0.76127118 109 84 69
-0.15718322 -0.63531858 -0.76049668 92 62 52
-0.15640503 -0.63571662 -0.76099592 100 70 57
-0.15761934 -0.63711756 -0.76206642 131 115 98
-0.155523 -0.63605374 -0.76145756 106 76 59
-0.1545967 -0.63491398 -0.76034963 81 48 49
-0.15453531 -0.63554168 -0.76102591 94 62 55
-0.15569893 -0.6356898 -0.76106215 98 68 55
-0.15455164 -0.63625002 -0.76178032 109 78 61
-0.15264305 -0.63683599 -0.7620455 121 92 82
-0.15406355 -0.63618916 -0.7616874 107 77 63
-0.15332527 -0.6365304 -0.76187891 114 85 73
-0.15210722 -0.63698095 -0.76207489 124 96 88
-0.15362953 -0.63503712 -0.76040244 83 51 55
-0.15131673 -0.63526136 -0.76044708 87 58 65
-0.15129408 -0.63508761 -0.76030564 84 54 62
-0.15018445 -0.63483757 -0.7601077 78 49 60
-0.14999609 -0.63503838 -0.76032162 82 54 63
-0.14885604 -0.63491619 -0.7604124 81 52 61
-0.14992549 -0.6348539 -0.76016927 79 50 60
-0.14456764 -0.63544881 -0.76189512 90 63 67
-0.14284058 -0.63518465 -0.76202804 82 54 60
-0.14443168 -0.63560212 -0.76210719 92 66 69
-0.14402169 -0.63491064 -0.76138365 80 50 56
-0.17442128 -0.60236317 -0.74678397 81 52 72
-0.17528103 -0.60332096 -0.74725848 78 50 69
-0.17380534 -0.6023429 -0.74656117 79 50 72
-0.18134482 -0.60631698 -0.75034487 101 74 77
-0.17501426 -0.60637206 -0.7479142 90 58 82
-0.17491065 -0.60612357 -0.74782145 89 58 82
-0.174583 -0.60446429 -0.74731755 85 55 77
-0.17583238 -0.60410279 -0.74761319 79 50 68
-0.17670374 -0.60443038 -0.74796361 77 48 64
-0.17550802 -0.60455513 -0.74762696 82 53 72
-0.17593251 -0.60512573 -0.7479009 83 54 72
-0.17069988 -0.60692078 -0.74658036 111 81 102
-0.17173192 -0.60687494 -0.74692857 105 74 98
-0.17336725 -0.60643542 -0.74739194 95 63 90
-0.17257005 -0.60496652 -0.74676061 95 65 88
-0.17349856 -0.60533911 -0.74717349 91 60 86
-0.17276281 -0.60581756 -0.74703264 96 66 90
-0.1716169 -0.60542333 -0.74652481 105 77 97
-0.1730458 -0.60394245 -0.74666572 93 65 86
-0.17865868 -0.60879207 -0.74980068 92 65 78
-0.17786999 -0.61000937 -0.74979514 91 64 79
-0.17828982 -0.61053133 -0.75009269 92 68 83
-0.17443623 -0.61012864 -0.74867058 88 59 83
-0.17439243 -0.61120838 -0.74892277 85 57 79
-0.17430285 -0.60799462 -0.74809611 95 62 91
-0.17594662 -0.61026585 -0.74922734 91 64 84
-0.17453232 -0.60850418 -0.74830168 94 62 89
-0.17766477 -0.61099303 -0.74999464 91 67 82
-0.17621511 -0.60918432 -0.749035 92 63 85
-0.17593086 -0.60947168 -0.7490238 93 65 87
-0.17750528 -0.60948044 -0.74952686 90 63 79
-0.17089543 -0.60743952 -0.74677485 111 81 103
-0.17217831 -0.6089583 -0.74773866 91 59 87
-0.17199881 -0.60886109 -0.74764282 93 61 88
-0.17168154 -0.60766178 -0.74712276 105 74 98
-0.17036727 -0.60803741 -0.74679238 108 79 100
-0.17038952 -0.60770226 -0.7466858 111 82 103
-0.17366654 -0.60919762 -0.74818838 90 59 86
-0.17299233 -0.6112085 -0.74851412 84 55 78
-0.17258047 -0.60917801 -0.74790633 90 58 85
-0.17229636 -0.6099208 -0.74801767 87 56 83
-0.17110044 -0.61115521 -0.74801797 83 54 77
-0.17271638 -0.60924274 -0.74795705 90 58 85
-0.16694297 -0.6106354 -0.74682683 89 56 88
-0.16703017 -0.61055869 -0.7468195 89 56 88
-0.16893508 -0.60990024 -0.74704129 95 64 90
-0.16617037 -0.61022693 -0.74650449 92 58 93
-0.16888389 -0.60857034 -0.74657542 106 76 100
-0.1692677 -0.61031795 -0.74726188 91 61 86
-0.1682706 -0.60920465 -0.74664807 101 70 96
-0.1658826 -0.61114001 -0.74675655 87 53 85
-0.17695372 -0.61247641 -0.750274 86 63 76
-0.17434581 -0.61508131 -0.7503314 75 54 65
-0.17453159 -0.61452097 -0.75018668 79 58 69
-0.17664444 -0.61173213 -0.74988198 89 64 80
-0.1756134 -0.61155772 -0.74946034 87 61 79
-0.17553382 -0.61323375 -0.75005543 84 61 74
-0.17480037 -0.61187613 -0.74929726 85 58 77
-0.17680724 -0.6118173 -0.74997002 89 65 80
-0.17222275 -0.61470246 -0.74960989 78 53 67
-0.17139095 -0.61365104 -0.74900514 79 53 70
-0.1711435 -0.61363149 -0.74893659 79 52 70
-0.17049907 -0.61434227 -0.74904764 78 50 69
-0.17079297 -0.61410558 -0.74903023 79 51 69
-0.17045885 -0.61212593 -0.74819565 81 53 74
-0.17000911 -0.61139739 -0.74780798 82 53 76
-0.17254882 -0.61175221 -0.74858809 82 55 76
-0.17355263 -0.61345094 -0.74947536 80 55 71
-0.17224936 -0.61225402 -0.74869806 81 54 74
-0.17353322 -0.61189806 -0.7488935 82 55 76
-0.17281617 -0.61204112 -0.74876368 82 55 75
-0.16663991 -0.61349219 -0.74786347 77 45 70
-0.16692849 -0.61497319 -0.74852097 70 39 60
-0.16642302 -0.61332828 -0.74775255 77 45 70
-0.16850209 -0.61389816 -0.7484116 80 49 72
-0.16712381 -0.61446452 -0.74835593 73 42 64
-0.16896971 -0.61522001 -0.7490418 75 45 64
-0.1681072 -0.61134923 -0.74735039 84 52 80
-0.1688509 -0.61222285 -0.74785346 82 51 76
-0.16937871 -0.61139911 -0.74766195 83 52 77
-0.168405 -0.61198211 -0.74765939 83 51 78
-0.16789261 -0.61147594 -0.74734908 84 52 80
-0.16847487 -0.61299974 -0.74806207 81 50 75
-0.16467631 -0.61169428 -0.7466318 88 54 84
-0.16261029 -0.61400408 -0.74701977 84 49 79
-0.16332591 -0.61284524 -0.74672312 87 52 81
-0.1637966 -0.61338758 -0.74710375 83 49 80
-0.16532794 -0.61380458 -0.74768019 76 43 69
-0.16575836 -0.61327481 -0.74757934 77 44 71
-0.16576244 -0.61241245 -0.74723226 81 48 77
-0.16395457 -0.61459863 -0.74764013 77 43 71
-0.16442452 -0.6145997 -0.74776399 75 42 69
-0.16485523 -0.61443728 -0.7478115 75 42 67
-0.15870938 -0.61454225 -0.74673086 114 95 102
-0.1614458 -0.61408597 -0.74683106 91 59 84
-0.16026218 -0.61460322 -0.74692667 99 73 91
-0.15962259 -0.61380428 -0.74650246 108 85 97
-0.15442821 -0.61507106 -0.74688506 108 88 97
-0.1577283 -0.61489338 -0.74682981 116 100 104
-0.15572126 -0.61460263 -0.74666017 109 89 98
-0.15294713 -0.61488938 -0.74665433 108 85 100
-0.15365256 -0.61491942 -0.74674183 107 86 98
-0.13976073 -0.61492521 -0.74663997 107 85 96
-0.13981402 -0.61498773 -0.74666876 107 84 96
-0.13678607 -0.61455446 -0.74672997 98 75 87
-0.13535452 -0.61517823 -0.7473529 86 63 77
-0.13747516 -0.61469537 -0.74671894 100 77 88
-0.13382986 -0.61490119 -0.74737519 85 60 80
-0.13348851 -0.61484271 -0.74737251 86 59 81
-0.13445373 -0.61427289 -0.74690861 91 67 82
-0.13422906 -0.61385339 -0.74667031 94 70 86
-0.13429312 -0.61481649 -0.74727625 86 62 79
-0.17257889 -0.61599553 -0.75030333 79 56 68
-0.17171693 -0.61639243 -0.75030297 81 55 69
-0.17206204 -0.61607981 -0.75022197 80 55 68
-0.17024314 -0.61638582 -0.74993575 81 52 70
-0.16955806 -0.61731809 -0.75026035 84 55 72
-0.16940263 -0.61743039 -0.75028086 85 55 72
-0.16959091 -0.61707234 -0.75013798 83 54 71
-0.16930684 -0.61585546 -0.74941921 80 49 68
-0.16848761 -0.61638647 -0.74950784 81 50 68
-0.16706277 -0.61802775 -0.75001115 87 56 71
-0.16855232 -0.61608124 -0.7493729 79 48 67
-0.16624264 -0.61548132 -0.74860489 69 38 57
-0.1665249 -0.61639678 -0.74910784 75 44 62
-0.1666591 -0.61677402 -0.74931884 78 47 64
-0.16235362 -0.61572844 -0.74771649 82 47 76
-0.16364354 -0.61782146 -0.74907196 87 53 75
-0.16289441 -0.6164788 -0.74822301 83 49 76
-0.16443476 -0.61852187 -0.74962002 88 56 74
-0.16348259 -0.61843914 -0.74932981 88 55 74
-0.16295248 -0.61743456 -0.74870253 85 52 75
-0.16552521 -0.61830753 -0.74980223 87 56 72
-0.16492026 -0.6176033 -0.74930125 85 53 72
-0.16467541 -0.61765891 -0.749264 86 54 74
-0.16314037 -0.61608315 -0.74809539 82 48 75
-0.16553196 -0.61744189 -0.74938351 82 50 68
-0.16551927 -0.61641884 -0.74888319 76 44 64
-0.15893945 -0.61840051 -0.7486828 90 63 84
-0.15849008 -0.61803174 -0.74845803 92 67 87
-0.16171582 -0.61893952 -0.74917573 90 57 75
-0.15859246 -0.61725247 -0.74806464 100 77 92
-0.16019428 -0.61859936 -0.74888253 90 61 80
-0.15888304 -0.61901742 -0.74899608 84 55 80
-0.16161019 -0.61569333 -0.7475819 86 54 80
-0.16172586 -0.61810851 -0.74876755 90 58 77
-0.16005373 -0.61670911 -0.74790913 103 79 91
-0.16179067 -0.61566657 -0.74758822 84 51 79
-0.16098295 -0.61624193 -0.74778146 93 64 84
-0.16195305 -0.61771792 -0.74860203 87 53 76
-0.15563077 -0.61814559 -0.74838406 94 69 85
-0.15491661 -0.61870778 -0.74859446 94 70 82
-0.15558207 -0.61834753 -0.74847317 93 69 84
-0.15631352 -0.61857069 -0.74862295 90 64 83
-0.15637366 -0.61776775 -0.74825978 93 68 86
-0.1543918 -0.61772883 -0.74811268 99 77 87
-0.15564252 -0.61621612 -0.74748176 103 81 94
-0.15695001 -0.61756253 -0.74818486 93 69 88
-0.15556222 -0.61564815 -0.74718869 108 88 97
-0.15560301 -0.61650914 -0.74763232 100 77 92
-0.15555687 -0.6162951 -0.74752182 102 80 93
-0.15598948 -0.61559743 -0.74716568 109 90 99
-0.15157667 -0.61832565 -0.74829787 94 68 84
-0.15081297 -0.61690158 -0.74749947 101 76 95
-0.15239401 -0.61824977 -0.74825418 96 71 86
-0.15078703 -0.61600995 -0.74699897 107 82 102
-0.15161034 -0.61677295 -0.74742627 104 79 97
-0.15124202 -0.61731005 -0.74772817 100 75 92
-0.15330629 -0.61779636 -0.74803531 100 76 89
-0.1541111 -0.61700141 -0.74775481 102 80 90
-0.15372333 -0.61798155 -0.74816298 99 76 87
-0.15342583 -0.61576486 -0.74711901 107 86 98
-0.15331435 -0.61772341 -0.74800283 100 77 89
-0.15314402 -0.61785191 -0.74804401 100 76 89
-0.14676434 -0.61628556 -0.74731344 115 97 110
-0.14834397 -0.61735845 -0.74784315 105 84 98
-0.14694367 -0.6178562 -0.74821395 91 70 83
-0.14828505 -0.61807269 -0.74826086 94 71 85
-0.14771113 -0.61772329 -0.74809182 97 75 89
-0.14794961 -0.61678678 -0.74753469 112 93 106
-0.15000446 -0.61551416 -0.74673665 111 87 108
-0.1492044 -0.61595964 -0.74701869 112 90 108
-0.1471146 -0.61535263 -0.74676138 126 110 123
-0.14868546 -0.61666179 -0.74743348 110 89 105
-0.14964834 -0.61814749 -0.74822903 97 72 88
-0.1489518 -0.61735231 -0.74781048 105 83 98
-0.14389729 -0.61862749 -0.74865723 71 47 57
-0.14403093 -0.61812651 -0.74835962 78 54 66
-0.14341792 -0.61731708 -0.74787158 87 65 76
-0.14379992 -0.6165387 -0.74741071 99 76 90
-0.14399974 -0.61829519 -0.74845999 75 52 63
-0.14515339 -0.6181491 -0.74838287 80 56 69
-0.14635725 -0.61636084 -0.74737036 112 94 107
-0.14630403 -0.61659932 -0.74750739 108 90 102
-0.14637215 -0.61767346 -0.74813205 92 70 84
-0.1450844 -0.61721617 -0.74783456 93 71 85
-0.1459713 -0.61683095 -0.74763334 103 83 97
-0.14292488 -0.61532915 -0.74668586 113 92 107
-0.13962232 -0.61689079 -0.74782169 82 60 70
-0.13911864 -0.61691695 -0.74788851 81 59 70
-0.1394676 -0.61738676 -0.7481513 76 54 65
-0.14028741 -0.61789143 -0.74838912 72 49 59
-0.13930264 -0.61642849 -0.74756068 87 65 75
-0.14057387 -0.61822861 -0.74857414 68 46 55
-0.14218888 -0.61780721 -0.74818093 77 55 64
-0.14075695 -0.61571735 -0.74702454 101 79 90
-0.14181577 -0.6165182 -0.74743563 94 72 83
-0.14224112 -0.61591297 -0.74704802 103 81 94
-0.1425359 -0.61683762 -0.74758101 92 70 81
-0.14245953 -0.61538172 -0.74671751 111 89 104
-0.1364637 -0.61865771 -0.74942756 61 37 50
-0.13724117 -0.61776048 -0.7486937 64 41 56
-0.13655403 -0.61749256 -0.74864286 67 43 58
-0.13671139 -0.61867052 -0.74939072 61 36 50
-0.13482484 -0.617441 -0.74892533 71 46 60
-0.13547774 -0.61643237 -0.74814081 75 51 66
-0.13665165 -0.61614966 -0.74776465 80 57 71
-0.13834921 -0.61562425 -0.74716496 94 72 83
-0.13802585 -0.61526841 -0.74699038 97 75 86
-0.13719814 -0.61605465 -0.74761856 84 61 74
-0.13722453 -0.6152606 -0.74711132 94 71 83
-0.13665934 -0.61569369 -0.74747461 86 63 76
-0.13668661 -0.61685461 -0.74820572 72 49 64
-0.13359888 -0.61880028 -0.74998677 64 38 55
-0.13324189 -0.61775118 -0.74928594 70 41 62
-0.13137287 -0.61726707 -0.74921775 73 44 72
-0.13298707 -0.61761993 -0.74922979 71 42 64
-0.13225025 -0.61882633 -0.75020736 64 39 59
-0.13193238 -0.6174702 -0.74927998 72 43 69
-0.13445507 -0.61627465 -0.74819511 77 53 69
-0.13391805 -0.61548984 -0.74772608 82 56 75
-0.1347056 -0.61622518 -0.74813998 77 54 68
-0.13424274 -0.61652595 -0.74837995 76 51 68
-0.13177532 -0.61571699 -0.74806887 81 49 80
-0.13337871 -0.61703998 -0.7487967 74 45 67
-0.13457653 -0.61794668 -0.74928659 68 43 57
-0.13024154 -0.61841911 -0.75021052 68 44 68
-0.12853438 -0.61713642 -0.74953067 80 54 79
-0.13069059 -0.61732751 -0.74936205 73 45 74
-0.13025029 -0.61625856 -0.74865597 80 49 81
-0.12969831 -0.61707389 -0.74932051 77 49 77
-0.12883462 -0.61744869 -0.74971253 78 52 77
-0.12817104 -0.616624 -0.74921125 83 58 82
-0.1283969 -0.61672145 -0.74925047 82 56 81
-0.16409972 -0.6200971 -0.75037694 86 56 71
-0.16252491 -0.62026668 -0.75006068 85 54 71
-0.16245259 -0.61994302 -0.74985731 86 54 71
-0.16392271 -0.61989909 -0.75021833 87 56 72
-0.16040866 -0.6205979 -0.75003004 82 53 71
-0.16040552 -0.62121153 -0.75037956 80 52 69
-0.16161376 -0.61953294 -0.74950129 87 54 73
-0.16068426 -0.61987191 -0.74963164 85 54 73
-0.15946026 -0.62057543 -0.74995255 81 53 72
-0.16059133 -0.61966342 -0.74950117 85 54 74
-0.15581547 -0.62143517 -0.75019813 81 55 69
-0.15819137 -0.6198079 -0.7494005 80 53 77
-0.15795641 -0.62099469 -0.75008583 79 52 72
-0.15764369 -0.62140238 -0.75030524 78 52 70
-0.15481524 -0.62103462 -0.7498951 85 59 71
-0.15556012 -0.61935455 -0.74895954 89 64 79
-0.15447104 -0.62022215 -0.74939674 89 64 75
-0.15559386 -0.61971766 -0.74917442 88 62 78
-0.15333079 -0.61984593 -0.74919534 90 65 76
-0.15176997 -0.62110066 -0.74997956 82 55 69
-0.15234412 -0.62132293 -0.75009161 82 55 69
-0.15334177 -0.62167919 -0.75026888 82 56 67
-0.15229189 -0.62060988 -0.74967557 85 59 72
-0.15179366 -0.61943465 -0.74894065 89 62 76
-0.15190031 -0.6200996 -0.74936032 87 60 74
-0.15250383 -0.61985135 -0.74920279 89 62 75
-0.15325084 -0.61937565 -0.74890149 92 67 78
-0.14844619 -0.62148213 -0.75028545 73 45 60
-0.14995593 -0.62053448 -0.74964803 81 52 69
-0.15035981 -0.62015069 -0.74939531 84 55 71
-0.15009767 -0.62104583 -0.74996728 79 51 67
-0.14897159 -0.62090492 -0.74990743 76 48 64
-0.14819133 -0.61983043 -0.74928486 77 50 65
-0.14744055 -0.62073535 -0.74985254 72 45 59
-0.14698605 -0.62115347 -0.75012112 69 42 57
-0.14568089 -0.62112963 -0.75015128 65 40 53
-0.14579079 -0.62125194 -0.75022006 65 39 53
-0.14334869 -0.62124848 -0.7502622 60 37 50
-0.14454861 -0.62037832 -0.74973696 64 40 53
-0.14373156 -0.62002075 -0.749511 62 39 50
-0.14355165 -0.61930966 -0.7490657 63 40 48
-0.14513332 -0.61971951 -0.74933529 66 42 55
-0.14158417 -0.62054968 -0.74995154 57 35 47
-0.14054891 -0.62041545 -0.74999332 55 33 46
-0.14128923 -0.62028229 -0.74982047 57 35 46
-0.14163718 -0.6200788 -0.74965125 58 36 46
