ply
format ascii 1.0
comment PCL generated
element vertex 1067
property float x
property float y
property float z
property uchar red
property uchar green
property uchar blue
element camera 0
property float view_px
property float view_py
property float view_pz
property float x_axisx
property float x_axisy
property float x_axisz
property float y_axisx
property float y_axisy
property float y_axisz
property float z_axisx
property float z_axisy
property float z_axisz
property float focal
property float scalex
property float scaley
property float centerx
property float centery
property int viewportx
property int viewporty
property float k1
property float k2
end_header
0.24059832 -0.14051722 -0.92314065 20 10 16
0.24032798 -0.13969715 -0.92308009 14 7 11
0.24084398 -0.141914 -0.92319578 27 14 23
0.24126613 -0.13882217 -0.92329043 24 13 13
0.23828468 -0.14389364 -0.92269582 27 19 15
0.23870403 -0.14482947 -0.92280793 35 26 17
0.23873663 -0.14312267 -0.92276698 21 14 16
0.23746525 -0.14585273 -0.92242897 24 17 12
0.23740375 -0.14594537 -0.92240798 23 16 12
0.23826931 -0.14517735 -0.92268038 32 24 15
0.23776478 -0.14571975 -0.92251754 27 19 14
0.23760173 -0.14583896 -0.92246735 25 18 13
0.24182075 -0.14336407 -0.92347771 41 28 24
0.20494577 -0.078714147 -0.88339597 179 171 191
0.20673892 -0.079427019 -0.88487303 183 174 189
0.20810261 -0.079480745 -0.88650107 181 170 184
0.20794491 -0.07956852 -0.88622385 182 172 185
0.20603406 -0.078867093 -0.88453519 179 170 189
0.20760675 -0.079078078 -0.88627172 178 168 183
0.20623864 -0.079385705 -0.88420314 183 173 190
0.20689514 -0.079753265 -0.88439262 182 171 186
0.20665419 -0.079966359 -0.88353866 181 169 184
0.20869069 -0.08139354 -0.883443 176 165 178
0.20780404 -0.080761455 -0.88351333 178 167 180
0.20775977 -0.080445535 -0.88417679 180 168 182
0.20801567 -0.080575339 -0.8842786 180 168 181
0.21028374 -0.081482664 -0.88609058 160 149 155
0.21077459 -0.081464559 -0.8870368 154 143 146
0.21016453 -0.081145614 -0.88664925 164 153 159
0.20967251 -0.081122577 -0.88579589 170 159 167
0.21092635 -0.081986345 -0.8861115 149 138 141
0.21082997 -0.082288206 -0.8852368 148 138 142
0.21080139 -0.081691034 -0.88656318 152 142 145
0.21147332 -0.082978398 -0.88502675 141 128 131
0.20996019 -0.08235047 -0.88364857 163 150 160
0.21233816 -0.082940236 -0.88652074 125 115 112
0.21013658 -0.082669757 -0.88337159 163 148 157
0.21017829 -0.082625017 -0.88351995 162 147 156
0.21266727 -0.083780222 -0.88563389 120 104 103
0.22887701 -0.083706975 -0.88637251 104 125 200
0.21268202 -0.084355325 -0.88465834 117 93 96
0.21255636 -0.084742896 -0.88374919 118 88 94
0.21362613 -0.084101364 -0.88663781 100 86 82
0.21382464 -0.085316263 -0.88476729 89 62 68
0.21508788 -0.085137822 -0.88707143 69 58 58
0.21384488 -0.084145345 -0.88690358 97 83 79
0.21532822 -0.085716262 -0.88640916 62 46 50
0.21407443 -0.084600821 -0.8864454 90 74 73
0.21380366 -0.084726155 -0.885795 93 73 74
0.21570137 -0.086384237 -0.88539404 56 37 45
0.21617594 -0.086537264 -0.88585597 47 31 39
0.21476071 -0.086104758 -0.88435721 75 48 58
0.21557581 -0.086477272 -0.88459271 63 41 51
0.21539629 -0.086489737 -0.8840602 69 45 56
0.21604355 -0.086854421 -0.88389689 63 41 53
0.21630022 -0.086913563 -0.88426691 57 37 49
0.22030522 -0.087246999 -0.88490903 26 15 33
0.21999204 -0.087373443 -0.88601291 28 15 30
0.21873526 -0.087169349 -0.88692033 31 17 28
0.21821691 -0.086924911 -0.88650119 30 19 29
0.21791476 -0.086825043 -0.88646793 30 19 29
0.21966058 -0.087332122 -0.88631415 29 15 30
0.21681874 -0.087294206 -0.88361919 55 37 50
0.21838999 -0.087222323 -0.88326263 43 29 46
0.21682587 -0.087139927 -0.88440055 50 33 45
0.2182592 -0.086811766 -0.88541073 29 21 33
0.21729299 -0.086998478 -0.88490528 42 28 40
0.21893243 -0.087026469 -0.88400936 33 23 39
0.22404052 -0.086404353 -0.8858555 30 33 69
0.22341825 -0.086540513 -0.88586473 32 33 68
0.22394775 -0.086865433 -0.88663805 22 20 46
0.22235343 -0.087204508 -0.88664436 28 20 44
0.22338895 -0.086014591 -0.88492179 42 50 95
0.22424588 -0.086952791 -0.88690406 18 15 39
0.22333997 -0.085738137 -0.8843087 46 58 109
0.22352038 -0.085521638 -0.88374847 47 61 115
0.22227728 -0.086394519 -0.88454521 38 40 78
0.22106703 -0.086865611 -0.88344604 25 22 47
0.22300257 -0.086000934 -0.88465303 44 52 99
0.22366519 -0.085415542 -0.88363379 48 64 120
0.22834173 -0.084197178 -0.88640958 89 110 188
0.22845446 -0.084523514 -0.88702852 78 97 173
0.22593096 -0.085921928 -0.88668889 40 48 93
0.22498362 -0.085824378 -0.88545805 37 48 95
0.2253592 -0.085736699 -0.8857221 41 52 101
0.22528189 -0.08599636 -0.88609594 36 44 87
0.22518639 -0.085958414 -0.88592201 36 45 89
0.22520842 -0.086502902 -0.88691163 26 28 61
0.22882572 -0.08419162 -0.88693261 90 111 188
0.21566673 -0.076134361 -0.90059537 122 88 110
0.21464518 -0.075570986 -0.89969951 145 120 136
0.21592945 -0.075841658 -0.90108311 111 72 97
0.21427815 -0.075517215 -0.8992902 155 134 148
0.21325308 -0.07359799 -0.89919072 160 143 152
0.21311542 -0.072903231 -0.89944887 145 129 138
0.2156194 -0.075191304 -0.9010973 110 72 95
0.21633868 -0.074819088 -0.90142536 88 54 81
0.21561605 -0.074213676 -0.90101773 97 68 91
0.21679126 -0.075236902 -0.90169054 83 45 74
0.21632202 -0.072872162 -0.90092313 72 59 84
0.21466692 -0.072435901 -0.90023178 101 90 106
0.21310897 -0.072361708 -0.89966679 131 117 126
0.21778014 -0.074500643 -0.90269202 65 39 68
0.21713203 -0.075572073 -0.90218091 82 42 71
0.21760322 -0.073875338 -0.9022823 64 47 75
0.21776019 -0.073549666 -0.90238172 60 48 75
0.21731246 -0.073514707 -0.90185243 64 49 76
0.21635722 -0.076929711 -0.90050322 109 73 96
0.21461323 -0.076558009 -0.89884943 155 138 150
0.2162106 -0.077335522 -0.89984542 117 86 106
0.21631186 -0.077344492 -0.89995635 114 82 102
0.21667714 -0.076855958 -0.90097511 100 59 84
0.216929 -0.076820396 -0.90133309 93 51 77
0.21726179 -0.077447586 -0.90102142 93 55 79
0.21863182 -0.078674227 -0.90134555 86 56 76
0.21776946 -0.077050544 -0.90215272 82 40 67
0.22004202 -0.079343773 -0.90238339 73 46 65
0.21784806 -0.078827187 -0.90014523 98 71 89
0.21758173 -0.078701317 -0.89994854 101 73 91
0.21810283 -0.077348106 -0.90223271 81 40 66
0.21767813 -0.077938877 -0.90097922 92 57 80
0.21843362 -0.079366319 -0.90018064 92 65 83
0.21868899 -0.079569049 -0.9002012 87 59 78
0.21818452 -0.07936345 -0.89982957 93 66 84
0.21973959 -0.079960547 -0.90103716 73 45 65
0.22008467 -0.081402987 -0.89933133 48 24 44
0.21984284 -0.08102344 -0.89955854 56 30 51
0.21943799 -0.080729365 -0.89942384 64 36 57
0.22017759 -0.080793455 -0.90038377 58 32 52
0.220791 -0.080222435 -0.9021306 63 37 57
0.22209115 -0.082093611 -0.90104514 35 17 36
0.22142547 -0.082196958 -0.89999145 32 13 32
0.22187126 -0.08247336 -0.90016586 29 11 30
0.22140579 -0.080438137 -0.90266812 59 38 55
0.2220145 -0.081434213 -0.90195554 45 26 44
0.221516 -0.081937119 -0.90051246 36 17 36
0.22175176 -0.082551479 -0.89988518 27 9 29
0.22189347 -0.083495662 -0.89884788 22 11 20
0.22397307 -0.083241105 -0.90185726 21 10 28
0.22249824 -0.082881793 -0.90041983 25 10 27
0.22350532 -0.083483286 -0.90094167 20 11 24
0.2241395 -0.083647363 -0.90150493 20 10 25
0.24261594 -0.083687007 -0.89993298 128 140 175
0.24301121 -0.082956828 -0.89966172 138 145 177
0.24302873 -0.082432903 -0.8992213 145 149 179
0.24398747 -0.082844086 -0.90046489 142 145 175
0.243848 -0.082430057 -0.8999753 147 148 177
0.24415383 -0.080907784 -0.89893192 167 159 183
0.24495947 -0.081227951 -0.89994383 159 153 177
0.24468225 -0.081175171 -0.89967048 160 154 179
0.24590896 -0.080329739 -0.90008736 167 157 178
0.2458365 -0.080974258 -0.90055126 160 153 175
0.22276922 -0.084206365 -0.8990438 19 11 17
0.22326888 -0.084563524 -0.89920938 19 11 17
0.22388799 -0.084350631 -0.90024483 20 10 20
0.22502927 -0.085311309 -0.90033841 17 9 18
0.22505236 -0.084623389 -0.90123284 19 9 21
0.22776939 -0.086428173 -0.90234041 14 10 16
0.22636481 -0.085135557 -0.9021455 16 10 20
0.22561324 -0.084488899 -0.9019891 18 9 22
0.2251502 -0.085155338 -0.90065908 17 10 19
0.22685008 -0.085682489 -0.90209663 15 10 19
0.22725107 -0.085752226 -0.90249896 15 10 19
0.22636716 -0.085079685 -0.9022131 17 10 21
0.22558843 -0.086546935 -0.89923072 16 10 14
0.22711673 -0.086825296 -0.90073651 14 10 15
0.22800554 -0.087556839 -0.89997399 13 11 15
0.22767514 -0.087127581 -0.90070987 13 10 15
0.22814535 -0.087032311 -0.90169346 13 10 15
0.22797863 -0.087854266 -0.89910269 13 11 15
0.22981592 -0.087886721 -0.90192771 12 10 13
0.22932345 -0.087359115 -0.90260792 12 10 14
0.24014013 -0.087497659 -0.90227962 15 20 44
0.23711891 -0.087797374 -0.89938402 6 6 30
0.23918375 -0.08590883 -0.89919257 61 75 108
0.23726387 -0.087324858 -0.89893234 20 23 49
0.23867127 -0.087745942 -0.90100408 8 10 33
0.23999099 -0.087740391 -0.90243053 8 11 34
0.2385509 -0.086704329 -0.89953053 38 46 75
0.24369098 -0.084397115 -0.90161389 114 126 161
0.24252133 -0.084394507 -0.90053111 111 127 163
0.24371094 -0.084963851 -0.90222335 97 111 146
0.24197249 -0.084812291 -0.90048218 97 115 152
0.24110803 -0.085432343 -0.90049672 77 93 128
0.24218036 -0.085928701 -0.90209043 65 76 108
0.24129829 -0.08692731 -0.90259308 34 41 67
0.24237821 -0.085392177 -0.90157479 81 95 130
0.240712 -0.085017517 -0.89960968 88 107 145
0.24236369 -0.085266158 -0.90139943 85 100 135
0.24230582 -0.08629059 -0.90266854 55 64 93
0.24421474 -0.084732503 -0.90243882 105 117 151
0.22833556 -0.08810924 -0.89896113 14 13 16
0.22911148 -0.08792153 -0.90077835 12 11 15
0.23129451 -0.088682659 -0.9017489 13 10 13
0.22935867 -0.088111207 -0.90053642 13 12 15
0.23208852 -0.088783875 -0.90264779 12 9 12
0.2306031 -0.088582642 -0.90053338 13 11 14
0.22882064 -0.088284537 -0.89884621 14 13 16
0.23040119 -0.088501669 -0.89971733 13 12 13
0.23219666 -0.088747166 -0.90069151 12 10 10
0.23106115 -0.088532068 -0.89928317 13 11 12
0.235347 -0.088432193 -0.90087426 7 4 19
0.23470734 -0.08838404 -0.90060163 7 5 18
0.23615897 -0.088819563 -0.90264571 7 5 16
0.23589596 -0.088284321 -0.90028161 5 3 20
0.23512304 -0.088328138 -0.90039784 7 4 19
0.2331318 -0.088794023 -0.90223956 11 7 13
0.23491037 -0.088278994 -0.89999348 7 4 19
0.23364574 -0.088547431 -0.90060687 9 7 15
0.23299354 -0.088754319 -0.90182954 11 8 13
0.2337483 -0.088402316 -0.89892405 9 7 14
0.23363046 -0.088427231 -0.89897984 9 8 13
0.23257093 -0.088653907 -0.89951742 11 10 10
0.23805673 -0.088169239 -0.90174627 6 5 24
0.23690958 -0.088081442 -0.90010649 4 4 24
0.2366163 -0.088053994 -0.89966565 4 3 24
0.23672244 -0.088614218 -0.90220714 6 5 19
0.23951614 -0.087895215 -0.90216273 6 7 28
0.23640051 -0.087969981 -0.89904648 4 2 24
0.22064808 -0.078009002 -0.91859734 152 114 112
0.22032359 -0.079124779 -0.91873312 160 128 124
0.22106896 -0.07783179 -0.91869342 142 107 104
0.22207236 -0.078041986 -0.91910285 116 89 84
0.22147469 -0.0763079 -0.91842675 127 91 90
0.22132167 -0.078026444 -0.91883379 136 103 99
0.22210209 -0.078042395 -0.91911346 115 89 84
0.22192411 -0.079521291 -0.91951346 120 93 89
0.22377633 -0.07931231 -0.92027402 56 39 40
0.22393599 -0.078078039 -0.91989243 56 40 39
0.22269616 -0.07838548 -0.91944492 98 76 71
0.22441825 -0.078602009 -0.92030317 37 23 25
0.22275159 -0.078818493 -0.91962916 94 72 68
0.22356373 -0.079953909 -0.92041379 60 41 44
0.22818215 -0.076864921 -0.92058957 46 41 46
0.22816305 -0.077572741 -0.9207806 39 34 38
0.22572029 -0.079353958 -0.92090088 28 17 23
0.22837764 -0.07785558 -0.92089039 35 31 35
0.22772139 -0.078288652 -0.92091024 33 27 31
0.22679904 -0.078978553 -0.92096043 29 20 25
0.22597674 -0.077212669 -0.92021257 40 31 33
0.22820726 -0.076391578 -0.92045534 50 45 50
0.22579114 -0.07699272 -0.92008638 41 31 32
0.22761774 -0.076275639 -0.92026871 49 43 46
0.22637312 -0.0763859 -0.92000538 45 37 37
0.22711477 -0.076389126 -0.92018765 47 40 42
0.22866413 -0.078699954 -0.92080218 27 23 26
0.22935015 -0.078960158 -0.91929752 25 22 25
0.2288132 -0.080007538 -0.92081797 14 11 12
0.22877894 -0.078418039 -0.92046118 30 26 29
0.22860588 -0.077447243 -0.92059278 39 35 39
0.22878973 -0.076317094 -0.9196263 67 63 68
0.22946547 -0.078480907 -0.91875792 40 36 40
0.22939305 -0.078370884 -0.91892964 38 35 39
0.21987608 -0.081083268 -0.91895449 170 143 141
0.22064579 -0.081741594 -0.91944885 161 128 125
0.21951367 -0.082214408 -0.91900539 176 152 153
0.21969986 -0.081769004 -0.91899925 172 147 147
0.22455965 -0.082201339 -0.92116475 25 10 19
0.22344546 -0.0830644 -0.92083913 64 44 51
0.22289351 -0.081820853 -0.92047977 84 62 66
0.22438131 -0.080435678 -0.92088693 32 16 23
0.22359735 -0.083118677 -0.92090392 59 40 47
0.22425169 -0.081016898 -0.92090607 36 20 27
0.22105479 -0.081000455 -0.91949725 148 116 113
0.22083069 -0.080467694 -0.9192965 155 123 117
0.22181447 -0.080696806 -0.91978407 121 94 92
0.22108524 -0.081676051 -0.91963708 147 116 114
0.22199824 -0.08169397 -0.92005318 115 89 89
0.22145222 -0.082659811 -0.91998661 135 105 106
0.22785322 -0.083084211 -0.92194813 17 10 14
0.22638914 -0.083503641 -0.92170107 19 9 16
0.22701459 -0.08394289 -0.92192513 19 10 15
0.22789842 -0.082468756 -0.92184025 16 10 13
0.22788493 -0.08267732 -0.92187721 16 10 13
0.22666964 -0.081706844 -0.92143524 18 9 14
0.22475144 -0.081752934 -0.921152 23 9 17
0.22584032 -0.080767445 -0.92119902 20 9 15
0.2247961 -0.081770971 -0.92116082 23 9 17
0.22593907 -0.081502035 -0.92130095 20 9 15
0.22556025 -0.08200445 -0.92130351 21 9 16
0.23073418 -0.081353314 -0.91870213 14 10 13
0.22981831 -0.080947764 -0.92008179 13 10 12
0.22990777 -0.081171714 -0.92027622 13 10 11
0.23143683 -0.082507573 -0.91914964 13 10 12
0.22951366 -0.080822207 -0.92055738 13 10 11
0.23230414 -0.083413482 -0.91925728 13 10 13
0.23238543 -0.083860807 -0.92088813 13 10 13
0.22936206 -0.080839805 -0.92108995 13 10 11
0.23098142 -0.082489669 -0.92112374 13 10 12
0.23227718 -0.083340451 -0.9190532 13 10 13
0.22914201 -0.081396602 -0.92161316 14 10 12
0.23072547 -0.083002746 -0.92151743 14 10 13
0.22886014 -0.081164069 -0.92164052 14 10 11
0.22919814 -0.082370915 -0.92178571 15 10 12
0.23008509 -0.083675019 -0.92180961 15 10 13
0.23247248 -0.08359959 -0.91930348 13 10 13
0.21976034 -0.086584881 -0.91966915 177 150 154
0.22063063 -0.08627525 -0.92003608 164 131 133
0.22036915 -0.087239377 -0.91999185 169 137 140
0.22051492 -0.087150678 -0.92005056 167 134 136
0.22247487 -0.087564118 -0.92094803 101 74 80
0.22294751 -0.086176053 -0.92096019 83 60 67
0.22409242 -0.084883615 -0.92129165 41 24 33
0.22229306 -0.087413639 -0.92084354 107 80 86
0.22420664 -0.086067304 -0.92151618 38 20 29
0.2231227 -0.084892064 -0.92089307 76 55 61
0.22190614 -0.084192373 -0.92037278 119 92 95
0.22118543 -0.085210606 -0.92017317 145 114 117
0.22083643 -0.086003654 -0.92009926 158 125 127
0.22158483 -0.08400704 -0.92023534 130 101 104
0.22325505 -0.084747881 -0.92093295 71 50 58
0.22798865 -0.084815636 -0.92226046 18 10 15
0.22734635 -0.085215628 -0.92218423 20 9 15
0.22488926 -0.08491683 -0.92159373 23 8 18
0.22750585 -0.083995596 -0.92204446 19 10 16
0.22668013 -0.085130565 -0.92202538 20 9 16
0.22478041 -0.086298704 -0.92177105 23 7 17
0.22777906 -0.084098965 -0.92212063 18 10 15
0.2312817 -0.084620282 -0.92212075 15 11 14
0.23129056 -0.08439526 -0.92192197 15 11 14
0.23035619 -0.084017284 -0.92183119 15 11 14
0.23473719 -0.085481092 -0.91949469 12 9 13
0.23246923 -0.084007181 -0.92118871 13 10 13
0.23396686 -0.084767252 -0.91868097 11 8 13
0.2338195 -0.084840029 -0.91988915 12 9 13
0.23260209 -0.084675983 -0.92164075 14 11 14
0.23467062 -0.085485905 -0.91963059 12 9 13
0.23245394 -0.084850051 -0.92198741 14 11 14
0.23516506 -0.086403109 -0.92136449 12 9 12
0.23520274 -0.086446121 -0.92150927 12 9 12
0.23509975 -0.086346343 -0.92122346 12 9 12
0.23448178 -0.086129837 -0.9218744 13 10 13
0.23357145 -0.085555695 -0.9212532 13 10 14
0.23553032 -0.086409584 -0.92022753 12 9 12
0.23735723 -0.087385908 -0.92036563 10 8 10
0.23762694 -0.087528087 -0.92022949 10 8 9
0.23793849 -0.087809287 -0.92099452 10 8 8
0.23799495 -0.087683558 -0.91973984 10 7 8
0.2367264 -0.087187678 -0.92124283 11 8 10
0.23674843 -0.087047338 -0.92030579 11 8 11
0.23973003 -0.090244263 -0.92045075 9 7 5
0.23989545 -0.090274669 -0.92155111 9 7 5
0.24021095 -0.091013879 -0.91866577 9 7 5
0.23973629 -0.090327322 -0.91989315 9 7 5
0.23999612 -0.090385303 -0.92154682 9 7 5
0.2389432 -0.089028381 -0.91960108 9 7 6
0.2390822 -0.089306116 -0.91959929 9 7 6
0.23826796 -0.088492438 -0.92150229 10 8 8
0.23937084 -0.08948797 -0.91867673 9 7 6
0.24060561 -0.09146107 -0.91985512 8 6 5
0.24048999 -0.091356076 -0.91994256 9 7 5
0.2403601 -0.091065437 -0.92024434 9 7 5
0.24347438 -0.093908988 -0.9212895 7 5 4
0.24400595 -0.093884923 -0.92020869 7 4 4
0.24304549 -0.092656389 -0.91971463 7 5 4
0.24313989 -0.093532793 -0.92121679 7 5 4
0.2430864 -0.093229681 -0.9207378 7 5 4
0.24206048 -0.092704609 -0.92172432 8 6 4
0.24277025 -0.093395591 -0.92167217 7 5 4
0.24194303 -0.092170253 -0.91898483 7 5 4
0.24196264 -0.092212714 -0.92084825 8 5 4
0.2421985 -0.092268944 -0.91865683 7 5 4
0.24227972 -0.092298418 -0.91844893 7 5 4
0.2475353 -0.094299868 -0.92045444 5 3 2
0.24656525 -0.094945326 -0.92161244 6 3 3
0.24652733 -0.09414082 -0.9203909 5 3 3
0.24668242 -0.094132937 -0.92035127 5 3 3
0.24695452 -0.094878659 -0.92144144 6 3 3
0.24698251 -0.095263042 -0.9220233 6 3 3
0.24513188 -0.093504988 -0.91925061 6 3 3
0.24461459 -0.094817944 -0.92175776 6 4 4
0.24468815 -0.094467014 -0.9210853 6 4 4
0.24754177 -0.093036756 -0.91843653 5 3 2
0.24475752 -0.09420988 -0.92059314 6 4 4
0.24535763 -0.093155988 -0.91858739 6 3 3
0.25079343 -0.094733022 -0.92134172 5 2 2
0.25128382 -0.09363994 -0.91921192 5 3 2
0.25170562 -0.094081737 -0.92024446 5 3 2
0.25074267 -0.094659574 -0.92117542 5 2 2
0.24908812 -0.094949871 -0.92131883 5 3 2
0.25144121 -0.094181187 -0.92037737 5 3 2
0.24951847 -0.093095332 -0.91843694 5 3 2
0.24871922 -0.093141489 -0.9185549 5 3 2
0.24962188 -0.094335787 -0.92032468 5 3 2
0.25056285 -0.093286432 -0.91866666 5 3 2
0.24875064 -0.094089799 -0.92000091 5 3 2
0.24825978 -0.093889728 -0.91972458 5 3 2
0.25456348 -0.094378859 -0.91982114 29 22 21
0.25261882 -0.095006756 -0.92222732 8 4 4
0.25576127 -0.09482348 -0.92164016 25 18 16
0.25496703 -0.094603933 -0.92073292 26 19 18
0.25444895 -0.094851948 -0.92169452 19 13 12
0.25478098 -0.094569087 -0.92058623 26 19 18
0.25368637 -0.094345376 -0.92007118 21 16 15
0.25319654 -0.094639972 -0.92090452 17 12 11
0.25460362 -0.093931727 -0.91879666 30 24 22
0.25294301 -0.094034716 -0.91976529 15 10 9
0.25321266 -0.094477519 -0.92056048 17 12 11
0.25392494 -0.093823291 -0.91888052 24 18 17
0.25720736 -0.095290676 -0.92225933 26 16 17
0.25868493 -0.095595956 -0.92211241 31 18 21
0.23301157 -0.12953098 -0.92209625 12 8 8
0.23336716 -0.13010333 -0.92215014 12 8 8
0.23263595 -0.12998649 -0.92200857 13 9 9
0.23265626 -0.12858799 -0.92205238 13 9 9
0.23187743 -0.13212276 -0.92180324 13 9 10
0.23214275 -0.13235249 -0.92182714 13 9 9
0.23232266 -0.1336454 -0.921785 13 9 9
0.23184215 -0.134711 -0.92166603 14 10 10
0.23144987 -0.13251856 -0.92172563 14 10 10
0.23226921 -0.13206613 -0.92185867 13 9 9
0.2317431 -0.13102068 -0.92182547 14 9 9
0.23509742 -0.13438943 -0.92224956 12 8 7
0.23332766 -0.13326864 -0.9219926 13 9 8
0.23287787 -0.13437945 -0.92184639 13 9 8
0.23335077 -0.13472879 -0.92191213 13 9 8
0.23285548 -0.13101937 -0.92201865 12 8 8
0.23354562 -0.13181897 -0.92211455 12 8 8
0.23271504 -0.13108386 -0.92198753 12 8 8
0.22938724 -0.1385237 -0.92122287 14 12 15
0.23204859 -0.13612442 -0.92164558 14 10 10
0.23045796 -0.1381233 -0.92137295 14 11 13
0.23106569 -0.13701046 -0.92148948 14 11 12
0.23008753 -0.13713861 -0.92136073 13 11 13
0.23154698 -0.13641183 -0.92157179 14 10 10
0.2312983 -0.13486913 -0.92158735 15 10 11
0.23084627 -0.13528758 -0.92151493 15 11 12
0.23591794 -0.13820197 -0.92225349 12 8 7
0.23357959 -0.13723265 -0.92186439 13 9 8
0.23515856 -0.13604851 -0.92219299 12 8 7
0.23425059 -0.13866071 -0.92193484 12 8 8
0.23391947 -0.1380178 -0.92189789 13 9 8
0.23379302 -0.13491821 -0.92198503 13 9 8
0.23423918 -0.13534307 -0.92205119 12 8 7
0.23421992 -0.13586283 -0.92202932 12 8 8
0.23289512 -0.13743548 -0.92173278 13 9 9
0.23214659 -0.14195105 -0.92144608 13 10 10
0.23220071 -0.14052819 -0.92150408 13 10 10
0.23169658 -0.1425246 -0.92135632 13 10 10
0.23241696 -0.14129312 -0.92151099 13 10 10
0.23048764 -0.14244835 -0.92117143 13 10 12
0.23131299 -0.1407831 -0.92135745 13 10 11
0.23211136 -0.13879025 -0.92155612 13 10 10
0.22870038 -0.14140359 -0.9209584 13 11 15
0.2353683 -0.14003079 -0.92211825 12 8 7
0.23490462 -0.13967519 -0.92203909 12 8 8
0.23611704 -0.14112139 -0.92223889 11 8 7
0.23338668 -0.13881893 -0.92177582 13 9 9
0.23457642 -0.13890283 -0.92199028 12 8 8
0.23349708 -0.1405347 -0.92175561 13 9 9
0.23258436 -0.13890392 -0.92162776 13 9 9
0.23299336 -0.14012609 -0.92166793 13 9 9
0.23465243 -0.1417847 -0.92194575 12 9 8
0.23285472 -0.14199011 -0.92157501 13 10 9
0.22790237 -0.1432866 -0.92068374 18 13 17
0.22722125 -0.14506955 -0.92046303 24 15 19
0.2270284 -0.14598465 -0.92039067 26 15 19
0.22846475 -0.1430531 -0.92083621 13 10 14
0.23009087 -0.14625712 -0.92102849 14 9 10
0.23088062 -0.14550193 -0.92116952 14 9 10
0.22907513 -0.14624839 -0.92086226 14 9 10
0.23097332 -0.14512515 -0.9211905 13 9 10
0.23188841 -0.14434135 -0.92135245 14 10 10
0.22963165 -0.14391659 -0.92100185 13 10 12
0.23070604 -0.14337058 -0.92118174 13 10 11
0.22917861 -0.1434001 -0.92094404 13 10 13
0.22854076 -0.1440161 -0.92083019 13 10 13
0.22863868 -0.14327379 -0.92086333 13 10 14
0.23483783 -0.14588024 -0.92184132 12 8 9
0.23561542 -0.14574525 -0.92197812 11 7 8
0.23469694 -0.14606349 -0.92180854 12 8 9
0.23604034 -0.14426948 -0.92212361 11 7 7
0.2360304 -0.14320652 -0.92217553 11 8 7
0.23284309 -0.14380082 -0.92153335 13 10 9
0.23380546 -0.14352204 -0.92173231 12 9 8
0.23274654 -0.14464431 -0.92150092 13 10 9
0.23277541 -0.14566661 -0.92149103 13 9 9
0.23425418 -0.14378051 -0.92181909 12 9 8
0.23306167 -0.14261109 -0.92159593 13 10 9
0.23663992 -0.1445343 -0.92225575 15 10 9
0.22668608 -0.1498013 -0.9202044 29 9 20
0.22674549 -0.14976166 -0.92022026 28 9 20
0.22687508 -0.14889951 -0.9202823 27 9 19
0.22671281 -0.14955635 -0.9202196 29 9 20
0.22702995 -0.14711441 -0.9203679 26 12 19
0.23145606 -0.1488273 -0.9211145 13 8 10
0.23073334 -0.14997964 -0.92093939 13 8 10
0.23157598 -0.14958046 -0.92107493 13 8 10
0.23100595 -0.14940196 -0.9210158 13 8 10
0.22950554 -0.14966036 -0.9208073 14 8 10
0.23023176 -0.14968511 -0.92089736 14 8 10
0.22879297 -0.14959066 -0.92070264 14 8 10
0.23152301 -0.14667164 -0.92125309 14 9 10
0.22889547 -0.14892274 -0.92074305 14 8 10
0.22895913 -0.14691576 -0.92082441 14 9 10
0.23050569 -0.14764248 -0.9210521 14 9 10
0.22948979 -0.14756989 -0.92088819 14 8 10
0.23502554 -0.15001513 -0.92146581 12 7 12
0.23405974 -0.14903076 -0.92148077 12 7 10
0.23530221 -0.14999457 -0.92149979 12 7 13
0.23593129 -0.14747338 -0.9218899 11 7 10
0.23433843 -0.14947915 -0.92145562 12 7 11
0.23318195 -0.14797011 -0.92142606 13 8 9
0.23265974 -0.1494173 -0.92123353 13 8 9
0.23506467 -0.14741293 -0.9217813 11 7 9
0.23511285 -0.14679311 -0.92183441 11 7 9
0.23326585 -0.14717481 -0.92149782 13 8 9
0.23801307 -0.14854091 -0.920542 25 17 17
0.23741639 -0.14728236 -0.92204571 25 17 17
0.23790841 -0.14804739 -0.92130286 27 19 18
0.23805979 -0.14794752 -0.92168516 31 21 21
0.23830797 -0.15035385 -0.91911238 22 15 16
0.23727864 -0.14853728 -0.92062014 16 11 12
0.23711626 -0.14868765 -0.92080271 15 10 12
0.23755065 -0.14942734 -0.92016983 18 12 14
0.23685332 -0.14786561 -0.92123312 14 9 11
0.23817134 -0.14941217 -0.91940111 21 14 14
0.2369933 -0.14676391 -0.92216533 19 13 13
0.22842288 -0.15152338 -0.92055994 16 8 10
0.22617847 -0.15309626 -0.92004716 36 16 21
0.22674368 -0.1521651 -0.92020023 30 14 19
0.22845894 -0.15148789 -0.92056865 16 8 10
0.22805031 -0.15334845 -0.92040473 21 10 11
0.22717649 -0.15114315 -0.92030412 26 10 17
0.22617219 -0.1504814 -0.92005867 33 9 23
0.2260486 -0.1526681 -0.92003191 36 16 22
0.23207518 -0.15084314 -0.92105943 13 8 9
0.23165795 -0.15124482 -0.92098862 13 8 9
0.23079142 -0.15303728 -0.92080313 14 9 8
0.23225118 -0.15338033 -0.92098117 12 8 7
0.22919142 -0.15405291 -0.92055249 17 9 8
0.229256 -0.1523087 -0.92063665 16 8 9
0.2303199 -0.15104681 -0.92082781 14 8 10
0.22941165 -0.15081929 -0.92072314 14 8 10
0.22910517 -0.15224673 -0.92062038 16 8 9
0.23135833 -0.15140347 -0.92094314 14 8 9
0.23458965 -0.15427136 -0.92113048 19 13 13
0.23592782 -0.15128444 -0.92146575 14 8 14
0.23541263 -0.15299547 -0.92129242 18 12 14
0.235165 -0.15327689 -0.92125177 18 12 14
0.23583792 -0.15379113 -0.92126131 22 15 16
0.23422877 -0.15114488 -0.92129785 12 7 11
0.23328796 -0.15105675 -0.92119461 12 7 10
0.23576784 -0.1507367 -0.9214887 12 7 14
0.23269357 -0.1516189 -0.92110479 12 8 9
0.23300415 -0.15306851 -0.92108208 12 8 8
0.23488425 -0.15142791 -0.92136085 12 7 12
0.23639934 -0.15416028 -0.921022 26 18 19
0.23654011 -0.15278277 -0.92064369 24 15 19
0.23634759 -0.15059651 -0.92148209 13 7 15
0.23685248 -0.15046899 -0.92087156 15 9 15
0.23689735 -0.15104771 -0.92049485 19 12 17
0.23672047 -0.15088493 -0.92080474 17 10 16
0.2367848 -0.15044691 -0.92096782 15 9 15
0.23774166 -0.15170009 -0.91908467 26 18 19
0.22400871 -0.1554281 -0.91944909 68 44 44
0.2244554 -0.15797882 -0.91948402 55 37 26
0.22346577 -0.15674363 -0.91922456 84 64 57
0.22551218 -0.15790132 -0.91971666 42 27 19
0.22771901 -0.15577063 -0.92023987 24 14 11
0.22727349 -0.15682803 -0.92011178 27 17 13
0.22842291 -0.15608343 -0.92037117 17 10 10
0.22541773 -0.15776424 -0.91970247 43 28 19
0.22620411 -0.15774469 -0.91986239 36 23 17
0.22514433 -0.15719749 -0.91966993 46 28 20
0.22671832 -0.15497415 -0.92007184 32 17 16
0.22562239 -0.15673831 -0.91978306 42 25 19
0.22765489 -0.15441321 -0.9202795 25 12 12
0.2248617 -0.15554261 -0.91968244 48 24 25
0.23047331 -0.15731308 -0.92052943 12 8 10
0.23103762 -0.1570584 -0.92059135 12 8 9
0.2303149 -0.15812372 -0.92043465 12 8 10
0.23191284 -0.15659556 -0.92069447 11 8 8
0.23180097 -0.15754819 -0.92058772 11 7 9
0.22879642 -0.1547326 -0.92047524 17 9 8
0.22862434 -0.15460627 -0.92045718 17 9 8
0.22935326 -0.15622509 -0.92049485 14 9 9
0.22888577 -0.15772253 -0.92037982 13 9 11
0.22931769 -0.15464188 -0.92054689 16 9 8
0.23408309 -0.1575705 -0.92050725 27 19 15
0.23521544 -0.15551107 -0.9210242 22 15 16
0.23434006 -0.15756315 -0.92046881 30 21 17
0.2324547 -0.15798551 -0.92058319 11 7 8
0.23535 -0.15443306 -0.92117083 22 15 16
0.2329396 -0.15564711 -0.92086416 13 9 9
0.23261869 -0.15643752 -0.92075747 12 8 8
0.23452468 -0.1557495 -0.92097151 19 13 14
0.2334961 -0.15708555 -0.92075497 15 10 11
0.2230619 -0.162094 -0.91905439 95 78 64
0.22308429 -0.16012231 -0.91908711 96 76 63
0.2241616 -0.16008922 -0.91937715 63 46 34
0.22319955 -0.16171719 -0.91909647 91 74 60
0.22423065 -0.15965463 -0.91940165 61 44 32
0.2271743 -0.15979835 -0.92001694 25 18 15
0.22815423 -0.16060087 -0.92017794 15 11 11
0.22641657 -0.16053978 -0.91985369 32 23 17
0.22678554 -0.16179389 -0.9198873 28 21 15
0.22613667 -0.1606604 -0.91979778 35 25 18
0.22706355 -0.160312 -0.9199816 26 19 15
0.22685622 -0.15972431 -0.91995728 28 20 16
0.22539221 -0.16000654 -0.91965711 42 29 20
0.22657391 -0.15875605 -0.91991329 32 21 17
0.22660482 -0.15847123 -0.91992342 31 21 16
0.22607784 -0.16022038 -0.91979301 36 25 18
0.23230883 -0.15894483 -0.92055392 11 7 10
0.23197386 -0.15951084 -0.92052585 12 7 11
0.22949566 -0.16146651 -0.92029536 11 8 9
0.23081118 -0.16092202 -0.92042267 12 8 12
0.231985 -0.15903075 -0.92052215 11 7 10
0.22861011 -0.15924411 -0.92029035 13 9 11
0.22891353 -0.15938452 -0.92030525 12 9 10
0.228608 -0.16131534 -0.92023128 11 9 9
0.2304869 -0.15943249 -0.92040217 11 8 9
0.23035319 -0.1598575 -0.92038172 11 8 9
0.2333882 -0.15852728 -0.92040712 24 16 14
0.23289537 -0.15899195 -0.92049038 18 12 13
0.2344289 -0.15898097 -0.92024565 39 27 21
0.23292027 -0.15854874 -0.92048198 18 12 12
0.22360489 -0.16247541 -0.91917682 79 63 50
0.22261654 -0.1625156 -0.9189086 109 90 76
0.22240688 -0.16238911 -0.91886026 115 96 82
0.22787808 -0.16308226 -0.92003447 17 11 12
0.2285127 -0.16325109 -0.92017388 10 8 8
0.22849751 -0.1631605 -0.92017269 10 8 8
0.22698458 -0.16388579 -0.91981238 26 16 16
0.22882485 -0.1638515 -0.92019087 10 8 9
0.22881654 -0.16449691 -0.920174 9 7 9
0.22945137 -0.16216807 -0.92029589 12 9 11
0.26362625 -0.098512597 -0.93403518 46 33 38
0.26351985 -0.10007361 -0.934672 48 35 38
0.20997798 -0.079915635 -0.88837028 175 163 174
0.21118777 -0.079302102 -0.89067596 161 146 162
0.20948583 -0.079050735 -0.88905525 173 160 178
0.21066473 -0.079372846 -0.88996238 166 152 167
0.21136247 -0.07985118 -0.89008027 164 149 161
0.21040903 -0.079803929 -0.88903612 171 158 170
0.21202143 -0.081825554 -0.88798428 139 128 129
0.21200792 -0.080149941 -0.89040262 160 144 154
0.21082915 -0.080731429 -0.88819176 162 150 156
0.21049403 -0.081132554 -0.88722068 160 149 154
0.21193767 -0.080946513 -0.88916409 151 137 143
0.21271841 -0.082709529 -0.88750809 123 113 109
0.21261901 -0.081645966 -0.88893777 137 124 126
0.21455933 -0.083808705 -0.88861263 101 87 86
0.21339089 -0.083258152 -0.88767439 113 103 99
0.21580394 -0.08378122 -0.89060676 99 82 87
0.21431036 -0.083115309 -0.88928413 113 98 100
0.21382283 -0.081927009 -0.89024657 130 113 119
0.21310769 -0.082523599 -0.88829881 124 112 110
0.2152815 -0.083282791 -0.89052534 108 91 96
0.2136029 -0.082504794 -0.88908136 123 109 110
0.21474452 -0.082492918 -0.89084023 120 102 109
0.21671323 -0.084528565 -0.89088833 76 63 68
0.2158026 -0.085249387 -0.88799894 66 53 56
0.21539478 -0.085086815 -0.88764852 70 58 59
0.21561901 -0.084228866 -0.88955516 90 75 78
0.21485235 -0.084324926 -0.88816965 89 76 75
0.2155353 -0.084064923 -0.88971949 94 78 81
0.21929707 -0.086584046 -0.88914299 44 29 39
0.21999222 -0.087118417 -0.88897765 34 20 30
0.22024317 -0.087229617 -0.88984853 28 16 24
0.22038643 -0.087477759 -0.88824248 31 15 28
0.21811141 -0.085541897 -0.89091414 55 44 49
0.21824576 -0.085703909 -0.89021313 56 43 50
0.21996276 -0.086977497 -0.89033186 30 20 26
0.21698861 -0.085650064 -0.8890416 53 41 47
0.21886167 -0.086703546 -0.88813859 42 27 38
0.21784839 -0.08641994 -0.88808411 42 29 37
0.22035292 -0.087545097 -0.88741434 34 16 31
0.21769178 -0.085443169 -0.88984513 61 47 55
0.21708077 -0.085129067 -0.89008367 64 51 57
0.21926823 -0.087236121 -0.88736618 34 18 30
0.22372939 -0.087853342 -0.88997889 16 12 19
0.22311564 -0.087761097 -0.89028805 15 12 19
0.22245932 -0.087758176 -0.89074206 16 11 16
0.22170833 -0.08761356 -0.89079481 16 10 15
0.22345109 -0.087162189 -0.88835037 15 11 27
0.22081502 -0.087518029 -0.89021176 19 10 17
0.22133757 -0.0874516 -0.88971579 19 10 19
0.22301722 -0.087306343 -0.88734418 20 11 30
0.22144268 -0.087414414 -0.88988739 18 10 19
0.22145866 -0.087453455 -0.88940448 19 10 20
0.2209256 -0.087558575 -0.88948482 21 10 19
0.22827305 -0.084750943 -0.88725817 73 91 162
0.22598521 -0.087476812 -0.8893463 23 21 38
0.2283317 -0.086268105 -0.88888472 43 51 92
0.22680984 -0.086574234 -0.88867831 39 44 79
0.22572412 -0.087506324 -0.88928652 22 21 37
0.22705723 -0.086528994 -0.88871664 40 45 81
0.22712803 -0.086992949 -0.88923246 31 33 59
0.2269097 -0.085616857 -0.88729131 52 62 114
0.22626376 -0.086113073 -0.88750917 42 48 90
0.2282493 -0.084713444 -0.88714653 73 91 163
0.22476888 -0.087271363 -0.8880375 18 15 34
0.22864024 -0.087075993 -0.88989741 28 31 53
0.22893853 -0.086300492 -0.88931268 46 54 89
0.2320987 -0.084151924 -0.8901369 94 122 181
0.22978516 -0.084775344 -0.88847959 80 98 158
0.22937365 -0.084738277 -0.88802278 81 98 161
0.23031308 -0.085022084 -0.88928384 74 93 145
0.23054278 -0.085624136 -0.89017558 61 77 117
0.22992881 -0.086519577 -0.8905353 41 50 77
0.23049541 -0.084557794 -0.88895971 85 106 166
0.22990017 -0.08667849 -0.89068037 38 45 70
0.23146655 -0.085305013 -0.89079666 65 86 131
0.23255411 -0.084250614 -0.89074522 88 117 176
0.22440709 -0.087937817 -0.8897478 17 12 20
0.2257635 -0.088119894 -0.89092559 16 12 19
0.22498374 -0.087988913 -0.88996571 17 12 20
0.21760368 -0.074919492 -0.90411681 99 65 79
0.2179341 -0.076088168 -0.90394151 110 72 93
0.21794041 -0.074636623 -0.90507495 121 97 102
0.21900195 -0.075985663 -0.90636712 173 159 160
0.21854958 -0.074903063 -0.9062081 154 141 138
0.21865195 -0.075160518 -0.90623444 158 145 143
0.21781667 -0.07283587 -0.90566063 115 104 97
0.21821982 -0.072592124 -0.90308779 55 56 77
0.21804366 -0.072590835 -0.90440369 85 81 88
0.21787588 -0.073815621 -0.90347791 75 56 76
0.21777679 -0.073023707 -0.90562403 115 102 96
0.22027498 -0.078036793 -0.90508419 120 97 109
0.2203601 -0.077284202 -0.90652454 138 112 124
0.22058713 -0.078501739 -0.90476149 103 77 92
0.21807662 -0.076435611 -0.90366083 102 64 87
0.21944159 -0.077654354 -0.90421349 114 89 103
0.21832995 -0.076918565 -0.90324789 90 51 75
0.21883434 -0.076899841 -0.90439385 121 93 107
0.21906203 -0.076581642 -0.90553302 152 133 139
0.21974586 -0.077716254 -0.90475786 128 109 118
0.21814038 -0.076760456 -0.90314877 88 47 72
0.22170311 -0.079224966 -0.90514743 79 53 70
0.22153254 -0.078673586 -0.90585625 94 66 83
0.22282778 -0.079572424 -0.90618843 65 40 58
0.2208984 -0.0781608 -0.90582001 110 81 97
0.22146741 -0.078341678 -0.90633786 103 74 91
0.2224164 -0.079792917 -0.90520358 61 36 54
0.224443 -0.082130462 -0.90429115 32 19 36
0.22185683 -0.080570839 -0.90309691 56 35 52
0.22184619 -0.080500022 -0.9031989 57 35 53
0.22403258 -0.082127042 -0.9036718 32 17 36
0.22265002 -0.080969609 -0.90358591 48 29 47
0.22367206 -0.081084281 -0.90487748 42 22 40
0.22332476 -0.080474019 -0.90538549 48 26 44
0.22230871 -0.08009918 -0.9045338 57 33 51
0.22185053 -0.080693968 -0.90288371 55 35 52
0.2264917 -0.083859496 -0.90420341 20 13 25
0.22785386 -0.083981022 -0.90608722 22 16 25
0.2246649 -0.082328297 -0.90431088 32 21 36
0.22536096 -0.082378425 -0.9052425 33 24 36
0.22696686 -0.083370045 -0.90588421 26 19 29
0.22527874 -0.082380697 -0.90511835 33 23 36
0.22731559 -0.083530165 -0.90611857 25 19 28
0.22583157 -0.082222104 -0.90619975 37 28 37
0.22677721 -0.083356664 -0.90562987 26 18 29
0.2284876 -0.08546333 -0.90482885 16 12 19
0.227589 -0.084724925 -0.90452892 19 13 22
0.22692288 -0.08409752 -0.90442908 20 13 24
0.22718424 -0.084372252 -0.90442467 19 13 23
0.2274894 -0.08569283 -0.90289336 15 10 19
0.22782631 -0.085910186 -0.9030965 15 10 18
0.22778542 -0.085680977 -0.90338141 16 11 19
0.22954436 -0.087282091 -0.90344751 12 10 14
0.23047519 -0.087588571 -0.90442687 13 11 14
0.22928897 -0.087191902 -0.90320742 12 10 15
0.22965357 -0.086847 -0.9046157 14 11 16
0.23010209 -0.086732619 -0.90552139 14 12 16
0.22895898 -0.084925905 -0.90641659 17 13 20
0.23039213 -0.086639956 -0.90613562 15 12 16
0.2309487 -0.087302022 -0.90603203 14 12 15
0.22928908 -0.085406959 -0.9062202 17 13 19
0.22895618 -0.085732527 -0.90518051 16 12 18
0.22883464 -0.084673166 -0.90659982 18 13 21
0.24169198 -0.086910389 -0.9029153 37 42 68
0.24215572 -0.086849332 -0.90318584 39 45 71
0.24082257 -0.087800063 -0.90323305 10 11 32
0.24073353 -0.087611303 -0.90296775 15 17 40
0.24290058 -0.087490782 -0.90440756 20 22 44
0.2429565 -0.08713907 -0.90407366 31 35 59
0.24417315 -0.087768279 -0.90562755 12 13 32
0.24463068 -0.087810285 -0.90596682 10 8 27
0.24513531 -0.087261252 -0.90574664 25 24 44
0.23219436 -0.088396847 -0.90529025 13 11 13
0.23119095 -0.087968506 -0.90446621 12 11 13
0.23158233 -0.088151865 -0.90453589 13 11 13
0.23155519 -0.08819484 -0.90424335 13 10 13
0.2356451 -0.089035861 -0.90475595 9 7 13
0.23598364 -0.088834718 -0.9032197 7 5 16
0.23496515 -0.089124471 -0.90619177 11 9 11
0.2352771 -0.089132071 -0.90578544 10 8 11
0.23531698 -0.089249492 -0.90634251 11 8 10
0.23346883 -0.08868248 -0.90481389 12 9 13
0.23295604 -0.088652223 -0.905213 13 10 13
0.23434791 -0.088726193 -0.90420783 10 8 14
0.23502021 -0.088846937 -0.90290815 9 6 15
0.2341149 -0.088663734 -0.90485567 11 8 14
0.23813997 -0.08860673 -0.90339112 7 5 18
0.23721616 -0.088842064 -0.90339386 7 5 15
0.23805815 -0.088595428 -0.90329969 7 5 19
0.23895985 -0.088761695 -0.90442628 7 5 15
0.23916505 -0.088929936 -0.90505457 7 4 12
0.23833223 -0.088560104 -0.90339726 7 5 19
0.23923126 -0.089272909 -0.90644974 7 4 7
0.23659001 -0.088889107 -0.9031409 7 5 15
0.23661043 -0.08910396 -0.9042747 7 5 13
0.23685879 -0.089263692 -0.90523249 8 6 11
0.2377916 -0.089362189 -0.90620726 8 6 8
0.24132024 -0.088895962 -0.90640515 6 3 9
0.24099691 -0.088572137 -0.90529329 6 4 15
0.24023718 -0.088211685 -0.90381104 6 7 23
0.24294682 -0.088405401 -0.90601587 5 2 15
0.24317242 -0.08825139 -0.90571922 5 2 17
0.24087749 -0.088907883 -0.90616792 6 4 10
0.24268597 -0.087969117 -0.90482718 7 7 26
0.21909946 -0.073267244 -0.90767002 112 105 94
0.22043212 -0.075759679 -0.908243 150 137 131
0.22020376 -0.075268082 -0.90816706 141 129 123
0.2201698 -0.074962854 -0.90823585 130 119 113
0.22000493 -0.074032888 -0.90837926 101 93 87
0.22005823 -0.072683953 -0.90890181 46 43 38
0.21859892 -0.073356435 -0.90709895 138 130 116
0.21895209 -0.075257055 -0.90673512 169 159 154
0.21965431 -0.074917935 -0.90768683 149 138 129
0.22194947 -0.072726749 -0.9105252 41 41 48
0.22301069 -0.07394667 -0.91038895 33 33 41
0.22148612 -0.072883233 -0.90990424 9 9 12
0.22160363 -0.072578758 -0.91031915 31 31 37
0.22172439 -0.074336886 -0.90937996 42 39 40
0.22104262 -0.075523458 -0.90873373 115 105 102
0.22107041 -0.075668216 -0.90869349 120 109 107
0.22098087 -0.073676944 -0.90934902 45 41 40
0.22151119 -0.073265895 -0.90967518 8 8 9
0.22184446 -0.07560347 -0.9089849 88 80 80
0.21955898 -0.076454818 -0.90670002 170 155 157
0.22381619 -0.079828814 -0.90713304 51 32 46
0.22214611 -0.078658737 -0.9067654 91 65 81
0.22142874 -0.077434294 -0.90758449 121 101 108
0.22111651 -0.077652626 -0.90694582 120 93 107
0.22123025 -0.077350788 -0.90746641 125 103 111
0.22439721 -0.079429515 -0.90803844 39 29 39
0.22196569 -0.076752387 -0.90853918 110 99 100
0.22386715 -0.07857769 -0.90828246 52 43 50
0.22368857 -0.076411195 -0.90930969 42 38 44
0.22393437 -0.076985396 -0.90910649 37 33 40
0.22359671 -0.078442156 -0.90825659 61 51 58
0.22558807 -0.077244453 -0.9102667 14 14 24
0.22516908 -0.077752501 -0.90949178 20 17 27
0.22475225 -0.079911701 -0.90804791 34 24 34
0.2259206 -0.077899233 -0.91045123 15 14 23
0.22608066 -0.079232767 -0.91012561 21 17 25
0.22467197 -0.078037821 -0.90886992 20 15 25
0.22422434 -0.080517486 -0.90668762 48 31 44
0.22461823 -0.080251589 -0.9075644 38 27 38
0.22631274 -0.080507636 -0.90951443 31 24 31
0.22610864 -0.081005149 -0.90856302 40 31 38
0.22556961 -0.080609202 -0.90837157 38 29 37
0.22677886 -0.081490032 -0.90881127 42 34 40
0.22768691 -0.082509704 -0.90839082 34 27 33
0.22628084 -0.081599221 -0.90790921 42 33 40
0.22807331 -0.083126239 -0.90790236 29 23 29
0.228249 -0.082280397 -0.90958893 35 28 34
0.22682339 -0.082637854 -0.90693009 34 26 34
0.22805429 -0.082784265 -0.90845454 31 25 31
0.22746649 -0.082444042 -0.90818471 35 27 34
0.22890414 -0.082858071 -0.9096666 31 26 30
0.22915527 -0.083037391 -0.90979826 30 25 29
0.22899683 -0.082701355 -0.91009337 32 27 31
0.23032428 -0.083876602 -0.91040343 27 24 25
0.23001499 -0.084367156 -0.909159 23 20 24
0.22924966 -0.084228814 -0.90802026 21 17 23
0.23211028 -0.086109646 -0.91040683 24 22 28
0.23084071 -0.084677272 -0.91016704 25 22 25
0.2288077 -0.08430402 -0.90715009 20 15 22
0.23073025 -0.085801303 -0.90827692 20 17 23
0.23174788 -0.086770833 -0.90849704 19 17 22
0.23039898 -0.085732974 -0.90773952 19 16 22
0.23143555 -0.085925207 -0.90946162 23 20 26
0.2310743 -0.085731134 -0.90910077 22 19 26
0.23101804 -0.086804479 -0.90696621 16 14 17
0.23217934 -0.08695744 -0.90901303 20 19 23
0.23220557 -0.087667897 -0.90772879 17 16 18
0.23282479 -0.086903058 -0.91011852 23 21 26
0.23265816 -0.087221034 -0.90930736 21 20 24
0.23294519 -0.087184757 -0.90974218 22 20 25
0.24598387 -0.087744728 -0.9068175 8 5 23
0.24869902 -0.087126508 -0.90812057 27 24 39
0.24837327 -0.087840378 -0.90853393 7 3 18
0.23314169 -0.08828859 -0.90796071 17 14 16
0.23462877 -0.088696972 -0.90944958 15 12 15
0.23507741 -0.088614531 -0.91018587 16 14 17
0.23515563 -0.088563919 -0.91036433 16 14 18
0.23597358 -0.089488253 -0.90699238 10 8 9
0.23369817 -0.088868491 -0.9073807 13 10 11
0.23630564 -0.089597598 -0.91001117 10 8 9
0.23425137 -0.089017354 -0.90699261 12 10 11
0.23493724 -0.089207806 -0.90746737 11 9 10
0.23602235 -0.089501098 -0.90691316 10 8 9
0.23838712 -0.089812845 -0.91007215 9 6 7
0.23979734 -0.089603908 -0.90840304 7 5 6
0.23996033 -0.089387834 -0.90747297 7 4 6
0.2400886 -0.089277111 -0.90696889 7 4 6
0.23857249 -0.089941829 -0.91045368 9 6 7
0.23961738 -0.0900869 -0.91036868 8 6 5
0.23743364 -0.089494549 -0.90919834 9 6 8
0.23733638 -0.089501739 -0.90887749 9 6 8
0.23765454 -0.089469239 -0.90846598 9 6 8
0.23860958 -0.089376777 -0.90806139 8 5 7
0.23777023 -0.089450076 -0.90712172 9 6 8
0.24282369 -0.089369275 -0.90884972 6 3 8
0.24223892 -0.090009101 -0.91029739 7 4 5
0.24208821 -0.089554094 -0.90918773 6 3 8
0.24085043 -0.089981601 -0.91003525 7 5 6
0.24271894 -0.090065733 -0.91050076 7 4 4
0.24406856 -0.089530274 -0.90941083 6 2 6
0.24133742 -0.088997848 -0.9067257 6 3 8
0.24091029 -0.089548886 -0.90848649 7 4 6
0.24137144 -0.089413017 -0.90834856 6 4 7
0.24074548 -0.089500949 -0.90816516 7 4 6
0.2416524 -0.089200698 -0.90776706 6 3 8
0.24714093 -0.087948456 -0.90786934 5 1 17
0.24765046 -0.088888913 -0.90974814 8 3 9
0.24677359 -0.08804106 -0.90775609 5 1 16
0.24626629 -0.088664174 -0.90847474 6 2 11
0.2459162 -0.088748455 -0.90841305 6 2 10
0.24555223 -0.089297846 -0.90954959 7 2 7
0.24422131 -0.089621164 -0.90967745 6 2 6
0.24452542 -0.089568891 -0.90969992 6 2 6
0.24486469 -0.089418046 -0.90950364 6 2 7
0.24513783 -0.089543052 -0.90993506 7 2 6
0.246133 -0.08945249 -0.91020113 7 3 6
0.24844997 -0.088992119 -0.91036105 8 3 9
0.24887459 -0.088932328 -0.91043687 8 3 10
0.24890868 -0.088350952 -0.90951419 6 2 14
0.25921932 -0.098954976 -0.93049592 37 25 15
0.25960925 -0.10279996 -0.93176043 40 26 19
0.25945348 -0.10026653 -0.93124199 38 26 15
0.25976098 -0.10139285 -0.93168813 39 26 16
0.25781751 -0.10204174 -0.93031329 44 31 20
0.25830743 -0.10208071 -0.930664 42 29 19
0.25830081 -0.10090893 -0.93039197 41 28 17
0.25869226 -0.10214313 -0.93094671 41 28 19
0.25922999 -0.10316195 -0.93155426 41 28 20
0.25939772 -0.10461207 -0.93085676 39 28 19
0.25760168 -0.10387391 -0.93020678 46 33 22
0.25760353 -0.10395188 -0.93014443 46 33 22
0.20480649 -0.078987747 -0.88293409 182 174 193
0.20574537 -0.07975772 -0.88264114 179 168 185
0.20650928 -0.080116525 -0.8830024 180 168 182
0.20708704 -0.08060281 -0.88281965 177 165 181
0.20774981 -0.081025727 -0.8828727 176 164 179
0.20893668 -0.081739038 -0.88308477 174 163 177
0.21423779 -0.085983917 -0.88287985 87 55 69
0.21481431 -0.086115755 -0.88220817 75 47 68
0.21587805 -0.086891189 -0.88314325 69 45 58
0.21634798 -0.086852588 -0.88199896 56 34 59
0.21667664 -0.087076142 -0.88222235 54 33 57
0.22036338 -0.085727133 -0.88091493 32 47 90
0.22035632 -0.086352319 -0.88199055 29 33 66
0.22015963 -0.086136483 -0.88158822 32 39 76
0.22008115 -0.087038055 -0.8831287 28 21 42
0.2187859 -0.086755179 -0.88243997 42 37 62
0.21805862 -0.086758018 -0.88233161 49 42 67
0.2198347 -0.086781345 -0.88264823 32 28 53
0.21746799 -0.086318381 -0.88004225 38 28 73
0.21888866 -0.085818775 -0.88047528 42 49 93
0.21753566 -0.086315468 -0.88014823 39 29 74
0.21809915 -0.085997269 -0.87982959 37 34 83
0.21901523 -0.085560538 -0.87964064 36 45 98
0.21813074 -0.086302906 -0.88113332 46 43 80
0.2215308 -0.085492812 -0.88138074 35 52 101
0.22256835 -0.085427426 -0.8822915 40 58 110
0.22254178 -0.08538612 -0.88219416 40 59 112
0.22118059 -0.086516336 -0.88279802 27 29 60
0.22150701 -0.086463839 -0.88302958 29 32 64
0.22104239 -0.086130589 -0.88199741 28 37 74
0.22114828 -0.085534059 -0.88107443 32 50 97
0.21113335 -0.076181948 -0.89484 172 159 179
0.2123726 -0.077608824 -0.89476329 171 152 171
0.21165884 -0.077151366 -0.89440793 170 154 175
0.21218291 -0.079182409 -0.89212769 162 144 159
0.2120584 -0.078862227 -0.89248586 163 146 162
0.21194717 -0.078441173 -0.8930254 165 148 166
0.21242769 -0.079343118 -0.89218539 162 144 157
0.21232693 -0.079459749 -0.89186454 161 143 156
0.21205936 -0.078242861 -0.89349395 167 149 168
0.21226396 -0.078038096 -0.89409339 169 150 169
0.21285358 -0.078395478 -0.89426446 168 148 165
0.21314716 -0.078794584 -0.89398301 163 142 157
0.21341021 -0.078669809 -0.89457375 161 140 156
0.21405695 -0.079403006 -0.89424688 150 128 141
0.21378514 -0.079147108 -0.89429486 155 133 147
0.21463826 -0.08078023 -0.89295477 124 104 111
0.21377468 -0.080642343 -0.89192706 137 117 126
0.21658292 -0.081432283 -0.89479005 86 66 70
0.2165505 -0.081957914 -0.89405435 86 66 71
0.21620472 -0.081394069 -0.89431036 91 72 77
0.21387361 -0.080767892 -0.89189851 135 115 124
0.21597303 -0.083523415 -0.89121473 100 82 88
0.21592967 -0.08183834 -0.89335048 98 78 84
0.2157325 -0.082262397 -0.8925249 102 83 89
0.21483071 -0.081237122 -0.89261234 117 98 105
0.21501338 -0.082555152 -0.89114767 116 98 105
0.21677506 -0.083961867 -0.89168417 78 63 66
0.21757302 -0.083445713 -0.89335144 69 51 56
0.21695411 -0.083597288 -0.89239031 76 60 63
0.2173577 -0.082101762 -0.89487928 73 53 58
0.21758768 -0.08305762 -0.89388686 70 50 56
0.21792519 -0.083611235 -0.89356261 65 46 52
0.23456067 -0.083286129 -0.89176923 112 135 187
0.23442461 -0.083683588 -0.89201242 102 128 184
0.23681837 -0.083368547 -0.89408571 109 127 180
0.23741716 -0.083144508 -0.89444512 114 130 181
0.23773745 -0.082930423 -0.89454937 119 134 182
0.23706971 -0.083146013 -0.89411473 115 131 182
0.21693426 -0.084405147 -0.8913548 74 60 65
0.21948048 -0.084409304 -0.89450032 47 26 37
0.22050093 -0.085224204 -0.89485919 37 18 31
0.21973346 -0.084445924 -0.8947733 45 23 34
0.21959442 -0.085630193 -0.89291787 42 28 36
0.21884799 -0.085425593 -0.89225322 50 36 44
0.2183097 -0.085323572 -0.89168829 55 43 49
0.22046399 -0.085505262 -0.89437503 36 19 31
0.21908602 -0.085175715 -0.89305753 50 35 44
0.22004507 -0.086832732 -0.89129096 28 19 24
0.21926945 -0.085163556 -0.8933382 49 33 42
0.22029407 -0.086623184 -0.89203477 28 17 23
0.22383468 -0.08786504 -0.89237136 16 11 15
0.22212657 -0.087690368 -0.89143974 16 11 15
0.22384976 -0.087559678 -0.89403331 15 10 11
0.22241724 -0.087621383 -0.89209545 16 10 14
0.22353591 -0.087583423 -0.89355218 15 10 12
0.22082828 -0.087333202 -0.89140517 18 10 14
0.22205934 -0.086405672 -0.89442772 26 14 21
0.2229349 -0.087377839 -0.89351004 17 11 13
0.22235127 -0.087094389 -0.89343643 19 11 15
0.2219965 -0.086230792 -0.89469117 27 14 22
0.22111803 -0.08703173 -0.89227295 20 11 17
0.22256427 -0.087317459 -0.89323843 17 11 14
0.23195916 -0.086312294 -0.89269239 39 51 84
0.23046133 -0.086799763 -0.89149082 31 39 64
0.2313806 -0.08608263 -0.89168751 45 60 96
0.23176707 -0.087517887 -0.89401722 12 12 28
0.23189098 -0.085108161 -0.89105105 66 90 140
0.23230746 -0.086475797 -0.89332998 34 44 76
0.23161769 -0.087438159 -0.8937313 14 15 32
0.23364361 -0.084042847 -0.89159071 93 123 180
0.23627459 -0.084216334 -0.89443004 87 107 165
0.23387738 -0.084167741 -0.891976 89 117 175
0.23332979 -0.084242277 -0.89151794 87 116 174
0.23245759 -0.087517656 -0.89485371 10 10 27
0.23269121 -0.085130095 -0.89199853 64 87 137
0.232628 -0.086079672 -0.8931638 43 56 93
0.23365305 -0.084849499 -0.89259827 70 93 146
0.23278633 -0.08535666 -0.89238685 59 79 126
0.23321182 -0.084591568 -0.89182287 76 103 160
0.23384771 -0.085425533 -0.89353836 57 74 119
0.23422025 -0.086004585 -0.89466047 43 54 91
0.2229055 -0.087916799 -0.89111167 16 12 16
0.22489057 -0.087894134 -0.8935172 16 11 14
0.22505412 -0.088224769 -0.89155191 18 13 19
0.22751001 -0.088425852 -0.89440757 14 10 13
0.22505835 -0.088233098 -0.8915022 18 13 19
0.22583176 -0.08816427 -0.89330548 16 11 15
0.22678189 -0.08821176 -0.89182818 15 11 17
0.22636484 -0.088374317 -0.89275652 16 12 17
0.22739837 -0.088288978 -0.89252299 14 11 15
0.22724037 -0.088155612 -0.8916055 14 11 16
0.22798432 -0.088461258 -0.89382702 14 10 14
