ply
format ascii 1.0
comment PCL generated
element vertex 790
property float x
property float y
property float z
property uchar red
property uchar green
property uchar blue
element camera 1
property float view_px
property float view_py
property float view_pz
property float x_axisx
property float x_axisy
property float x_axisz
property float y_axisx
property float y_axisy
property float y_axisz
property float z_axisx
property float z_axisy
property float z_axisz
property float focal
property float scalex
property float scaley
property float centerx
property float centery
property int viewportx
property int viewporty
property float k1
property float k2
end_header
-0.18733239 -0.12792577 -0.78854561 119 100 119
-0.1870636 -0.12903419 -0.78835845 117 93 113
-0.1872059 -0.12811142 -0.78840327 119 99 118
-0.18720645 -0.1283384 -0.78844064 119 97 117
-0.1866897 -0.12924266 -0.78787267 120 95 114
-0.18688025 -0.12988923 -0.78821874 118 94 111
-0.18712056 -0.13023984 -0.78860843 115 91 107
-0.18729062 -0.13399565 -0.78898549 130 114 114
-0.18752021 -0.13306612 -0.78930509 120 101 106
-0.18596888 -0.13095587 -0.78697419 142 125 130
-0.18606195 -0.13122077 -0.78711683 142 124 129
-0.18717712 -0.13194513 -0.78877628 122 101 109
-0.18676834 -0.13398767 -0.78829664 133 119 118
-0.18581417 -0.13322189 -0.78698123 139 126 125
-0.18593039 -0.13304769 -0.78710866 140 126 126
-0.1864441 -0.13383834 -0.78786325 135 121 120
-0.18524376 -0.13298307 -0.78624445 141 129 128
-0.18522376 -0.13232918 -0.78614032 144 131 131
-0.18499742 -0.1318654 -0.78587049 147 134 134
-0.18482815 -0.13191327 -0.7857061 148 134 135
-0.18765295 -0.13761894 -0.78910941 128 105 120
-0.18686999 -0.1363827 -0.78828675 130 112 119
-0.18692896 -0.13563143 -0.78847164 130 114 116
-0.18695207 -0.1354755 -0.78852391 129 114 116
-0.18700714 -0.13526244 -0.78862542 129 114 115
-0.18596394 -0.13652299 -0.78701192 119 102 109
-0.18620612 -0.13617662 -0.7874344 127 111 116
-0.18633814 -0.13651551 -0.78754282 125 108 115
-0.18500721 -0.13558722 -0.78597283 123 111 112
-0.18525617 -0.13636111 -0.78607988 113 98 103
-0.18855989 -0.14037152 -0.78936142 130 102 117
-0.188655 -0.14093579 -0.7892251 130 101 114
-0.18962137 -0.14349784 -0.78934938 132 100 109
-0.18929215 -0.14276388 -0.78922689 135 104 111
-0.1929388 -0.15358315 -0.78921187 107 74 87
-0.19339645 -0.1571506 -0.78904551 105 76 90
-0.19315271 -0.15636691 -0.78883034 106 75 88
-0.19308509 -0.15568572 -0.78885418 106 74 87
-0.19331726 -0.15668254 -0.78900164 105 75 89
-0.19283441 -0.15725638 -0.7882427 106 79 88
-0.19307607 -0.15477444 -0.78899777 107 73 87
-0.19344969 -0.15882502 -0.78892714 107 74 93
-0.19309001 -0.15925574 -0.78836405 110 80 94
-0.1945022 -0.16534442 -0.78909093 166 129 146
-0.19391343 -0.16526067 -0.78821409 168 133 150
-0.19385105 -0.16526484 -0.78811508 169 134 151
-0.19379136 -0.1656789 -0.78782946 176 145 158
-0.1942849 -0.16483502 -0.78899008 159 118 140
-0.19324605 -0.16503614 -0.78726453 166 132 150
-0.19331297 -0.16436777 -0.78768927 157 117 141
-0.19325447 -0.16469121 -0.78743935 161 124 145
-0.19415878 -0.1662087 -0.7882179 177 149 158
-0.19436541 -0.16711476 -0.78841627 167 143 148
-0.19487306 -0.16881049 -0.78897566 149 131 129
-0.19420986 -0.16654384 -0.78825182 173 147 155
-0.19390394 -0.1674908 -0.78760809 171 150 153
-0.19371213 -0.16857979 -0.78700256 178 159 159
-0.19398428 -0.16901508 -0.78737956 171 154 151
-0.19429098 -0.1697221 -0.78775173 163 148 143
-0.19362524 -0.1669438 -0.78724664 178 155 160
-0.19321118 -0.16888894 -0.7860797 187 168 168
-0.19300732 -0.16856143 -0.78582788 184 164 165
-0.19304767 -0.16656876 -0.78634667 179 156 163
-0.19337663 -0.1712456 -0.78585225 154 136 133
-0.19355604 -0.17344153 -0.78579926 89 68 67
-0.19351622 -0.1723074 -0.78592175 121 102 99
-0.19419427 -0.17164199 -0.78723842 120 102 99
-0.19385059 -0.17166923 -0.7866239 129 111 108
-0.19453686 -0.1700922 -0.78811044 152 138 132
-0.19424795 -0.17202608 -0.78726828 108 90 87
-0.19525754 -0.17025442 -0.78933138 132 117 111
-0.19419573 -0.17319524 -0.7868759 90 68 69
-0.19500925 -0.17077006 -0.78880453 124 108 103
-0.19417398 -0.17299126 -0.78689826 93 72 71
-0.19429901 -0.17343375 -0.78697044 87 63 65
-0.19573158 -0.17255436 -0.78943372 98 73 78
-0.19312491 -0.17003094 -0.78568017 186 168 165
-0.19611675 -0.17728312 -0.78922063 131 97 122
-0.19494651 -0.17570557 -0.78771764 74 43 54
-0.19527459 -0.17665631 -0.78807336 97 65 81
-0.19578049 -0.17483881 -0.78904599 88 57 69
-0.19563746 -0.17497252 -0.78882015 85 54 67
-0.19444196 -0.17698421 -0.78681648 77 45 57
-0.19448847 -0.17533296 -0.78704405 73 44 52
-0.19450669 -0.17500058 -0.78709692 75 47 54
-0.1950203 -0.17470178 -0.78791553 76 47 55
-0.19464441 -0.17437814 -0.78735667 78 51 57
-0.19513252 -0.17406499 -0.78813684 79 51 58
-0.19539827 -0.17456196 -0.78851199 76 46 56
-0.19613369 -0.18042846 -0.78914446 150 123 133
-0.19622628 -0.17814243 -0.78931588 144 111 135
-0.19606221 -0.17859951 -0.78906971 145 114 133
-0.19608776 -0.17919213 -0.78909737 146 117 133
-0.19477944 -0.18088554 -0.78716558 145 134 115
-0.1956073 -0.17881343 -0.78840399 143 118 127
-0.19542536 -0.18089727 -0.78810573 148 130 124
-0.19527818 -0.17833297 -0.78793079 124 96 108
-0.19469367 -0.17805769 -0.7870822 101 71 83
-0.1954648 -0.17818917 -0.78820503 127 97 113
-0.19460461 -0.17982146 -0.78692728 133 119 106
-0.19516982 -0.17821774 -0.78777438 118 89 103
-0.19429231 -0.17896402 -0.78648394 107 85 82
-0.19939624 -0.133081 -0.80809295 108 78 95
-0.19961157 -0.13370606 -0.80836856 120 88 103
-0.19891055 -0.1327612 -0.80760711 101 72 91
-0.20015703 -0.13321371 -0.80880809 110 83 95
-0.19828103 -0.13153382 -0.80687612 76 52 75
-0.19902001 -0.13339943 -0.80774361 113 82 100
-0.19930625 -0.13437697 -0.80796218 132 99 113
-0.19745536 -0.13341987 -0.80570287 108 84 101
-0.19824085 -0.13434295 -0.80658019 127 99 113
-0.1985641 -0.13283081 -0.80723953 102 73 93
-0.19846527 -0.13370265 -0.8069734 117 88 104
-0.19787179 -0.13556381 -0.8057726 136 109 118
-0.19754452 -0.13478687 -0.80559993 133 107 118
-0.19919381 -0.13504228 -0.80766428 139 107 118
-0.19830795 -0.13555698 -0.80634284 138 109 118
-0.19855194 -0.13684937 -0.80623901 143 112 117
-0.19823867 -0.13492483 -0.80645883 135 107 118
-0.19728722 -0.13477315 -0.8052693 132 108 118
-0.19925147 -0.13820487 -0.80797184 127 73 107
-0.19974215 -0.13698655 -0.80881047 128 76 109
-0.19867091 -0.1378904 -0.80626595 144 108 115
-0.1983642 -0.13838047 -0.80563146 146 112 116
-0.19961229 -0.13693704 -0.80843735 131 83 111
-0.20151895 -0.14205143 -0.80884874 140 80 115
-0.20114748 -0.14183767 -0.80812639 140 81 112
-0.20062982 -0.14086045 -0.80849558 130 66 109
-0.19978279 -0.13994905 -0.80795497 133 77 115
-0.19992185 -0.14030088 -0.80781323 136 81 117
-0.2008799 -0.14136136 -0.80839103 133 70 110
-0.20008309 -0.1402529 -0.80816859 132 72 112
-0.19972043 -0.14197989 -0.80545402 173 144 146
-0.19960266 -0.14095154 -0.80637199 156 117 133
-0.19947743 -0.14001353 -0.80716085 142 94 121
-0.19976148 -0.14166667 -0.80594271 166 132 141
-0.19907595 -0.13898289 -0.80731028 132 81 111
-0.19933319 -0.14062899 -0.80602777 157 120 131
-0.20154034 -0.14358269 -0.80760407 142 105 114
-0.20190954 -0.14334421 -0.80880815 139 94 116
-0.20143776 -0.14274672 -0.80769438 154 109 122
-0.20135953 -0.14591819 -0.8062669 124 95 113
-0.20130239 -0.14461593 -0.8065902 138 103 117
-0.20189306 -0.1461098 -0.80760282 109 84 100
-0.20155326 -0.14576946 -0.80683136 121 92 109
-0.20157428 -0.14441915 -0.80737805 133 100 111
-0.20116742 -0.14534526 -0.80597705 134 101 119
-0.20035867 -0.14317708 -0.80563831 167 136 138
-0.20052388 -0.14436667 -0.80552435 151 120 129
-0.2007696 -0.14535941 -0.80558473 137 104 119
-0.20048475 -0.14425188 -0.80550194 153 123 131
-0.20132154 -0.14791092 -0.8053298 134 107 127
-0.20193405 -0.14800136 -0.80689156 121 99 114
-0.20147236 -0.14813024 -0.80561721 133 108 126
-0.20169017 -0.14788856 -0.80629987 125 102 119
-0.20235859 -0.14663155 -0.80862665 97 76 91
-0.20132944 -0.14699864 -0.80575013 124 98 118
-0.2022035 -0.14810282 -0.80773902 118 99 110
-0.20217563 -0.15035629 -0.80777395 155 146 141
-0.20209014 -0.14969639 -0.80727917 143 129 132
-0.20192347 -0.15000947 -0.80644184 148 131 138
-0.2019119 -0.15018567 -0.80639595 150 134 140
-0.20229471 -0.14952658 -0.80832404 142 132 129
-0.20108959 -0.14687614 -0.80533379 126 98 120
-0.20235839 -0.15197328 -0.80828053 161 150 144
-0.20243649 -0.15123779 -0.808801 160 153 143
-0.20174983 -0.15427472 -0.80536127 158 132 142
-0.20235068 -0.15332305 -0.80780613 165 147 149
-0.20251819 -0.15236941 -0.80871576 165 152 148
-0.20194441 -0.15091766 -0.80656791 155 140 142
-0.20189999 -0.15233129 -0.80630445 156 138 141
-0.20196907 -0.15191621 -0.80667168 156 140 141
-0.20197648 -0.15221357 -0.80670291 156 140 141
-0.20193389 -0.15111452 -0.80650872 155 139 142
-0.20211931 -0.15701288 -0.80565059 164 140 148
-0.20206639 -0.15680991 -0.80553871 163 139 147
-0.2021094 -0.15703127 -0.80560851 164 140 148
-0.1838111 -0.13182014 -0.78464109 150 138 138
-0.18329437 -0.13234536 -0.78413361 148 138 136
-0.18325399 -0.1326316 -0.78411049 147 137 135
-0.18392104 -0.13210848 -0.78477609 149 137 136
-0.18300942 -0.13192521 -0.78380585 151 140 139
-0.18408453 -0.13460265 -0.78510088 134 124 120
-0.18305717 -0.13287914 -0.78391749 145 136 134
-0.18266977 -0.13380207 -0.78351468 136 119 119
-0.18243518 -0.13318509 -0.78323829 140 125 125
-0.18291101 -0.13407826 -0.78378904 134 118 118
-0.18291911 -0.13396755 -0.78379494 135 120 119
-0.19063175 -0.16543587 -0.78297693 124 98 110
-0.19098251 -0.16545613 -0.78349781 132 107 118
-0.19090562 -0.16521673 -0.78348744 129 105 115
-0.19024609 -0.16584232 -0.78221482 118 89 104
-0.19269967 -0.1680849 -0.78542709 177 157 160
-0.19224645 -0.1672671 -0.78490269 166 147 150
-0.19061127 -0.16973436 -0.78191245 143 127 119
-0.19218317 -0.16682145 -0.78489667 164 144 149
-0.19255407 -0.16791892 -0.78523898 174 154 157
-0.19282396 -0.16852041 -0.78552806 181 161 163
-0.19080134 -0.16848639 -0.78245997 142 123 122
-0.19124216 -0.16771905 -0.78328627 148 128 130
-0.19148964 -0.16656904 -0.78390074 148 125 133
-0.19121116 -0.16603492 -0.78359181 140 114 127
-0.19109961 -0.16643628 -0.78333938 139 114 125
-0.19055679 -0.16859059 -0.78206873 137 118 116
-0.19085965 -0.16783284 -0.78268468 140 119 122
-0.19295572 -0.17317326 -0.78483087 104 82 80
-0.19247867 -0.17365156 -0.78397822 92 67 66
-0.19319786 -0.17153504 -0.78552485 146 127 125
-0.19294827 -0.17275791 -0.78489906 115 94 92
-0.19272031 -0.17291038 -0.78450733 112 89 87
-0.19250797 -0.17234981 -0.78427351 127 104 102
-0.19110532 -0.1706267 -0.78246987 142 123 117
-0.19194667 -0.17087354 -0.78369617 154 133 130
-0.19121714 -0.17299873 -0.78211212 108 80 79
-0.19288267 -0.16994458 -0.78532833 186 167 164
-0.19135277 -0.17124498 -0.78270906 137 116 111
-0.1916187 -0.17267203 -0.78279632 121 93 92
-0.19338605 -0.17441921 -0.78535134 81 59 59
-0.19167963 -0.17503965 -0.78274119 101 75 81
-0.19176456 -0.17478147 -0.78286177 98 73 77
-0.19163911 -0.17522053 -0.78268683 102 77 84
-0.1919038 -0.17443968 -0.78306401 95 69 71
-0.19216341 -0.1746664 -0.78348881 96 71 75
-0.19145185 -0.1747569 -0.78236383 99 72 76
-0.19529122 -0.13710323 -0.80066901 140 88 123
-0.19468969 -0.13799074 -0.79934859 136 78 113
-0.19510353 -0.13798872 -0.80013478 142 82 122
-0.1954176 -0.13715798 -0.80089802 142 89 126
-0.19438963 -0.13816687 -0.79874343 133 74 107
-0.19727507 -0.14153415 -0.80116642 136 84 138
-0.19694413 -0.14176491 -0.80047995 132 85 131
-0.19674461 -0.1424605 -0.79949635 124 86 121
-0.19663191 -0.14096721 -0.80068064 138 85 133
-0.19700871 -0.14127499 -0.80098236 136 84 136
-0.1958645 -0.14171806 -0.79898304 129 89 117
-0.19587238 -0.14045219 -0.79998958 139 87 127
-0.19563916 -0.14134906 -0.79894799 132 89 117
-0.19580394 -0.13905081 -0.80099249 150 86 137
-0.1947858 -0.13909237 -0.79909223 138 77 115
-0.19425331 -0.13956033 -0.79774487 128 73 101
-0.19454104 -0.1391968 -0.79855245 134 75 109
-0.19442594 -0.13928193 -0.79827267 132 74 106
-0.19534917 -0.14024487 -0.79933399 138 87 121
-0.19548562 -0.13896264 -0.80051434 148 84 132
-0.1979419 -0.14501558 -0.80084032 128 97 114
-0.1973335 -0.14609033 -0.79799879 123 97 102
-0.19800146 -0.14607292 -0.8003915 127 100 106
-0.19762172 -0.14596725 -0.79910696 125 98 105
-0.19758196 -0.14484502 -0.79970104 125 93 112
-0.1973601 -0.14372721 -0.79964298 124 88 118
-0.19669805 -0.14544208 -0.79745692 122 96 102
-0.19646871 -0.1431517 -0.79863948 122 89 113
-0.19615842 -0.14324921 -0.79816782 122 90 109
-0.19656993 -0.14486887 -0.79765975 122 94 104
-0.19645604 -0.14463362 -0.79766232 122 94 104
-0.1991251 -0.1492673 -0.80046558 139 107 118
-0.19816327 -0.14648685 -0.80069512 128 102 104
-0.19824019 -0.14761145 -0.79948956 130 103 108
-0.19806071 -0.14655225 -0.80024344 127 102 104
-0.19817531 -0.14738689 -0.79955375 130 102 107
-0.19797373 -0.14724275 -0.79902476 128 102 105
-0.19734932 -0.1501548 -0.79823792 89 68 80
-0.19735682 -0.14680122 -0.79766512 122 97 99
-0.19770986 -0.14882106 -0.79844314 111 86 95
-0.19948891 -0.15034479 -0.80086231 139 105 120
-0.19882011 -0.14945343 -0.79989761 131 101 112
-0.19773027 -0.14982432 -0.79864198 101 78 90
-0.1968265 -0.14977707 -0.79751325 90 71 83
-0.1970433 -0.14754696 -0.79740435 112 90 95
-0.19745147 -0.1531212 -0.79751855 154 132 142
-0.1976238 -0.15090802 -0.79844528 106 83 96
-0.19779254 -0.15351488 -0.79781222 172 147 157
-0.19893703 -0.1507203 -0.80009609 133 103 117
-0.19858173 -0.15160328 -0.79938215 145 117 129
-0.19754413 -0.15196811 -0.79800826 129 106 118
-0.19924898 -0.15133363 -0.80028951 154 121 135
-0.19964248 -0.15297388 -0.80065924 152 123 134
-0.19973826 -0.15223761 -0.80091035 149 118 130
-0.19976319 -0.15266441 -0.800888 150 120 131
-0.19929917 -0.15176065 -0.80030572 154 122 135
-0.19797653 -0.15389331 -0.79797792 178 152 162
-0.19923827 -0.15133753 -0.80027252 154 121 135
-0.19722304 -0.15213007 -0.79749304 127 107 119
-0.19947886 -0.15713103 -0.79946065 160 133 142
-0.20019239 -0.15621381 -0.80086458 162 137 145
-0.19895254 -0.15799266 -0.79838061 160 131 141
-0.19941451 -0.15752688 -0.79925877 162 134 144
-0.19874524 -0.15748511 -0.79815876 155 124 135
-0.19945069 -0.15606447 -0.79967028 154 125 135
-0.19806412 -0.15529543 -0.79775649 173 146 156
-0.19811454 -0.15705764 -0.79730731 164 133 144
-0.19900353 -0.15537268 -0.79917181 159 131 141
-0.19897284 -0.1560536 -0.79892141 157 127 138
-0.19941981 -0.15464163 -0.80002761 157 130 140
-0.1983211 -0.15725386 -0.79756498 160 129 140
-0.19905774 -0.15655938 -0.79890037 153 123 133
-0.19910556 -0.1614138 -0.79751492 185 170 168
-0.19843918 -0.15861008 -0.79734302 159 129 139
-0.19925079 -0.16160865 -0.79769093 188 174 171
-0.19943276 -0.16262756 -0.79764664 193 180 178
-0.19974686 -0.16308726 -0.7980032 197 182 182
-0.19961019 -0.16236629 -0.7979064 195 181 181
-0.19953156 -0.16307938 -0.79772437 194 180 179
-0.20119487 -0.17328182 -0.79916501 151 137 127
-0.20037217 -0.17324571 -0.79767865 138 124 116
-0.20085667 -0.17340995 -0.79850644 144 129 120
-0.20112678 -0.17322861 -0.79902065 150 137 127
-0.20118842 -0.17547153 -0.79844356 141 119 117
-0.2013551 -0.1760499 -0.7987442 137 113 115
-0.2012043 -0.17430438 -0.79891217 141 125 118
-0.20057505 -0.17449708 -0.79770148 132 114 109
-0.20031832 -0.17419718 -0.79734671 129 112 106
-0.20141287 -0.1801181 -0.79768556 148 121 135
-0.20157199 -0.18049851 -0.79807097 146 122 136
-0.20157915 -0.18004987 -0.79821116 143 118 132
-0.20141739 -0.18161876 -0.79731756 156 132 148
-0.20163071 -0.18156813 -0.79854059 147 121 137
-0.20172611 -0.18155447 -0.79909128 143 116 133
-0.20187189 -0.18088691 -0.79967022 136 110 126
-0.20166245 -0.18127276 -0.7986058 145 120 136
-0.20180875 -0.18227977 -0.79940128 138 108 122
-0.20175582 -0.18242174 -0.7990467 139 110 123
-0.20357746 -0.13227601 -0.81296366 120 87 112
-0.20365667 -0.13261433 -0.81336641 119 86 112
-0.20287161 -0.13688587 -0.81354535 145 101 123
-0.20253521 -0.13600506 -0.81294602 134 85 118
-0.20268153 -0.1365328 -0.81321442 139 92 120
-0.20263967 -0.13686849 -0.81316358 140 90 120
-0.20249692 -0.13616459 -0.81289166 134 83 118
-0.20302944 -0.14217763 -0.8131144 172 155 153
-0.20270814 -0.14055246 -0.81295097 157 118 137
-0.1869898 -0.17033526 -0.77704334 104 64 88
-0.1906492 -0.12652119 -0.79277748 111 88 109
-0.19038406 -0.12662297 -0.79245687 112 92 112
-0.19064792 -0.12680674 -0.79292154 113 91 112
-0.19106247 -0.12588254 -0.79299319 105 83 103
-0.19027878 -0.12955199 -0.79295439 108 87 100
-0.18969457 -0.12710854 -0.79168499 116 102 120
-0.18998864 -0.12729341 -0.7921322 115 98 116
-0.19018984 -0.12949421 -0.79281884 108 88 101
-0.18956755 -0.12893647 -0.79166931 111 92 108
-0.18964213 -0.12976687 -0.7918669 108 86 101
-0.1898948 -0.1304673 -0.79239011 105 82 95
-0.18825765 -0.12972109 -0.79009277 110 88 104
-0.18896791 -0.12887435 -0.79087538 112 93 109
-0.18872495 -0.12932953 -0.79061908 110 90 106
-0.18929815 -0.12804459 -0.7912091 114 97 115
-0.18800929 -0.12831783 -0.78953248 114 96 113
-0.18798853 -0.12953383 -0.7897042 110 89 105
-0.18876328 -0.12715581 -0.79039031 117 103 121
-0.18992987 -0.13258316 -0.79246068 111 91 96
-0.19016246 -0.1319371 -0.79290617 108 87 94
-0.19024238 -0.13254443 -0.79304844 111 92 95
-0.18948376 -0.13329735 -0.79160225 123 107 106
-0.18950023 -0.13286722 -0.79164118 119 102 103
-0.18929306 -0.13300826 -0.79137111 120 103 104
-0.18889633 -0.1334817 -0.79092133 123 106 106
-0.18883404 -0.13255323 -0.7908684 115 94 101
-0.18792428 -0.13245969 -0.78980285 115 93 102
-0.18897699 -0.13185194 -0.79103953 110 87 98
-0.18843663 -0.13108119 -0.79038703 107 82 96
-0.18813576 -0.13301732 -0.79006243 118 97 103
-0.19029097 -0.13735983 -0.79281473 141 128 131
-0.1901245 -0.13576499 -0.79267931 132 120 115
-0.19002698 -0.13729955 -0.79240334 142 129 133
-0.1903789 -0.13778861 -0.79293507 143 129 135
-0.18952134 -0.13570525 -0.79163009 138 127 122
-0.1890901 -0.1385176 -0.7910161 142 123 140
-0.18913034 -0.13865319 -0.79107749 143 124 142
-0.18927464 -0.13644716 -0.7912696 137 124 125
-0.18846567 -0.13702905 -0.7901333 129 110 118
-0.18803026 -0.13611771 -0.78976411 128 110 115
-0.18802182 -0.13675562 -0.78967404 128 107 116
-0.18849717 -0.13622758 -0.79026973 130 113 116
-0.19030696 -0.13911457 -0.79268056 144 128 142
-0.19071242 -0.13932458 -0.79321319 143 126 138
-0.1905974 -0.13886954 -0.79320163 145 129 141
-0.19015764 -0.14043133 -0.79191846 140 120 135
-0.18952636 -0.14153565 -0.79022193 141 113 124
-0.19026396 -0.14252841 -0.79103345 134 107 116
-0.18980592 -0.14248674 -0.79023468 137 107 116
-0.18982257 -0.14166436 -0.79068619 139 112 123
-0.18998583 -0.14225805 -0.79067409 136 108 118
-0.18994643 -0.14061117 -0.79144806 140 119 133
-0.18922053 -0.13907093 -0.79100722 143 123 141
-0.18896264 -0.13958761 -0.79035705 138 115 131
-0.1893523 -0.13908333 -0.79119736 145 126 143
-0.18818986 -0.13900353 -0.78950465 128 102 121
-0.19262776 -0.14590195 -0.79221153 127 95 112
-0.1916049 -0.14325558 -0.79277569 129 104 117
-0.19044645 -0.14292207 -0.79101318 134 105 116
-0.19199078 -0.14407159 -0.79270393 129 102 116
-0.192551 -0.14472935 -0.79309219 127 100 115
-0.19070137 -0.14272019 -0.79165828 132 106 117
-0.19124709 -0.14285593 -0.79250854 130 106 117
-0.19236618 -0.14476679 -0.79272634 128 100 115
-0.19266202 -0.14481685 -0.79318088 127 101 116
-0.19401757 -0.14928333 -0.7926088 108 81 100
-0.1934147 -0.15000384 -0.79149806 122 97 101
-0.19376433 -0.1490844 -0.7923525 115 87 102
-0.19305278 -0.14924741 -0.79132694 121 95 102
-0.19278471 -0.14876574 -0.79116696 119 92 102
-0.19249395 -0.14819044 -0.79103839 118 90 101
-0.19427581 -0.15181533 -0.79223597 128 103 108
-0.19455269 -0.15113547 -0.79272902 109 83 100
-0.19438824 -0.15228191 -0.79230332 135 109 112
-0.19454263 -0.15123804 -0.79269719 111 85 101
-0.19408078 -0.15227564 -0.79174304 130 102 107
-0.19342771 -0.15325856 -0.79007363 113 80 91
-0.19367741 -0.15276849 -0.79076427 120 90 98
-0.19379333 -0.15350072 -0.79064465 119 87 97
-0.19373025 -0.15366276 -0.7904526 117 85 96
-0.19397534 -0.15290287 -0.79125851 125 96 103
-0.19348924 -0.15351352 -0.79007149 113 80 92
-0.19303885 -0.15326042 -0.78951049 108 76 89
-0.19311412 -0.15245028 -0.78998429 113 82 92
-0.19405214 -0.15555042 -0.79053736 119 88 100
-0.19402862 -0.15699711 -0.79023397 115 87 100
-0.19444317 -0.15643951 -0.79110742 124 97 108
-0.19427322 -0.15554595 -0.7909506 123 93 104
-0.19418831 -0.15456931 -0.7909674 123 91 102
-0.19352658 -0.15432368 -0.78977686 111 75 90
-0.19386984 -0.1581796 -0.78968012 111 84 99
-0.19484478 -0.15667315 -0.79166293 135 109 118
-0.19560233 -0.1562774 -0.7929486 155 132 136
-0.19427708 -0.15797167 -0.79036963 122 96 108
-0.19515112 -0.15544118 -0.79253566 141 115 121
-0.19505808 -0.15595913 -0.79222327 140 114 121
-0.19524933 -0.15622044 -0.79242897 145 121 126
-0.19551492 -0.15957882 -0.79212487 159 126 142
-0.19548513 -0.16055995 -0.79207957 156 121 139
-0.19555348 -0.16068928 -0.79218942 157 123 140
-0.19495134 -0.16157678 -0.79122651 144 98 127
-0.19581081 -0.15943186 -0.79259878 164 137 148
-0.19594269 -0.16001926 -0.79281157 166 140 148
-0.19448134 -0.16051683 -0.79049844 135 87 119
-0.19439645 -0.15939179 -0.79042083 129 92 115
-0.19481793 -0.15842518 -0.79110813 137 112 123
-0.19603218 -0.15832922 -0.79296446 169 151 153
-0.19429241 -0.15841265 -0.79030722 123 96 110
-0.19467729 -0.16068605 -0.79078948 140 92 124
-0.19728898 -0.16529065 -0.79284883 169 142 144
-0.19625019 -0.16574958 -0.79124296 170 141 147
-0.19652954 -0.16520089 -0.79194278 172 144 148
-0.19599168 -0.16583312 -0.79087073 171 141 148
-0.19577207 -0.16471647 -0.79125595 172 143 150
-0.19704548 -0.16451906 -0.7930156 173 147 148
-0.1961135 -0.16445898 -0.79184097 172 144 149
-0.19613211 -0.16387556 -0.79218811 171 143 149
-0.19582111 -0.16489345 -0.79122156 172 143 150
-0.19557093 -0.16321774 -0.79172421 164 130 143
-0.19547074 -0.16371253 -0.79134196 166 133 145
-0.19489138 -0.16298044 -0.79074138 149 104 130
-0.19523941 -0.1630777 -0.79125559 156 117 137
-0.19515885 -0.16430147 -0.79057825 164 128 144
-0.19493891 -0.16277021 -0.79091173 148 103 130
-0.19756791 -0.16642271 -0.79313588 167 143 140
-0.19735578 -0.16705999 -0.79268211 173 155 147
-0.19656435 -0.16904774 -0.79153264 167 159 142
-0.19635367 -0.1680133 -0.79103279 154 134 131
-0.19638307 -0.16802387 -0.79108441 155 136 132
-0.19581889 -0.16980818 -0.79036278 151 142 128
-0.19650327 -0.16803496 -0.79129118 158 141 135
-0.19684441 -0.16794115 -0.79186094 167 152 142
-0.1956027 -0.16816454 -0.79004258 152 130 130
-0.19559789 -0.16767743 -0.79008895 156 132 134
-0.19664362 -0.16614193 -0.79154068 166 138 143
-0.19689114 -0.16661143 -0.79179478 161 136 138
-0.19572273 -0.16846029 -0.79015851 148 129 127
-0.19676059 -0.17340696 -0.79104203 130 108 111
-0.19624867 -0.17344418 -0.79007107 99 74 79
-0.19645506 -0.1727224 -0.79063642 118 100 97
-0.19710399 -0.1730749 -0.79176891 153 136 134
-0.19631523 -0.17218399 -0.79054046 121 105 99
-0.19547042 -0.17018332 -0.78970408 137 123 115
-0.19554944 -0.17051098 -0.78973979 133 118 111
-0.19608028 -0.17228964 -0.79010731 113 93 91
-0.19768135 -0.17422825 -0.79256153 160 140 143
-0.19789997 -0.17390917 -0.79299772 176 157 157
-0.19808359 -0.17394921 -0.79331654 181 163 162
-0.19739026 -0.1764805 -0.79148376 136 113 121
-0.19792645 -0.17630823 -0.7926482 124 101 105
-0.19802141 -0.17662635 -0.79276717 120 97 100
-0.19730742 -0.17637727 -0.79133636 138 116 124
-0.19669572 -0.17727789 -0.79014957 141 111 132
-0.19725017 -0.1754974 -0.79144579 145 122 131
-0.19645956 -0.17713995 -0.78982162 145 112 137
-0.19626114 -0.17704821 -0.78946406 133 99 123
-0.19664581 -0.17618002 -0.7903313 145 115 135
-0.1964094 -0.17505214 -0.79007488 119 89 104
-0.19833973 -0.18014365 -0.7926293 134 107 110
-0.19853957 -0.17927773 -0.79323632 119 93 94
-0.1978202 -0.17876312 -0.79184425 130 105 112
-0.1983754 -0.18040092 -0.79264772 137 109 111
-0.19800234 -0.18025301 -0.79204094 139 111 116
-0.19766524 -0.18087019 -0.79149514 143 113 122
-0.19766745 -0.17901705 -0.79152805 134 109 117
-0.19777942 -0.17965785 -0.79169595 137 110 117
-0.19705653 -0.18086366 -0.79053819 147 117 129
-0.19676515 -0.18161604 -0.7900781 152 123 133
-0.19636317 -0.17928031 -0.78949928 147 116 136
-0.19641213 -0.18104675 -0.78954452 152 125 135
-0.19647181 -0.17853285 -0.78967851 144 112 134
-0.19864134 -0.18176056 -0.79307264 141 110 111
-0.19868106 -0.18173514 -0.79312783 141 110 111
-0.19866174 -0.18255988 -0.793356 133 104 105
-0.19813307 -0.18251106 -0.79249996 137 107 112
-0.19706751 -0.18240774 -0.7906186 135 103 115
-0.19708788 -0.18214796 -0.79061717 140 108 120
-0.19633661 -0.13474682 -0.80336386 131 103 118
-0.19732623 -0.13655847 -0.80463952 135 102 116
-0.19748183 -0.13688564 -0.80476117 138 105 117
-0.19718842 -0.13836068 -0.80369693 138 88 116
-0.19690172 -0.13793448 -0.80339736 140 91 121
-0.19642811 -0.13861738 -0.80234987 146 86 128
-0.19714935 -0.13584167 -0.8046366 135 104 119
-0.19676414 -0.13509685 -0.8041966 135 105 122
-0.19667876 -0.13543428 -0.80393881 136 103 123
-0.19647618 -0.13560937 -0.80346793 137 101 124
-0.1962947 -0.13675125 -0.80282426 143 96 130
-0.19740687 -0.14042464 -0.80245137 138 94 128
-0.19742897 -0.14080475 -0.80216169 139 95 132
-0.19778159 -0.14123906 -0.80241793 143 111 135
-0.19775106 -0.14117154 -0.80242425 143 110 135
-0.19742249 -0.13942897 -0.80332917 139 94 121
-0.19871317 -0.14213742 -0.80337507 160 132 145
-0.19828609 -0.14052661 -0.80389458 152 122 131
-0.19832595 -0.1405316 -0.80396289 153 123 132
-0.19832195 -0.14116529 -0.80344641 153 123 137
-0.19920382 -0.14241548 -0.80404174 170 143 149
-0.19879396 -0.14036444 -0.80494624 161 133 132
-0.1970575 -0.13888802 -0.80316591 139 86 119
-0.19725938 -0.13922539 -0.80319548 137 86 119
-0.19676656 -0.13901341 -0.80257767 142 86 125
-0.19849235 -0.14637415 -0.80153543 130 104 107
-0.19927029 -0.14411066 -0.80359828 161 135 134
-0.19898619 -0.14475404 -0.80290735 152 126 126
-0.19919893 -0.14565861 -0.80295223 139 113 118
-0.19938424 -0.14584389 -0.80319673 136 110 117
-0.20021676 -0.14626251 -0.80443603 130 102 117
-0.19972286 -0.14588453 -0.80374497 136 108 118
-0.19787577 -0.14355145 -0.8012296 139 109 135
-0.19822569 -0.14450209 -0.80159861 139 112 126
-0.1987423 -0.14293788 -0.80297321 159 131 145
-0.19859219 -0.14494255 -0.80214036 144 117 122
-0.19850959 -0.14322111 -0.80247188 153 124 141
-0.19826406 -0.14324114 -0.80202079 148 119 140
-0.20132439 -0.14963186 -0.80439639 148 121 141
-0.20141819 -0.14908183 -0.80507708 143 118 136
-0.20041426 -0.14958087 -0.80272609 143 111 129
-0.2000562 -0.15032361 -0.80170387 146 112 129
-0.20113553 -0.14873764 -0.8043704 141 112 135
-0.20022765 -0.14926438 -0.80264264 139 107 125
-0.20016022 -0.14869657 -0.80290717 137 104 121
-0.20004177 -0.14896351 -0.80255085 138 105 121
-0.19991003 -0.149638 -0.80191892 141 107 123
-0.19969045 -0.14869599 -0.80213153 137 105 119
-0.19934916 -0.14773493 -0.80215389 133 103 114
-0.19960584 -0.14649716 -0.80333829 127 100 111
-0.19940682 -0.14853424 -0.8017599 137 105 117
-0.20151748 -0.15103479 -0.80458546 154 129 145
-0.20164821 -0.15403537 -0.80499822 156 130 141
-0.20159881 -0.1539994 -0.80480456 157 131 142
-0.20128447 -0.15411742 -0.8035059 161 135 146
-0.20129681 -0.15152919 -0.80378634 156 127 146
-0.20079115 -0.15365119 -0.80242664 157 130 142
-0.20085813 -0.15184455 -0.8027032 154 125 143
-0.20080778 -0.15315318 -0.80249971 156 129 142
-0.20010056 -0.15217367 -0.80147529 148 117 131
-0.20025559 -0.15357429 -0.80151409 150 122 134
-0.20070659 -0.1518386 -0.80245447 153 123 141
-0.20027125 -0.15281388 -0.80164647 150 121 134
-0.2016551 -0.15452817 -0.80490911 157 132 141
-0.20194176 -0.15702803 -0.80500585 162 137 146
-0.20173784 -0.15525022 -0.80493677 159 133 143
-0.20032999 -0.15439178 -0.80154663 153 126 136
-0.20104001 -0.1544327 -0.80276626 162 137 146
-0.18985359 -0.16650185 -0.78141481 117 87 102
-0.19013625 -0.16965649 -0.78125834 137 118 113
-0.19018483 -0.16946164 -0.78134608 137 118 113
-0.18887365 -0.16750699 -0.77994734 117 82 100
-0.18809125 -0.16963464 -0.77872986 117 82 98
-0.18873049 -0.16844693 -0.77965432 119 85 101
-0.18809284 -0.1695763 -0.77873927 116 81 98
-0.18814951 -0.16807528 -0.7789939 111 74 95
-0.19047166 -0.17049579 -0.78155011 133 115 108
-0.18980324 -0.17021331 -0.78073829 132 108 106
-0.19024023 -0.17141449 -0.78107667 119 93 91
-0.19022888 -0.17257562 -0.78076535 109 79 82
-0.19002762 -0.17172022 -0.78070426 116 88 89
-0.19004394 -0.17301577 -0.78034818 109 76 84
-0.18925083 -0.17076346 -0.77979404 128 101 106
-0.18860389 -0.17036459 -0.77915317 122 91 102
-0.18787917 -0.17007606 -0.77838105 115 79 97
-0.19090854 -0.12942547 -0.79388666 100 79 94
-0.19150156 -0.12924896 -0.79481113 89 71 86
-0.19126675 -0.12758532 -0.79407799 103 82 101
-0.19148561 -0.12727401 -0.79436702 100 80 100
-0.19114545 -0.1282873 -0.79402989 101 81 98
-0.19152303 -0.13473298 -0.79515046 112 95 91
-0.19149327 -0.13399279 -0.79525095 106 92 90
-0.19059841 -0.1323176 -0.79374409 107 89 93
-0.19058046 -0.1325305 -0.79370528 108 91 93
-0.19351719 -0.13821238 -0.79716408 124 69 92
-0.19161263 -0.13847902 -0.79461843 138 111 124
-0.19321142 -0.13773404 -0.79686618 122 77 92
-0.19150533 -0.1379669 -0.7946474 135 112 123
-0.19165808 -0.1371247 -0.79508609 128 108 116
-0.19092365 -0.13834025 -0.79379672 141 125 135
-0.19103003 -0.13526827 -0.79429531 119 104 100
-0.19146286 -0.13660043 -0.79486859 126 108 113
-0.19154309 -0.13630366 -0.79502755 123 105 109
-0.1911947 -0.13691521 -0.79440308 130 113 118
-0.19072399 -0.13489319 -0.79383498 119 105 98
-0.19128762 -0.13670744 -0.7945739 128 111 115
-0.19384383 -0.13935158 -0.79712957 125 72 95
-0.19464174 -0.14242926 -0.796749 124 98 106
-0.19361851 -0.13932183 -0.79677898 126 78 96
-0.19361678 -0.14178728 -0.79582262 131 106 112
-0.19347793 -0.14159933 -0.79573613 132 106 113
-0.19314657 -0.13926883 -0.79628003 127 80 98
-0.19289942 -0.1411624 -0.79528874 130 100 111
-0.19279541 -0.14065537 -0.79537636 128 93 107
-0.19257176 -0.14184636 -0.79468161 130 105 115
-0.19238263 -0.13963664 -0.79523033 131 94 110
-0.1911443 -0.13987079 -0.79361564 139 119 131
-0.19172092 -0.14110367 -0.79397255 131 105 119
-0.19224504 -0.14064106 -0.79476297 129 95 110
-0.19300401 -0.1392362 -0.79612386 127 81 100
-0.19210163 -0.14021657 -0.79470891 131 99 114
-0.19394082 -0.14536047 -0.79431409 122 94 111
-0.19389684 -0.14396666 -0.79505205 127 103 113
-0.19429173 -0.14432 -0.79530483 122 95 108
-0.19370599 -0.14272411 -0.7955361 131 113 117
-0.19549568 -0.1439085 -0.79691899 121 94 102
-0.1953651 -0.14485015 -0.79623699 121 94 104
-0.19673082 -0.14610812 -0.79709369 122 97 101
-0.19577584 -0.14402004 -0.79717749 121 94 101
-0.19575557 -0.14433621 -0.79697561 121 94 102
-0.19450527 -0.1447954 -0.79528105 121 92 107
-0.19489461 -0.14508972 -0.79556161 121 93 106
-0.19320303 -0.1454809 -0.79340857 129 102 118
-0.19318518 -0.14372393 -0.79438823 132 112 119
-0.19247434 -0.14293507 -0.79409373 130 111 119
-0.19334888 -0.144594 -0.79406494 131 108 119
-0.19577196 -0.14985786 -0.79523021 90 68 89
-0.19520354 -0.15014502 -0.79395509 88 63 91
-0.19630255 -0.14839186 -0.79603863 104 80 94
-0.19657438 -0.14899729 -0.79688519 98 77 89
-0.19601665 -0.15032329 -0.79596692 85 65 85
-0.19601278 -0.14992417 -0.79583037 89 68 87
-0.1952375 -0.14846465 -0.79443359 104 77 99
-0.19668353 -0.14701131 -0.79663169 117 92 100
-0.19609623 -0.14727566 -0.79585963 115 89 101
-0.19461711 -0.14804129 -0.79387838 107 80 103
-0.19468364 -0.14843364 -0.79380935 104 77 101
-0.19530946 -0.14795732 -0.79470408 108 82 100
-0.19535653 -0.1465243 -0.79528898 122 94 106
-0.19466564 -0.14948454 -0.79339939 94 68 96
-0.1973387 -0.1533252 -0.7972343 157 136 146
-0.1959451 -0.15393785 -0.79442149 148 122 128
-0.19713789 -0.15380847 -0.79657382 168 145 154
-0.19634858 -0.15349039 -0.79535729 144 121 129
-0.19677027 -0.15222555 -0.79673547 124 104 116
-0.19692583 -0.1525144 -0.79686427 133 112 124
-0.19644284 -0.15250109 -0.79602045 125 104 114
-0.19540755 -0.15395623 -0.79338068 142 115 122
-0.19596316 -0.15069918 -0.79576099 89 69 88
-0.19514807 -0.15178815 -0.79345202 108 82 103
-0.1957887 -0.15176058 -0.79500115 106 84 99
-0.19598193 -0.15139529 -0.79558289 100 79 94
-0.1954709 -0.15190044 -0.79419225 109 85 102
-0.19767979 -0.1553949 -0.79705322 176 150 159
-0.19802469 -0.15725857 -0.79700667 163 133 143
-0.19758441 -0.15636204 -0.79633594 175 148 157
-0.19746676 -0.15787797 -0.79529786 178 153 160
-0.19779482 -0.15785903 -0.79613376 169 141 150
-0.19635105 -0.15811555 -0.79348511 176 160 160
-0.19700336 -0.1570949 -0.79483336 181 160 164
-0.1965452 -0.15651074 -0.79444879 176 156 159
-0.19648519 -0.15583049 -0.79460055 173 151 155
-0.1963879 -0.15626447 -0.7942667 172 151 154
-0.19589041 -0.15636221 -0.79336017 162 141 143
-0.19637194 -0.15707706 -0.79393226 174 155 157
-0.19883613 -0.16142675 -0.7969588 187 172 169
-0.19866464 -0.16034718 -0.79707265 176 155 158
-0.19832458 -0.15935232 -0.79671896 171 147 152
-0.19797064 -0.15850128 -0.79625762 169 141 149
-0.1983314 -0.16070911 -0.79616457 187 170 169
-0.1983677 -0.16059713 -0.79621857 187 171 170
-0.19804592 -0.16072518 -0.79574764 185 168 165
-0.19838142 -0.16145474 -0.79623055 186 171 167
-0.19820081 -0.16091718 -0.79597193 185 169 167
-0.19666129 -0.16205628 -0.79383707 172 149 149
-0.19722763 -0.15974772 -0.79457015 180 159 160
-0.19653535 -0.15884614 -0.79368341 176 157 159
-0.19692728 -0.15855406 -0.79419291 180 159 162
-0.19727239 -0.16394125 -0.79362649 173 150 148
-0.19870226 -0.16226144 -0.79662102 186 173 167
-0.19738968 -0.16219462 -0.79473627 177 160 152
-0.1975037 -0.16249423 -0.7947619 177 159 152
-0.19882439 -0.16255748 -0.79666013 186 172 167
-0.19816606 -0.16345313 -0.79527795 177 159 155
-0.19823276 -0.16465691 -0.7948572 174 152 150
-0.19904195 -0.16457786 -0.79667383 187 170 168
-0.1989053 -0.16416147 -0.7964496 185 168 166
-0.19856176 -0.16503784 -0.79551649 179 158 157
-0.19858931 -0.16461816 -0.79565841 180 160 158
-0.19864704 -0.16514297 -0.79568619 180 160 159
-0.19673328 -0.16264464 -0.79363966 171 148 148
-0.19917004 -0.17366816 -0.79539704 158 142 137
-0.19911049 -0.17329477 -0.79539722 165 150 144
-0.19987719 -0.17485437 -0.79645497 123 105 100
-0.1997828 -0.17588098 -0.79600483 121 99 98
-0.20004857 -0.17424572 -0.79690188 125 109 102
-0.20002276 -0.17474391 -0.7967146 125 107 102
-0.19933356 -0.17741768 -0.79485071 114 88 91
-0.19888246 -0.17584829 -0.79448986 126 106 104
-0.19849393 -0.17503895 -0.79389977 151 132 131
-0.19880743 -0.17603932 -0.79431981 124 104 102
-0.19876055 -0.17677157 -0.79411465 112 90 90
-0.19923562 -0.17557085 -0.79518986 121 102 99
-0.19894832 -0.17429504 -0.79486293 153 135 132
-0.20050254 -0.18084162 -0.79581892 152 123 132
-0.20102949 -0.18067271 -0.79657578 157 128 141
-0.20111361 -0.18127151 -0.79651117 162 134 147
-0.20022984 -0.17994641 -0.7957136 144 112 120
-0.19979361 -0.17980823 -0.79513705 137 105 110
-0.19901206 -0.18103467 -0.79371834 138 108 108
-0.20028594 -0.17887954 -0.79605621 136 102 110
-0.19971135 -0.17845848 -0.79522854 125 95 100
-0.19890237 -0.17800321 -0.79404098 111 85 88
-0.19879416 -0.17924751 -0.79366952 120 93 94
-0.20135427 -0.18191516 -0.79718417 156 131 147
-0.20114526 -0.18212901 -0.79660952 160 132 146
-0.19963613 -0.18318823 -0.79493707 136 104 109
-0.20030026 -0.18251058 -0.79560137 148 119 128
-0.19975229 -0.18203422 -0.79470724 147 117 122
-0.19868846 -0.18401229 -0.79380798 124 96 100
-0.19883199 -0.18480945 -0.79424155 119 91 99
-0.19930547 -0.18272363 -0.7943306 136 106 108
-0.19896382 -0.18230917 -0.7937203 137 107 108
-0.20269601 -0.13217983 -0.8119061 103 75 95
-0.20375271 -0.13165815 -0.81285369 118 87 110
-0.20303422 -0.13277443 -0.81255013 116 83 107
-0.2024388 -0.13305227 -0.81200898 108 76 99
-0.20304652 -0.13240507 -0.81239861 112 81 104
-0.20251322 -0.1338646 -0.81245559 118 81 108
-0.20174876 -0.1343841 -0.81172347 116 74 105
-0.20076284 -0.13358305 -0.80982149 109 76 94
-0.20060138 -0.13342714 -0.80942565 111 81 94
-0.20055287 -0.13353612 -0.80936724 114 84 96
-0.20158613 -0.13537301 -0.81168836 122 73 108
-0.20189624 -0.13699889 -0.81215465 131 75 113
-0.20201898 -0.13515896 -0.81223547 125 79 112
-0.20145626 -0.13620794 -0.81160849 121 65 106
-0.20134874 -0.135987 -0.8114723 119 62 104
-0.20197138 -0.13758121 -0.81230432 133 72 113
-0.2010076 -0.13560864 -0.81097376 115 61 102
-0.20089529 -0.13735145 -0.81102598 112 42 99
-0.20037694 -0.1374115 -0.8101753 114 50 101
-0.20050353 -0.13673107 -0.81029201 115 56 102
-0.20037752 -0.13501567 -0.80955881 133 92 113
-0.19985332 -0.13752919 -0.80925071 119 60 104
-0.20008096 -0.13721976 -0.80962735 117 58 103
-0.20156737 -0.14097209 -0.81008232 132 66 112
-0.20154409 -0.14144821 -0.80955601 135 71 113
-0.20213942 -0.13874802 -0.812554 135 68 114
-0.20190398 -0.14195114 -0.80957735 147 92 122
-0.20179079 -0.14020386 -0.8109628 134 68 113
-0.20230263 -0.14208005 -0.81084198 156 115 134
-0.20248047 -0.14198112 -0.81152087 159 124 139
-0.20267674 -0.1417015 -0.81235284 162 131 143
-0.20234339 -0.13964099 -0.81216764 146 87 123
-0.2024889 -0.14254899 -0.8112759 162 131 142
-0.20236927 -0.14217252 -0.81103367 158 120 137
-0.20077515 -0.13915211 -0.81052119 112 34 98
-0.20056713 -0.13891008 -0.81042159 112 35 98
-0.20024259 -0.13908954 -0.8097021 114 42 100
-0.20263335 -0.14290676 -0.8115887 159 134 142
-0.20224021 -0.14470211 -0.80917901 120 86 105
-0.20209755 -0.14405678 -0.80903745 128 88 110
-0.20235017 -0.14484823 -0.80948663 119 90 106
-0.20237188 -0.14508784 -0.80942827 115 88 103
-0.20231248 -0.1453107 -0.80909157 110 81 98
-0.20247982 -0.14759991 -0.80916452 111 96 101
-0.20250966 -0.14979894 -0.80957532 147 142 130
-0.2025861 -0.14793774 -0.80988431 117 103 103
-0.20255345 -0.14825897 -0.80970538 122 110 108
-0.20253368 -0.15068267 -0.80935276 149 145 133
0 0 0 1 0 0 0 1 0 0 0 1 0 0 0 0 0 790 1 0 0
