ply
format ascii 1.0
comment PCL generated
element vertex 995
property float x
property float y
property float z
property uchar red
property uchar green
property uchar blue
element camera 0
property float view_px
property float view_py
property float view_pz
property float x_axisx
property float x_axisy
property float x_axisz
property float y_axisx
property float y_axisy
property float y_axisz
property float z_axisx
property float z_axisy
property float z_axisz
property float focal
property float scalex
property float scaley
property float centerx
property float centery
property int viewportx
property int viewporty
property float k1
property float k2
end_header
-0.10287705 -0.53102964 -0.71026921 81 60 73
-0.10145314 -0.53244334 -0.71055025 83 61 73
-0.10346515 -0.52947038 -0.70972592 80 59 76
-0.10257345 -0.53236276 -0.71078098 82 59 70
-0.10252117 -0.53105557 -0.71019602 81 60 74
-0.099982135 -0.53239197 -0.71019149 84 64 76
-0.10014756 -0.53222132 -0.71015614 84 64 77
-0.10134451 -0.53004771 -0.7095176 83 64 79
-0.10011294 -0.53260702 -0.71030641 84 63 76
-0.10023776 -0.53075916 -0.70957816 85 66 79
-0.09994486 -0.53063524 -0.70946681 86 67 80
-0.097006194 -0.5318436 -0.70945334 84 63 75
-0.09712556 -0.5325855 -0.70981634 85 63 74
-0.096598282 -0.53253895 -0.70972234 85 63 74
-0.096852489 -0.53068852 -0.70889264 83 63 75
-0.097742312 -0.53254932 -0.70988387 84 63 75
-0.097238295 -0.53169888 -0.70941752 84 63 75
-0.098252118 -0.53033984 -0.70901048 85 65 78
-0.095956333 -0.52950948 -0.70822144 83 63 75
-0.096433878 -0.52976185 -0.70841807 83 63 75
-0.099034637 -0.53046948 -0.70921683 86 67 80
-0.099500164 -0.53123122 -0.70961899 86 66 79
-0.0993618 -0.53231275 -0.71003318 85 64 77
-0.094228089 -0.53256643 -0.70944512 85 63 76
-0.092188865 -0.53140879 -0.70866334 86 62 80
-0.093175061 -0.53293335 -0.70952445 84 61 77
-0.092386372 -0.53085542 -0.70840579 86 63 81
-0.094248511 -0.53309679 -0.70971268 85 62 75
-0.092415705 -0.53053337 -0.70824736 87 63 81
-0.09321814 -0.53012991 -0.70814461 86 63 80
-0.093005367 -0.52942044 -0.70778489 86 63 81
-0.094717123 -0.53111726 -0.70880467 85 63 76
-0.093526132 -0.53054303 -0.70837849 86 63 79
-0.093940504 -0.53095323 -0.70862508 86 63 78
-0.095112346 -0.53111637 -0.70885676 85 63 75
-0.089158058 -0.53098756 -0.70806754 97 76 95
-0.08958859 -0.53119993 -0.70823282 95 74 92
-0.087956913 -0.53059989 -0.70771003 104 84 104
-0.089903317 -0.52985775 -0.70759618 96 74 94
-0.088182174 -0.53233808 -0.70861959 100 80 97
-0.091702424 -0.5302977 -0.70805591 87 63 83
-0.090704963 -0.53217238 -0.7088657 89 66 85
-0.090848848 -0.53099811 -0.70829624 90 67 86
-0.088563666 -0.53281295 -0.70890963 97 77 94
-0.090860344 -0.53069955 -0.70814824 90 67 86
-0.091654897 -0.53228313 -0.70904398 85 61 80
-0.084383942 -0.53115863 -0.70774078 120 105 127
-0.085455164 -0.53227854 -0.70837021 112 95 116
-0.086883031 -0.53266525 -0.70867497 105 87 105
-0.08578036 -0.5327422 -0.70862097 108 90 112
-0.085898571 -0.53122783 -0.70788497 113 97 117
-0.08719939 -0.53240114 -0.70856589 105 86 104
-0.084329106 -0.53053999 -0.70743155 123 108 130
-0.087359838 -0.53155792 -0.70815009 105 87 105
-0.085623898 -0.53097755 -0.70773989 115 99 119
-0.082479805 -0.53230536 -0.70820993 120 101 127
-0.080527104 -0.53160894 -0.7077902 130 112 134
-0.081968926 -0.5326435 -0.70833308 122 105 129
-0.080249108 -0.53115302 -0.70757067 132 113 135
-0.082841069 -0.53111279 -0.70764673 125 108 131
-0.083135165 -0.53169584 -0.70793831 121 104 129
-0.08124508 -0.53132558 -0.70769525 128 109 132
-0.08322902 -0.53086853 -0.70754194 125 109 132
-0.077903584 -0.53217316 -0.7080344 133 114 147
-0.07833524 -0.53256804 -0.70820248 131 111 144
-0.076672763 -0.53168845 -0.70782393 133 110 153
-0.078260794 -0.53224319 -0.70806587 133 116 146
-0.079302914 -0.53237939 -0.70811957 133 118 141
-0.07830926 -0.5320015 -0.70796239 135 119 147
-0.078505605 -0.53100175 -0.70751244 136 117 146
-0.072319128 -0.53086507 -0.70752156 171 157 182
-0.072852246 -0.53148425 -0.70779175 164 147 178
-0.07248532 -0.53233063 -0.70821214 170 158 185
-0.074420825 -0.53217256 -0.70804662 142 115 161
-0.074993685 -0.53152001 -0.70776117 142 119 162
-0.075758077 -0.53230727 -0.70808423 129 98 152
-0.075233325 -0.53077585 -0.70744699 147 129 165
-0.070982866 -0.5330978 -0.70866299 166 156 181
-0.070904486 -0.53225929 -0.70823359 168 159 187
-0.070341468 -0.53201091 -0.70813984 166 156 185
-0.068563573 -0.53182882 -0.70815557 156 143 174
-0.071850263 -0.53221786 -0.70818192 171 162 187
-0.069097772 -0.530837 -0.70761228 162 151 184
-0.070957407 -0.53218991 -0.70819724 169 160 187
-0.070829958 -0.53082359 -0.70755035 167 155 184
-0.067819901 -0.53040785 -0.70747215 158 146 178
-0.068129092 -0.53214419 -0.70834863 153 139 168
-0.065906487 -0.53020674 -0.70750958 153 139 163
-0.067111433 -0.53092796 -0.70779401 154 141 168
-0.102355 -0.53360152 -0.71128225 83 60 69
-0.10181898 -0.53323811 -0.7109862 83 60 70
-0.1019287 -0.53332841 -0.71105415 83 60 70
-0.098739967 -0.53507173 -0.7112034 90 69 80
-0.097213686 -0.53518891 -0.71106523 90 72 80
-0.096574202 -0.5357337 -0.71123761 92 74 82
-0.096476287 -0.53453493 -0.71065354 89 69 78
-0.0958139 -0.53405184 -0.71033156 88 67 76
-0.096319452 -0.53451777 -0.71062386 89 69 78
-0.096971668 -0.53395557 -0.71044397 87 67 76
-0.095859945 -0.53454542 -0.71057415 89 69 78
-0.092003167 -0.53683096 -0.71125323 97 74 92
-0.095482342 -0.53491223 -0.7107048 90 71 79
-0.094601616 -0.53519446 -0.71074617 91 71 82
-0.095660202 -0.53374642 -0.71016556 87 66 75
-0.094667137 -0.53523248 -0.71077138 91 71 82
-0.092879944 -0.53384548 -0.7099331 86 63 80
-0.093041398 -0.53417444 -0.71010411 88 65 81
-0.091832235 -0.53605044 -0.71086848 94 71 90
-0.093909264 -0.53357911 -0.70990956 86 63 77
-0.092123188 -0.5352152 -0.71050364 91 68 86
-0.091701917 -0.53552556 -0.7106089 92 69 88
-0.091262206 -0.53705019 -0.71128708 98 76 94
-0.089493148 -0.53616083 -0.71070427 96 75 92
-0.090465665 -0.53646606 -0.71093804 97 75 93
-0.091758668 -0.53340286 -0.70961374 84 60 79
-0.09031114 -0.53481948 -0.71014762 90 68 86
-0.091456115 -0.53343755 -0.70959812 85 61 80
-0.088798791 -0.53575408 -0.71043175 96 76 93
-0.088083588 -0.53614217 -0.7105366 99 80 96
-0.091323592 -0.53349835 -0.70961189 86 62 81
-0.088826299 -0.53386045 -0.70947301 96 76 92
-0.088949122 -0.53515458 -0.71014661 96 75 92
-0.084515586 -0.5352425 -0.70982289 107 90 113
-0.086984731 -0.53628939 -0.71051431 103 84 103
-0.084782898 -0.53547645 -0.70996279 106 89 112
-0.085836634 -0.53682774 -0.71074599 103 85 104
-0.086646177 -0.5362711 -0.71048707 103 85 104
-0.08547616 -0.53498292 -0.709732 107 88 111
-0.087232158 -0.5340572 -0.70939761 102 83 101
-0.086232908 -0.53432912 -0.70945323 105 86 107
-0.087469585 -0.53444481 -0.70961422 101 82 100
-0.086941659 -0.53612608 -0.71042502 103 84 103
-0.087184809 -0.5360229 -0.71039265 102 84 102
-0.085109837 -0.53419513 -0.70929223 108 90 115
-0.080311432 -0.53623867 -0.71007925 130 119 138
-0.081822179 -0.53686237 -0.7105155 119 106 126
-0.081514947 -0.53580362 -0.70994073 121 108 128
-0.081322476 -0.5370971 -0.71060115 123 111 131
-0.08240433 -0.53679895 -0.71052521 115 101 121
-0.080697052 -0.53384477 -0.70885915 126 113 132
-0.083101235 -0.53605485 -0.71018523 110 95 115
-0.081290945 -0.53369111 -0.70880949 124 109 130
-0.081241347 -0.53383988 -0.70888704 124 109 130
-0.082689375 -0.53451163 -0.70932961 115 99 122
-0.083919592 -0.53432798 -0.70929855 110 92 118
-0.083123639 -0.53531951 -0.70978963 111 96 118
-0.078697078 -0.53607118 -0.70996439 126 106 140
-0.076482616 -0.53666729 -0.7102443 111 78 127
-0.078125298 -0.53588414 -0.7098611 123 99 139
-0.076934263 -0.5345313 -0.70914954 119 87 140
-0.07634899 -0.5348525 -0.70930779 115 79 136
-0.076276548 -0.53606081 -0.70992935 111 76 129
-0.079150937 -0.53585458 -0.70985627 128 111 142
-0.079074606 -0.53479004 -0.70930076 128 109 140
-0.078523643 -0.53539824 -0.70961463 126 105 142
-0.077504113 -0.53429496 -0.70903331 123 94 143
-0.078754418 -0.53336245 -0.70855439 126 105 139
-0.079867221 -0.53579974 -0.70983195 131 118 140
-0.073483281 -0.5349288 -0.70947808 148 132 162
-0.073117808 -0.53552765 -0.70981836 146 131 155
-0.074548572 -0.53634447 -0.710163 127 103 139
-0.075464748 -0.53642136 -0.71014702 119 90 135
-0.074098669 -0.53680444 -0.71043485 126 105 135
-0.073821671 -0.53633481 -0.71020293 133 113 142
-0.073262654 -0.53417146 -0.70909047 157 142 173
-0.075001165 -0.53454024 -0.70919937 131 103 150
-0.076069221 -0.53609151 -0.70994866 112 77 130
-0.075563438 -0.53361464 -0.70869637 126 92 149
-0.075951971 -0.53382909 -0.70878875 120 83 143
-0.074089773 -0.53422886 -0.70908141 145 124 163
-0.070484325 -0.53684551 -0.71069455 137 123 142
-0.071612135 -0.53686953 -0.71062732 138 126 140
-0.070102416 -0.53637636 -0.71046853 138 125 144
-0.07135766 -0.53699332 -0.71071213 137 125 139
-0.069931991 -0.53328049 -0.70882368 158 147 172
-0.072169423 -0.53468603 -0.70943069 159 150 169
-0.071769275 -0.53658938 -0.71046513 139 128 141
-0.071717732 -0.53510779 -0.7096824 153 142 160
-0.067668237 -0.53683746 -0.71086907 131 113 138
-0.06765084 -0.5359962 -0.7104159 135 119 144
-0.088475339 -0.53736973 -0.71117723 100 81 97
-0.087081611 -0.53742772 -0.71110642 101 82 99
-0.085523479 -0.53731871 -0.7109766 102 85 104
-0.086147062 -0.5374639 -0.71107423 102 83 101
-0.083787158 -0.53775603 -0.71108586 104 87 108
-0.083871752 -0.53808051 -0.71123683 103 86 107
-0.080082461 -0.5374763 -0.71070421 130 119 140
-0.081436627 -0.53740674 -0.71076816 121 108 129
-0.083182968 -0.53731441 -0.71084923 109 93 114
-0.077561632 -0.53825837 -0.7111153 120 99 133
-0.080033697 -0.53844386 -0.71119922 127 114 136
-0.077941217 -0.53837514 -0.71117336 121 101 133
-0.078533262 -0.5371266 -0.71050674 122 103 134
-0.076782823 -0.53774601 -0.71082824 114 87 129
-0.073473215 -0.53818363 -0.71123147 131 115 136
-0.076035492 -0.53780359 -0.71086115 112 81 127
-0.074654169 -0.53828967 -0.71121651 123 102 133
-0.073455498 -0.53768605 -0.71095675 129 112 135
-0.0736949 -0.53744274 -0.71080679 127 108 133
-0.071402609 -0.5379433 -0.71122569 139 127 141
-0.071529053 -0.53795433 -0.71122414 139 128 141
-0.068508893 -0.53775311 -0.71129662 136 123 144
-0.067495041 -0.53739613 -0.71116817 128 110 134
-0.13884464 -0.50501198 -0.71927512 145 111 147
-0.13893692 -0.50551277 -0.71948838 149 116 150
-0.14006327 -0.50567448 -0.72044575 152 120 148
-0.14267433 -0.50728846 -0.72281122 155 127 143
-0.1421393 -0.50651616 -0.72227991 159 130 147
-0.13998108 -0.50917387 -0.72093982 169 146 166
-0.14237148 -0.50930208 -0.72282755 154 134 148
-0.1416025 -0.50793022 -0.72204548 161 135 152
-0.14158063 -0.50907558 -0.72217882 159 138 154
-0.1416668 -0.50757372 -0.72204906 161 134 151
-0.1421867 -0.507384 -0.722431 158 131 147
-0.14020954 -0.50625509 -0.72066367 157 126 152
-0.13942662 -0.50637197 -0.72004205 157 125 155
-0.14010319 -0.50752366 -0.72078919 165 137 159
-0.138713 -0.50884497 -0.71987218 171 146 171
-0.13960102 -0.50810498 -0.72047538 168 141 164
-0.1396016 -0.50704837 -0.72029877 161 132 158
-0.13917534 -0.50796217 -0.72010285 166 139 165
-0.13855115 -0.50680208 -0.7194131 160 129 160
-0.13790675 -0.50887161 -0.71931767 175 153 176
-0.14073147 -0.51084083 -0.72175199 160 129 160
-0.14184536 -0.50977254 -0.72247761 157 137 153
-0.14012569 -0.51021373 -0.72119206 166 141 165
-0.14142095 -0.51288831 -0.72257185 147 99 151
-0.14092557 -0.51020086 -0.72181636 161 137 159
-0.1416658 -0.51072448 -0.72246736 154 126 153
-0.13941264 -0.51065582 -0.72069448 168 139 170
-0.13936964 -0.51364309 -0.7211569 167 129 175
-0.13948856 -0.51190668 -0.72095817 167 133 171
-0.14022107 -0.51299703 -0.72168648 159 117 164
-0.13915695 -0.51205438 -0.72073472 170 138 175
-0.14143957 -0.51367182 -0.72270948 146 94 152
-0.13958459 -0.51106042 -0.72088981 166 135 168
-0.13809189 -0.51253587 -0.72009009 178 151 185
-0.13814506 -0.51270348 -0.72015101 178 150 185
-0.13714556 -0.51277786 -0.71954012 184 161 191
-0.13776903 -0.51101089 -0.71962756 181 160 184
-0.13783747 -0.51055402 -0.71958113 181 160 183
-0.14107616 -0.5167833 -0.72283143 175 140 178
-0.14160424 -0.51431745 -0.72291428 150 100 154
-0.14164041 -0.51378793 -0.72287428 145 92 150
-0.14083928 -0.51550001 -0.72249192 167 128 171
-0.14128098 -0.51546997 -0.72281837 162 120 166
-0.14018916 -0.51372039 -0.7217806 159 116 166
-0.14008129 -0.51641273 -0.72207808 180 149 185
-0.139181 -0.51512158 -0.72124684 179 147 186
-0.13970953 -0.51649374 -0.72185171 182 152 188
-0.13880464 -0.51708764 -0.721376 190 164 199
-0.13811663 -0.51670092 -0.72087324 192 167 201
-0.13702101 -0.51661694 -0.72018075 200 177 207
-0.13841897 -0.51666826 -0.72105366 190 164 199
-0.13789913 -0.51491445 -0.72039914 186 156 193
-0.13782653 -0.51606387 -0.72057295 192 165 200
-0.13728476 -0.51606852 -0.72023934 195 170 203
-0.1376272 -0.513776 -0.72000891 181 153 190
-0.1360064 -0.51480305 -0.71919942 197 177 205
-0.13711175 -0.51423633 -0.71977764 187 161 195
-0.14069864 -0.51905054 -0.72288162 189 161 188
-0.13922998 -0.51838946 -0.72184527 194 169 199
-0.13939846 -0.51875055 -0.72199911 195 169 198
-0.14050066 -0.52024937 -0.72289956 196 169 192
-0.13868715 -0.51984686 -0.72168142 203 183 212
-0.13936675 -0.51997888 -0.72213328 201 178 203
-0.13975284 -0.5206421 -0.7224648 202 178 200
-0.13513848 -0.51810312 -0.71930736 213 195 221
-0.13616012 -0.51977032 -0.72029412 190 168 207
-0.1352279 -0.52066886 -0.71990824 188 166 209
-0.13545673 -0.5207777 -0.72007334 185 163 207
-0.1353194 -0.51884794 -0.71957594 204 186 216
-0.13649124 -0.51868951 -0.72026855 198 176 210
-0.13666885 -0.52048498 -0.72068411 192 171 209
-0.13842651 -0.52064389 -0.72164214 206 187 214
-0.13866813 -0.52145118 -0.72187376 211 194 218
-0.13837506 -0.51790404 -0.72126603 192 168 203
-0.13788909 -0.51873296 -0.72111219 193 170 205
-0.13768275 -0.52096164 -0.72128576 202 183 214
-0.13424458 -0.51999748 -0.71920079 199 181 212
-0.13409559 -0.52037704 -0.71920252 196 178 209
-0.13899161 -0.52255857 -0.72222883 206 192 215
-0.13989708 -0.52170211 -0.7226935 205 182 202
-0.13979211 -0.52457601 -0.72301197 195 184 205
-0.13878931 -0.52413434 -0.72237235 191 178 204
-0.13877623 -0.52221704 -0.7220543 207 191 215
-0.13544269 -0.52376688 -0.7206319 173 148 189
-0.13719571 -0.52503097 -0.72174048 174 155 189
-0.13483793 -0.52431422 -0.72047293 166 137 180
-0.1363281 -0.52359277 -0.72100717 179 159 197
-0.13575764 -0.52313119 -0.720635 178 157 198
-0.13504361 -0.52255738 -0.72017002 178 155 199
-0.1382324 -0.5215342 -0.72165364 208 190 217
-0.13754185 -0.5228231 -0.72149432 192 176 207
-0.13787737 -0.52245826 -0.72161412 198 181 211
-0.13699584 -0.52158368 -0.72100186 199 180 213
-0.13730539 -0.52319521 -0.72142857 188 171 205
-0.13745531 -0.52307457 -0.72148895 190 173 206
-0.13410288 -0.52364063 -0.71994174 169 143 185
-0.13406685 -0.52506918 -0.72024775 161 130 171
-0.13365988 -0.52454996 -0.71991837 163 135 175
-0.13435231 -0.52255702 -0.71982503 176 152 196
-0.13457066 -0.52455986 -0.72039366 164 134 176
-0.13307033 -0.52268046 -0.71917695 177 157 190
-0.13217631 -0.5248127 -0.71920681 160 134 170
-0.13909864 -0.52648747 -0.72294879 177 161 185
-0.13855872 -0.52781349 -0.72292072 161 135 161
-0.13655083 -0.52766967 -0.72197449 162 146 170
-0.13862374 -0.52579057 -0.7225672 177 162 190
-0.13775016 -0.52647203 -0.7222966 171 157 183
-0.1366365 -0.52877033 -0.72222084 153 130 154
-0.13738126 -0.52742279 -0.72230721 164 145 171
-0.13583466 -0.52780956 -0.72166884 158 141 166
-0.13604327 -0.52613848 -0.72143203 164 141 174
-0.13522641 -0.52861226 -0.72154462 153 135 158
-0.13560776 -0.52636129 -0.72127265 161 137 170
-0.1357927 -0.52692252 -0.72147161 160 139 169
-0.13508101 -0.52584755 -0.72092301 160 130 169
-0.13224596 -0.52634907 -0.71959406 159 136 164
-0.13151927 -0.52613312 -0.71916735 158 135 163
-0.13271628 -0.52732587 -0.72007155 163 141 164
-0.13158973 -0.52722245 -0.71945405 161 143 163
-0.13090213 -0.52754778 -0.71917063 162 147 162
-0.13455364 -0.52924067 -0.72135162 150 133 153
-0.13465986 -0.52700752 -0.72095609 155 129 162
-0.13402364 -0.52767819 -0.72078151 156 134 160
-0.13416444 -0.52801031 -0.72091633 155 134 159
-0.13387586 -0.52658355 -0.72049057 160 133 165
-0.13361001 -0.52865958 -0.72077715 156 138 157
-0.1300775 -0.52915877 -0.7191996 165 152 160
-0.13615729 -0.53275126 -0.72289377 162 141 158
-0.13615736 -0.53249973 -0.72283608 161 140 158
-0.13683918 -0.53026283 -0.72263414 153 126 148
-0.13646357 -0.5296253 -0.72231632 151 125 148
-0.13621651 -0.52940315 -0.72215259 150 125 148
-0.13489801 -0.53186709 -0.72212321 160 134 160
-0.13516439 -0.53231323 -0.72234643 161 135 160
-0.13214576 -0.53241289 -0.72091419 173 154 170
-0.1319195 -0.5304023 -0.72034103 166 150 161
-0.1311699 -0.53203058 -0.72034991 176 162 171
-0.13104109 -0.53184885 -0.72024518 176 162 171
-0.13170858 -0.53218359 -0.72064805 174 157 170
-0.13325001 -0.53239155 -0.7214483 169 144 166
-0.1315012 -0.52965689 -0.71996462 165 152 159
-0.13388035 -0.52933013 -0.72104371 153 137 154
-0.13282055 -0.53069621 -0.72084701 164 144 160
-0.1336197 -0.52943951 -0.72094262 154 139 155
-0.13267234 -0.53075796 -0.72078943 165 145 161
-0.13347876 -0.52942592 -0.72087103 155 139 155
-0.13017339 -0.53032106 -0.71954143 168 155 161
-0.13076024 -0.53029644 -0.71976113 170 158 164
-0.12842198 -0.532933 -0.71947008 171 153 164
-0.12936512 -0.53260309 -0.71975631 173 158 167
-0.13080239 -0.5297901 -0.71966076 168 157 161
-0.12804043 -0.53220659 -0.71914512 167 149 160
-0.13484757 -0.53635669 -0.72294366 173 151 178
-0.13546686 -0.53462267 -0.72292852 168 145 168
-0.13251743 -0.5367108 -0.7219677 163 140 168
-0.13123487 -0.53488672 -0.72100472 170 151 170
-0.13146597 -0.5363549 -0.7214306 160 136 164
-0.13136947 -0.53633976 -0.72138518 159 135 163
-0.1312938 -0.53693455 -0.72148395 154 127 159
-0.13169309 -0.53469682 -0.72116238 175 158 174
-0.13317031 -0.5349887 -0.72189832 176 157 177
-0.13447027 -0.5355829 -0.72263336 172 149 175
-0.13248341 -0.53464788 -0.72150534 178 162 178
-0.13298403 -0.53337479 -0.72153425 173 150 171
-0.13385522 -0.53342074 -0.72196728 170 143 168
-0.13375394 -0.53464222 -0.72212458 173 150 174
-0.12766379 -0.53364205 -0.71935403 165 146 158
-0.12854323 -0.53432924 -0.71986628 162 145 157
-0.12861568 -0.53448588 -0.71993387 161 144 156
-0.12753339 -0.53624833 -0.71996677 142 122 138
-0.12808657 -0.53451675 -0.71973878 159 140 154
-0.12971501 -0.53386486 -0.72019756 171 156 167
-0.12971374 -0.53513885 -0.72049499 161 142 159
-0.13039468 -0.53534871 -0.72078031 162 141 162
-0.12939025 -0.53647625 -0.72067773 148 125 149
-0.13000885 -0.53657407 -0.72091633 150 126 153
-0.12823609 -0.53629416 -0.72023255 145 124 142
-0.12987778 -0.53509408 -0.72054261 162 143 160
-0.1254334 -0.53667986 -0.71933496 134 112 142
-0.12566382 -0.5364688 -0.71936005 136 115 142
-0.12686397 -0.53608167 -0.71967149 141 120 137
-0.1319558 -0.54040819 -0.7225287 149 127 149
-0.1336212 -0.53915805 -0.7229659 162 142 166
-0.13188879 -0.54044676 -0.72250885 149 127 149
-0.13168269 -0.5398196 -0.72229284 149 126 149
-0.13165648 -0.53714907 -0.72168952 155 128 160
-0.13352066 -0.53811908 -0.72271705 164 143 168
-0.13332297 -0.53817779 -0.72264391 163 141 167
-0.13380425 -0.53785795 -0.72278279 167 146 171
-0.13381548 -0.5375433 -0.72271794 168 146 173
-0.12852933 -0.53897399 -0.72093487 137 114 133
-0.12894596 -0.53955442 -0.72121286 138 115 134
-0.12756245 -0.53982157 -0.72081894 138 116 132
-0.12809575 -0.5407421 -0.72121751 140 118 133
-0.12881902 -0.53921789 -0.72108966 137 114 133
-0.127233 -0.53743386 -0.72013408 133 111 129
-0.12966588 -0.53922397 -0.72138333 140 116 138
-0.12938923 -0.53790671 -0.72099435 141 117 142
-0.1307887 -0.53887653 -0.72170019 146 119 147
-0.12989068 -0.53751844 -0.72108412 144 118 147
-0.1294791 -0.53863502 -0.72118729 140 116 139
-0.13082141 -0.54011106 -0.72198528 143 118 142
-0.12614898 -0.53714114 -0.71969879 132 110 134
-0.12484026 -0.53771329 -0.71943593 132 110 140
-0.12372351 -0.54022825 -0.71986598 136 116 137
-0.12381651 -0.53901696 -0.71950656 134 113 142
-0.12569189 -0.53810126 -0.71985215 133 112 133
-0.12496667 -0.53858286 -0.7197597 134 113 136
-0.12692364 -0.53794676 -0.72015738 134 112 129
-0.12631001 -0.54003572 -0.72050142 138 116 132
-0.12648687 -0.54067051 -0.72070044 139 118 132
-0.12509297 -0.54084826 -0.72038072 138 118 135
-0.12570652 -0.5409382 -0.72056204 139 118 134
-0.12602222 -0.53929114 -0.72024703 136 115 132
-0.12301785 -0.53974992 -0.71947026 134 114 144
-0.12186964 -0.54049242 -0.71932232 138 121 141
-0.13138489 -0.54210639 -0.72269934 154 133 153
-0.13119486 -0.54179054 -0.72253907 150 128 148
-0.13177595 -0.54125869 -0.72263664 149 127 149
-0.12867549 -0.54335678 -0.72210693 148 124 149
-0.12945499 -0.54343921 -0.72238213 154 131 154
-0.12922262 -0.54471058 -0.72264218 163 142 164
-0.12863836 -0.54327798 -0.72207403 148 123 149
-0.12941514 -0.54394245 -0.72250199 158 136 158
-0.12852898 -0.54250866 -0.72183031 145 121 143
-0.12954591 -0.54193008 -0.72201091 144 120 142
-0.12763236 -0.54224896 -0.72146308 144 121 140
-0.1276661 -0.54199219 -0.72140491 143 120 139
-0.12838772 -0.54107255 -0.72139561 141 118 134
-0.1271152 -0.54360181 -0.72165722 148 124 148
-0.12504072 -0.54449141 -0.72124159 143 119 148
-0.12341142 -0.54393631 -0.72059196 137 114 141
-0.12457618 -0.54404563 -0.72099906 142 118 146
-0.12570025 -0.54438978 -0.72143948 146 122 150
-0.12352667 -0.54455453 -0.72075337 137 113 141
-0.12368315 -0.54384351 -0.72066331 138 115 142
-0.12345048 -0.54135513 -0.72008556 138 118 140
-0.12512331 -0.5423364 -0.72078574 142 121 143
-0.12546046 -0.5423035 -0.72086453 143 121 142
-0.12566808 -0.54131603 -0.72065181 140 119 136
-0.12601936 -0.5434894 -0.72133023 147 123 148
-0.12650485 -0.54134881 -0.7208783 141 119 134
-0.12125114 -0.54145122 -0.71939749 138 123 139
-0.12176299 -0.54127473 -0.71952373 137 122 139
-0.11978919 -0.54378134 -0.71952385 129 118 137
-0.1193395 -0.54332525 -0.71924818 132 121 137
-0.12205568 -0.54406083 -0.72022772 133 113 139
-0.12158269 -0.5426591 -0.71982008 132 116 138
-0.12271652 -0.54235071 -0.72006565 135 116 139
-0.12160114 -0.54316336 -0.71992564 132 116 138
-0.12251569 -0.54464722 -0.7204693 133 112 139
-0.11832134 -0.54424763 -0.71924734 127 116 134
-0.12938982 -0.54517037 -0.7228117 167 146 167
-0.12738343 -0.54715645 -0.72263384 159 139 164
-0.12777855 -0.54675561 -0.7226665 160 141 164
-0.12852709 -0.54721493 -0.72301966 166 148 169
-0.12861893 -0.54512179 -0.72254944 162 140 164
-0.12700003 -0.54616791 -0.72227734 154 132 159
-0.12518358 -0.54744405 -0.72201449 148 129 154
-0.12510543 -0.54802299 -0.72217143 146 128 152
-0.12412407 -0.54748815 -0.72174454 139 119 144
-0.12575418 -0.54763532 -0.7222259 152 134 158
-0.1247945 -0.54775614 -0.7220062 144 125 150
-0.12456352 -0.5464986 -0.72155809 144 124 150
-0.1251186 -0.54508138 -0.7213921 144 120 148
-0.12694956 -0.54849261 -0.72283006 159 143 166
-0.12518132 -0.546637 -0.72179246 147 127 153
-0.1258871 -0.545138 -0.7216602 147 123 152
-0.12540182 -0.54570341 -0.72163755 146 124 151
-0.12607104 -0.54562646 -0.72184014 149 126 154
-0.11975834 -0.54695851 -0.72042429 126 111 132
-0.1207922 -0.54741532 -0.72083592 127 111 133
-0.12196817 -0.54785281 -0.72127771 128 110 133
-0.12160724 -0.54879206 -0.72148818 127 108 130
-0.12039003 -0.5465703 -0.72046071 126 112 134
-0.11935027 -0.54746735 -0.72048396 126 110 130
-0.12271587 -0.54622108 -0.72097737 132 110 137
-0.12001103 -0.54523307 -0.7199412 127 114 137
-0.12301862 -0.54644382 -0.72112787 132 110 137
-0.12298878 -0.54534948 -0.72078353 134 110 139
-0.12227621 -0.54538196 -0.72060055 132 111 138
-0.11838059 -0.54515094 -0.71951294 125 114 134
-0.11770662 -0.54563606 -0.71951729 126 114 133
-0.11704638 -0.54611564 -0.71952319 127 113 131
-0.11581181 -0.5471887 -0.7195909 128 113 129
-0.11585223 -0.54754645 -0.71971488 129 114 130
-0.11908599 -0.54752022 -0.72043508 126 110 130
-0.11630009 -0.54808867 -0.71999007 130 115 131
-0.11854751 -0.54785353 -0.72042108 126 110 130
-0.11708465 -0.54748911 -0.71997374 129 115 132
-0.11663584 -0.54786795 -0.7199946 129 115 132
-0.11754715 -0.54692531 -0.71989632 128 115 133
-0.11248256 -0.54826391 -0.71917492 130 116 131
-0.11397479 -0.54767156 -0.71932721 129 114 129
-0.11518823 -0.54788852 -0.71967554 129 114 128
-0.1126297 -0.54829127 -0.71921748 130 116 131
-0.12437455 -0.55054152 -0.72277182 142 128 150
-0.12496326 -0.55057162 -0.72293901 147 134 155
-0.12508093 -0.54988724 -0.72275138 147 132 154
-0.12364636 -0.54991758 -0.72237718 135 119 141
-0.12605853 -0.54934794 -0.72284019 153 139 160
-0.12003542 -0.55254722 -0.72238231 134 122 142
-0.12130756 -0.55076009 -0.72209555 132 115 137
-0.12223975 -0.55089986 -0.72235143 132 117 138
-0.12257174 -0.55201852 -0.72278619 134 122 142
-0.11964834 -0.55264133 -0.72232497 134 122 142
-0.11936039 -0.55175173 -0.72195131 132 118 138
-0.12117868 -0.55060363 -0.72201335 131 114 136
-0.12083526 -0.55089468 -0.72202772 132 115 137
-0.12277906 -0.54896736 -0.72184837 129 109 133
-0.12030756 -0.55146891 -0.7220943 132 117 138
-0.12132624 -0.5496996 -0.72173381 129 111 133
-0.11564066 -0.54943609 -0.72029561 132 117 132
-0.11879988 -0.55267596 -0.72214615 134 121 141
-0.11611431 -0.55151612 -0.72115225 131 116 134
-0.11641964 -0.55004132 -0.72068155 132 118 134
-0.11625446 -0.55081117 -0.72092599 132 117 134
-0.11637335 -0.55008477 -0.72068745 132 118 134
-0.11803991 -0.55026698 -0.72112578 131 115 133
-0.11827228 -0.55096084 -0.72142172 132 117 136
-0.11888205 -0.55177975 -0.72184664 133 118 138
-0.1180869 -0.55064386 -0.72126865 131 116 135
-0.11901574 -0.55035746 -0.72137761 129 113 133
-0.1178166 -0.54900795 -0.72063351 128 111 129
-0.11141564 -0.5514071 -0.72013432 133 122 137
-0.11299155 -0.54978073 -0.71985167 132 119 134
-0.11446851 -0.54925781 -0.7199828 132 118 132
-0.11241042 -0.55084443 -0.72013938 133 121 135
-0.11305526 -0.54906446 -0.71958303 132 118 133
-0.11175729 -0.55096465 -0.72003752 133 121 136
-0.1132405 -0.5511061 -0.72042364 132 120 135
-0.11510191 -0.55025554 -0.72048062 131 115 132
-0.11499178 -0.55185235 -0.72103912 130 114 133
-0.11466511 -0.55126625 -0.72076195 131 116 133
-0.11356472 -0.55107468 -0.72047597 132 119 134
-0.11404639 -0.55226785 -0.72100407 131 117 135
-0.10887868 -0.55270284 -0.72016317 130 115 137
-0.10852856 -0.55192393 -0.71980256 130 115 138
-0.1090365 -0.55199921 -0.71992719 131 117 138
-0.10915856 -0.55154246 -0.71977639 131 118 138
-0.11117213 -0.55181366 -0.72024691 133 123 138
-0.10910724 -0.55083281 -0.71948647 131 117 138
-0.11042688 -0.55207008 -0.72021383 132 122 138
-0.10908747 -0.55046618 -0.71933794 131 116 137
-0.10373534 -0.55252939 -0.71931869 122 105 125
-0.10382546 -0.5521462 -0.71916372 123 105 125
-0.1042845 -0.55207986 -0.71920413 124 106 126
-0.10664163 -0.55131394 -0.71925104 128 111 135
-0.12021113 -0.55330896 -0.7226705 136 124 143
-0.1217152 -0.55281693 -0.72284955 135 125 144
-0.12030333 -0.55328596 -0.72268379 136 124 143
-0.11846343 -0.55417717 -0.7225464 137 122 143
-0.11838546 -0.55561656 -0.72299886 141 125 146
-0.11532167 -0.55661213 -0.72260869 136 118 145
-0.11539908 -0.55653417 -0.72260141 136 118 144
-0.11755171 -0.55561036 -0.72279525 138 122 145
-0.11831973 -0.55349791 -0.72229773 135 121 142
-0.11740264 -0.55321985 -0.72201747 133 118 139
-0.11794024 -0.55384183 -0.72232169 135 120 142
-0.11673569 -0.55453396 -0.72227585 134 118 142
-0.1163289 -0.55331093 -0.7218163 132 116 137
-0.11542118 -0.55537271 -0.7222513 134 116 141
-0.1123753 -0.55513263 -0.72168952 136 123 141
-0.11263864 -0.55572855 -0.72195089 136 122 142
-0.11301383 -0.55629414 -0.72221303 137 121 143
-0.11390599 -0.55551428 -0.72201031 135 120 143
-0.11220622 -0.55663753 -0.72225559 138 123 142
-0.11265338 -0.5527572 -0.72090662 132 120 137
-0.11419188 -0.55287629 -0.72124547 131 116 135
-0.11307147 -0.55355495 -0.72123206 133 120 139
-0.11298022 -0.55401152 -0.72135329 134 121 140
-0.1133902 -0.55338609 -0.7212432 132 119 138
-0.11375695 -0.55329102 -0.72128636 132 118 137
-0.10753278 -0.5558691 -0.72131234 132 115 139
-0.1087052 -0.55479509 -0.72098804 132 116 138
-0.10808223 -0.55607867 -0.72147834 133 117 139
-0.10856266 -0.55592901 -0.72147506 133 118 139
-0.10821235 -0.55358136 -0.72038144 130 113 137
-0.10980265 -0.55547059 -0.72143435 135 119 140
-0.11029386 -0.55550927 -0.72152209 135 121 140
-0.1109546 -0.55389744 -0.72102058 134 123 139
-0.11032011 -0.55274194 -0.72045112 132 121 138
-0.11126657 -0.5554992 -0.72170246 137 124 141
-0.11109727 -0.55612612 -0.72191411 137 124 141
-0.11086338 -0.55602187 -0.7218293 137 123 141
-0.10353598 -0.55376786 -0.71985674 125 110 128
-0.10482738 -0.55505633 -0.72060215 129 114 133
-0.10624866 -0.55566424 -0.72105318 130 114 136
-0.10361385 -0.55386978 -0.71991271 125 110 128
-0.1042044 -0.55352032 -0.71982569 124 107 127
-0.10493418 -0.55592692 -0.72101206 131 118 136
-0.10719328 -0.55566746 -0.72117752 131 114 138
-0.10587253 -0.55398452 -0.72025216 127 110 132
-0.10386112 -0.5529328 -0.71951729 122 105 126
-0.10732453 -0.55391961 -0.72041506 129 111 136
-0.10698069 -0.55612087 -0.72135168 131 115 138
-0.10702167 -0.55491412 -0.72081876 130 113 137
-0.10034174 -0.55551094 -0.7203247 118 103 122
-0.10224897 -0.55391681 -0.71979398 120 104 124
-0.10208683 -0.55372077 -0.71968263 120 103 123
-0.099820428 -0.55404198 -0.7195707 115 98 117
-0.10002022 -0.55510122 -0.72009391 117 101 120
-0.10168985 -0.55432105 -0.7199198 120 103 123
-0.10042269 -0.5564487 -0.72076672 121 107 125
-0.10311524 -0.55502254 -0.72038615 127 114 131
-0.10263049 -0.55644786 -0.72098732 130 119 133
-0.10186343 -0.55636215 -0.72087151 127 114 130
-0.10306539 -0.55626613 -0.72094804 131 120 135
-0.10347664 -0.55517864 -0.7204935 129 117 132
-0.096680246 -0.55469179 -0.71971953 109 94 110
-0.096993491 -0.55563891 -0.72019738 113 98 115
-0.097010337 -0.55652547 -0.72063607 115 101 118
-0.097774372 -0.55555785 -0.72018123 113 98 115
-0.098002262 -0.5546456 -0.71975368 111 96 113
-0.099233955 -0.55364591 -0.71934104 112 96 115
-0.096265249 -0.55359501 -0.71917415 106 91 106
-0.098242186 -0.55368608 -0.71931231 110 94 112
-0.098597184 -0.55544293 -0.72015876 114 99 117
-0.094509624 -0.55636728 -0.72048771 113 99 114
-0.094775535 -0.55618513 -0.72039479 112 98 113
-0.092082843 -0.55520332 -0.71982735 107 92 105
-0.091917031 -0.55509323 -0.7197659 106 92 104
-0.0946908 -0.55428499 -0.71944445 105 91 105
-0.093680009 -0.55493957 -0.719724 106 92 105
-0.095660388 -0.55405378 -0.71937233 106 91 106
-0.092333183 -0.55399293 -0.71919745 101 86 98
-0.093241893 -0.55408561 -0.71928281 103 88 101
-0.089412026 -0.55577874 -0.72014576 107 92 105
-0.088370897 -0.55549562 -0.71999729 105 88 102
-0.090105504 -0.55568618 -0.72010785 108 93 106
-0.088061281 -0.55630076 -0.72038609 105 89 104
-0.089095213 -0.55423945 -0.71937436 103 87 98
-0.091018975 -0.55558652 -0.72004622 109 94 107
-0.089628071 -0.55426264 -0.71937376 103 87 98
-0.08937642 -0.55456793 -0.7195428 104 89 100
-0.084962666 -0.55577731 -0.72006816 104 91 104
-0.08452756 -0.55447632 -0.71939826 107 93 107
-0.084197514 -0.55591923 -0.72012973 102 91 103
-0.085416861 -0.55628073 -0.72033137 103 90 103
-0.086042039 -0.5548628 -0.71962893 106 90 104
-0.087422967 -0.55474192 -0.71961141 103 87 99
-0.087210864 -0.55532926 -0.71989101 104 88 102
-0.086898364 -0.55383283 -0.71915311 102 87 98
-0.086668424 -0.55393368 -0.71919531 103 87 99
-0.083667204 -0.55658454 -0.72048724 99 88 100
-0.081291772 -0.55609941 -0.72039628 94 78 93
-0.081243284 -0.55543345 -0.72004515 93 77 93
-0.081690937 -0.55626684 -0.72045726 95 80 94
-0.081930369 -0.55559421 -0.72008228 95 80 95
-0.082815245 -0.55445224 -0.71944028 101 86 100
-0.080355667 -0.55369097 -0.71918237 91 72 90
-0.081078142 -0.55433512 -0.71947271 93 75 92
-0.083061278 -0.55460733 -0.71950638 101 87 101
-0.077182859 -0.55631804 -0.72089881 91 78 93
-0.077198416 -0.55563283 -0.72051138 87 74 90
-0.076336369 -0.55437285 -0.71989453 80 67 85
-0.077632807 -0.5557701 -0.72054207 88 74 90
-0.07950256 -0.55626732 -0.72062141 90 73 90
-0.079959847 -0.55553693 -0.72019154 91 73 89
-0.078988269 -0.55439484 -0.7196601 86 68 86
-0.079258606 -0.55392808 -0.71939033 87 69 87
-0.079476319 -0.55598009 -0.72046554 89 72 89
-0.077644683 -0.55394882 -0.7195285 80 64 83
-0.07455416 -0.55365664 -0.71962142 87 75 92
-0.075526372 -0.55316645 -0.71927792 78 65 83
-0.074551255 -0.55326796 -0.71940285 85 73 90
-0.074106306 -0.55314738 -0.71936572 87 75 92
-0.073363513 -0.5528239 -0.71923465 90 79 95
-0.075220056 -0.55652404 -0.72116911 96 84 100
-0.072263986 -0.55300426 -0.71940482 98 88 101
-0.11578502 -0.55730122 -0.72296333 137 120 146
-0.11384746 -0.55788481 -0.72289854 138 122 146
-0.11513887 -0.55761236 -0.72294128 136 119 145
-0.11355691 -0.55758947 -0.72275865 138 122 145
-0.11215025 -0.55740839 -0.72253346 139 124 144
-0.11321406 -0.55717355 -0.72256672 138 122 144
-0.11276479 -0.55670059 -0.72234184 137 122 143
-0.11056899 -0.55751973 -0.72239983 140 126 144
-0.11132561 -0.55746913 -0.72246301 140 126 143
-0.11099122 -0.55841047 -0.72277379 141 127 145
-0.11132187 -0.55725259 -0.72238278 140 126 143
-0.1089926 -0.55669016 -0.72186893 135 120 140
-0.10943155 -0.55699873 -0.72204876 137 122 142
-0.1096637 -0.55763292 -0.72232985 139 125 144
-0.10943348 -0.55799878 -0.72244388 140 126 145
-0.10814919 -0.55711907 -0.72192687 135 120 141
-0.10631279 -0.55839485 -0.72227389 138 125 145
-0.10629103 -0.55849808 -0.72231346 139 125 146
-0.10696527 -0.55954111 -0.72276223 142 128 149
-0.10721238 -0.55724484 -0.72186899 135 119 142
-0.10500926 -0.55935043 -0.72257859 142 129 149
-0.10644671 -0.55790454 -0.72208726 137 122 144
-0.10698891 -0.55687416 -0.72169673 133 118 140
-0.10384716 -0.55814201 -0.72189778 139 128 143
-0.10436318 -0.55937815 -0.7225318 142 130 148
-0.10643195 -0.55708075 -0.72172397 134 120 141
-0.10403413 -0.55799675 -0.72185355 138 127 143
-0.1040341 -0.55723339 -0.72150099 136 125 140
-0.10035568 -0.55996954 -0.72237182 132 115 133
-0.099971026 -0.5602001 -0.72243667 132 113 131
-0.10288298 -0.55992103 -0.72261548 141 130 148
-0.10054787 -0.55928487 -0.72207934 131 115 133
-0.10057639 -0.55906576 -0.72198218 130 114 133
-0.10069968 -0.55892187 -0.72192949 130 115 133
-0.10146897 -0.55819422 -0.72167647 130 118 136
-0.10187958 -0.55889136 -0.72203958 134 122 140
-0.10285667 -0.55789369 -0.72167653 135 124 140
-0.10182484 -0.55765569 -0.72146338 130 118 135
-0.10174442 -0.55770946 -0.72148019 130 118 135
-0.10299276 -0.55797648 -0.72172844 136 125 141
-0.095749058 -0.55960405 -0.72206599 122 108 126
-0.096914053 -0.55886734 -0.72172737 122 107 124
-0.097495995 -0.55859137 -0.72160208 123 106 123
-0.097481236 -0.55867743 -0.72164291 123 106 123
-0.096488081 -0.55928862 -0.72192359 123 107 125
-0.098007798 -0.55997431 -0.72226679 127 110 127
-0.099419147 -0.55970824 -0.72216803 129 110 128
-0.098738447 -0.55703014 -0.72092396 119 104 122
-0.098222069 -0.55768633 -0.7212078 121 105 122
-0.097641461 -0.55826461 -0.72145408 122 105 122
-0.096694902 -0.55669928 -0.7207101 116 101 118
-0.098444849 -0.55805004 -0.72138077 122 105 123
-0.092276916 -0.55841184 -0.72141182 118 104 120
-0.093653232 -0.56032932 -0.72233552 123 109 128
-0.092803001 -0.55857873 -0.7215082 119 105 121
-0.091811843 -0.5590232 -0.72167075 120 106 123
-0.092571497 -0.55767685 -0.7210902 116 102 117
-0.09222234 -0.55710161 -0.7208156 115 101 115
-0.093447149 -0.55812103 -0.72132212 118 104 119
-0.09403038 -0.55860776 -0.72156358 119 105 121
-0.095248602 -0.55989432 -0.72219658 123 109 126
-0.094341122 -0.55776024 -0.72116458 117 103 119
-0.09504278 -0.55835766 -0.7214607 119 105 121
-0.095135659 -0.55771643 -0.72115648 117 103 119
-0.089446813 -0.5593943 -0.72183639 116 101 117
-0.088540189 -0.55958992 -0.72193611 115 101 115
-0.089801431 -0.55995387 -0.72209752 118 104 120
-0.08800482 -0.55862927 -0.72148716 111 96 110
-0.088898815 -0.55981058 -0.72203732 116 102 117
-0.088601477 -0.55846155 -0.72140318 112 97 112
-0.090899058 -0.55749124 -0.72096634 114 99 115
-0.090920463 -0.5592612 -0.72176909 118 104 122
-0.091540925 -0.55868214 -0.72151285 118 104 121
-0.091267616 -0.55789876 -0.72115487 116 101 117
-0.091227226 -0.55740368 -0.72092998 114 100 115
-0.08510685 -0.55931872 -0.72191876 106 94 106
-0.085168399 -0.55929881 -0.72190267 106 94 107
-0.085271463 -0.5598439 -0.72220242 107 94 107
-0.086630106 -0.56018716 -0.7222892 112 99 112
-0.084046409 -0.55855 -0.72156817 102 90 103
-0.085169494 -0.55837047 -0.72137827 105 94 106
-0.086380258 -0.5587337 -0.72151613 109 97 109
-0.087809831 -0.55925745 -0.72178334 113 99 112
-0.085859813 -0.55800503 -0.72116494 106 94 106
-0.086310618 -0.55698383 -0.72068954 104 90 104
-0.08741188 -0.55724078 -0.72082621 106 91 106
-0.087822862 -0.55845493 -0.72140491 111 95 110
-0.080561377 -0.55764061 -0.72129208 94 78 95
-0.083219849 -0.56015319 -0.72252637 102 88 104
-0.082290187 -0.56017464 -0.7225883 101 88 105
-0.080175593 -0.55982608 -0.72251141 97 88 106
-0.080464736 -0.55744576 -0.72119039 93 78 94
-0.082773022 -0.55947566 -0.72217894 100 85 101
-0.082633026 -0.55862308 -0.72170955 99 84 99
-0.08324448 -0.55893743 -0.72184402 100 87 101
-0.082725719 -0.55708688 -0.72083545 97 85 98
-0.082718857 -0.55859399 -0.72168708 99 85 99
-0.083780557 -0.559075 -0.72188401 102 89 102
-0.083754204 -0.55753726 -0.72101736 100 89 101
-0.077933289 -0.56000084 -0.72276694 118 109 117
-0.076762997 -0.5601452 -0.72290945 134 125 126
-0.078778058 -0.55940491 -0.72241771 99 90 107
-0.077137835 -0.5582388 -0.72193176 103 94 106
-0.077022023 -0.56000209 -0.72282219 129 120 123
-0.077020526 -0.5602746 -0.72295886 133 124 126
-0.079192266 -0.55928642 -0.72231573 97 87 105
-0.078656174 -0.55802119 -0.72167939 95 83 99
-0.078166917 -0.55833149 -0.72190207 96 85 102
-0.080033585 -0.55924207 -0.72220117 96 85 103
-0.078736342 -0.55695552 -0.72108644 93 79 94
-0.076747388 -0.55704266 -0.72134757 94 83 98
-0.075242229 -0.5569554 -0.72138941 97 85 102
-0.099829189 -0.56099653 -0.72279572 133 114 132
-0.099081025 -0.56131816 -0.72292268 131 114 131
-0.097121499 -0.56145787 -0.72297448 129 113 131
-0.096705377 -0.56085151 -0.72267509 127 112 129
-0.092897743 -0.56173807 -0.72298002 126 112 131
-0.094340786 -0.56171596 -0.72303039 126 113 131
-0.091895133 -0.56069952 -0.72243845 124 110 129
-0.092907213 -0.56099749 -0.72262198 124 110 129
-0.091698244 -0.56192273 -0.72302687 125 111 131
-0.091519177 -0.56096637 -0.7225706 124 110 129
-0.09088099 -0.5610702 -0.72263765 123 110 127
-0.08845973 -0.56105196 -0.72266197 120 106 119
-0.0896153 -0.560669 -0.72244495 120 107 122
-0.087510727 -0.56098771 -0.72265983 117 104 117
-0.086430289 -0.56085777 -0.72266918 114 100 114
-0.084399275 -0.56114715 -0.72297591 109 95 111
-0.082432628 -0.56070793 -0.72286254 103 91 108
-0.079067633 -0.56066132 -0.72302681 112 104 117
-0.16745734 -0.54694235 -0.73837447 150 122 155
-0.16665103 -0.54598665 -0.73795879 139 102 146
-0.16768856 -0.54582959 -0.73862523 140 107 145
-0.166935 -0.54843789 -0.73803222 166 142 166
-0.16650689 -0.54778451 -0.73783255 158 129 160
-0.16607888 -0.54727632 -0.73762906 152 119 155
-0.16401522 -0.5477038 -0.73655635 169 146 174
-0.16431682 -0.54762173 -0.73672956 168 144 172
-0.16385275 -0.54782265 -0.73645627 171 148 176
-0.16267897 -0.54839593 -0.73575926 178 156 185
-0.16376822 -0.54761422 -0.73642862 170 147 175
-0.16455767 -0.54677552 -0.73690081 159 133 165
-0.16466087 -0.54733026 -0.73693597 164 140 169
-0.16456591 -0.54646093 -0.73691332 155 128 163
-0.16430768 -0.54696858 -0.73677385 163 140 169
-0.1653229 -0.54787672 -0.73724347 165 138 167
-0.16811238 -0.54979724 -0.73858428 183 169 185
-0.1674467 -0.55046362 -0.73822212 191 175 191
-0.16800211 -0.54967976 -0.73853254 181 166 183
-0.16644305 -0.55254859 -0.73767251 217 209 218
-0.1664436 -0.55065906 -0.73771924 193 176 192
-0.16610584 -0.5490815 -0.7375927 173 147 171
-0.16637635 -0.55057108 -0.73768848 192 174 191
-0.16243879 -0.55111498 -0.73559171 203 184 209
-0.16499175 -0.5519641 -0.73692256 211 201 214
-0.16366416 -0.55216944 -0.73623431 212 199 217
-0.16388749 -0.55085379 -0.73634255 201 186 205
-0.16383368 -0.55184299 -0.73632044 210 196 214
-0.16406952 -0.55271482 -0.73644805 217 205 221
-0.16498794 -0.55093825 -0.73693794 199 185 201
-0.165594 -0.54896754 -0.73731959 173 147 172
-0.1650997 -0.55137247 -0.73698872 204 192 207
-0.16463062 -0.55017823 -0.7367602 191 173 193
-0.16501145 -0.55021876 -0.73696852 190 172 192
-0.16579336 -0.54924506 -0.73742235 175 151 174
-0.16174506 -0.54976076 -0.73526174 189 169 197
-0.16105516 -0.55254543 -0.73499238 212 194 219
-0.1609402 -0.55243808 -0.73494411 210 193 218
-0.16158842 -0.54883516 -0.73514229 185 165 192
-0.16128217 -0.55084074 -0.73507631 197 178 205
-0.16754082 -0.55352271 -0.7382049 220 214 223
-0.16660601 -0.55320817 -0.73774761 219 212 221
-0.16759141 -0.55325103 -0.73822975 220 214 223
-0.16843618 -0.55642807 -0.73864233 222 215 231
-0.16609201 -0.55295277 -0.73749775 219 212 220
-0.16735679 -0.55591774 -0.73813152 222 215 229
-0.16614284 -0.55444837 -0.73754501 220 214 225
-0.16781078 -0.55576766 -0.73833984 222 215 229
-0.16510499 -0.55660743 -0.73706013 221 217 230
-0.16438894 -0.55582541 -0.7366749 220 213 229
-0.16234247 -0.55416477 -0.73559141 217 206 225
-0.16274646 -0.55388838 -0.73578691 218 205 225
-0.16350868 -0.55626696 -0.73624408 219 215 227
-0.162135 -0.55624491 -0.73555005 217 216 225
-0.1652393 -0.55416101 -0.73707831 220 211 225
-0.16300112 -0.55283487 -0.73589486 217 202 223
-0.163914 -0.55276525 -0.73636788 217 205 222
-0.16421209 -0.55305517 -0.73652732 218 206 222
-0.16309808 -0.55316752 -0.73595053 217 203 224
-0.16397497 -0.55417854 -0.736422 219 207 226
-0.16165532 -0.55466324 -0.73532444 214 203 221
-0.161924 -0.55543572 -0.73544526 216 210 223
-0.16192128 -0.55369657 -0.73539132 215 202 223
-0.1608153 -0.55467761 -0.73500931 208 194 215
-0.1608544 -0.55286258 -0.73491794 212 195 220
-0.1602352 -0.55481744 -0.73477733 206 192 214
-0.16826864 -0.55708945 -0.73858637 219 212 229
-0.16718362 -0.55875796 -0.73815846 207 197 221
-0.16666512 -0.55669188 -0.73782444 222 216 231
-0.16781271 -0.55775225 -0.73840481 215 206 226
-0.16642131 -0.56039387 -0.73792821 189 172 209
-0.16617292 -0.55968481 -0.73777682 195 179 213
-0.16715167 -0.56008947 -0.73822588 195 180 213
-0.16238159 -0.5594824 -0.73609602 196 189 207
-0.16470744 -0.56034338 -0.73718959 189 174 206
-0.16267668 -0.55853117 -0.73607266 203 197 214
-0.16410156 -0.55920589 -0.73676515 197 186 213
-0.16222635 -0.55744553 -0.73572046 211 209 220
-0.16398941 -0.5590232 -0.73669088 199 189 213
-0.16531815 -0.55817753 -0.73726356 207 197 221
-0.16535664 -0.55700344 -0.73721051 218 212 228
-0.16581708 -0.55703694 -0.73744506 219 212 229
-0.16523398 -0.55693054 -0.73714417 219 213 229
-0.16377105 -0.55745381 -0.73643798 212 207 223
-0.16546273 -0.55947727 -0.73741668 196 181 213
-0.16176121 -0.56004649 -0.73594618 192 184 203
-0.16051388 -0.55910331 -0.73535973 200 192 210
-0.16151762 -0.55752474 -0.73547435 211 208 220
-0.15963498 -0.55932486 -0.73508197 198 189 209
-0.16183214 -0.55737668 -0.73556328 212 210 221
-0.15941893 -0.55795372 -0.73478532 198 186 207
-0.16046436 -0.55787784 -0.73515177 206 199 215
-0.1616926 -0.55691725 -0.73544252 214 213 223
-0.16102292 -0.55678695 -0.73517907 209 204 217
-0.16621618 -0.56102192 -0.7378993 185 167 204
-0.16744418 -0.56217963 -0.73855478 185 169 198
-0.16730228 -0.5616672 -0.73843873 187 170 202
-0.16618942 -0.56300884 -0.73809022 178 159 189
-0.16645434 -0.56346869 -0.73825616 177 158 186
-0.1625438 -0.56259871 -0.73660517 174 156 188
-0.16339521 -0.56438679 -0.73718005 164 139 177
-0.1627944 -0.56244886 -0.73667604 176 160 188
-0.16526783 -0.56431991 -0.73786294 171 151 178
-0.16335995 -0.56286287 -0.73694539 175 158 186
-0.16314197 -0.56325382 -0.73692167 171 152 184
-0.16272458 -0.56057137 -0.73640305 188 178 201
-0.16473724 -0.56061387 -0.73723984 187 171 204
-0.16482924 -0.56207484 -0.7374264 182 166 193
-0.165971 -0.56306136 -0.7379989 178 159 188
-0.16402021 -0.56169915 -0.73705357 183 170 195
-0.16449945 -0.56158155 -0.7372399 184 168 196
-0.16036202 -0.56141812 -0.73564303 185 174 198
-0.15869161 -0.56375897 -0.73536354 175 162 193
-0.1594782 -0.5629878 -0.73553944 178 166 195
-0.15880157 -0.56268662 -0.73525935 180 167 196
-0.15868634 -0.5629428 -0.73525268 178 166 195
-0.1608126 -0.56397015 -0.73616886 167 146 184
-0.15905355 -0.56388068 -0.73551136 173 160 192
-0.16114677 -0.56164855 -0.73595363 183 173 197
-0.16202356 -0.56409138 -0.73663008 162 136 179
-0.16205209 -0.56214148 -0.73635703 176 160 190
-0.16062506 -0.56251746 -0.73588884 178 165 194
-0.15795232 -0.56129879 -0.73477089 187 174 200
-0.15763794 -0.56241196 -0.73480546 182 170 197
-0.16664033 -0.5647192 -0.73846942 171 153 177
-0.16616799 -0.5673753 -0.7385506 148 130 149
-0.16609715 -0.56821722 -0.73861444 140 122 140
-0.16362716 -0.56780297 -0.7376644 139 117 145
-0.16303208 -0.56570578 -0.73719811 152 126 164
-0.16469307 -0.56827599 -0.73810697 137 118 140
-0.16399395 -0.56637669 -0.73762667 149 125 158
-0.16354011 -0.56597751 -0.7374146 151 126 162
-0.16426755 -0.56717664 -0.7378214 144 122 150
-0.16559251 -0.56560338 -0.73813105 161 141 166
-0.1634087 -0.56511527 -0.73726881 157 133 170
-0.16508782 -0.56587166 -0.73797446 157 136 163
-0.16578868 -0.56610173 -0.73825938 157 138 161
-0.1635191 -0.56528181 -0.73732823 156 132 169
-0.15823725 -0.56533098 -0.73537225 168 152 184
-0.15998748 -0.56665319 -0.73618585 152 134 165
-0.1614172 -0.56821829 -0.73689228 137 115 145
-0.15968464 -0.56753087 -0.73614031 151 130 159
-0.16010648 -0.56665939 -0.73623401 151 133 164
-0.15851468 -0.56782168 -0.73569745 157 134 163
-0.16020221 -0.56607795 -0.73620969 154 136 169
-0.16200757 -0.56810963 -0.73711401 134 113 143
-0.16172579 -0.56610751 -0.7367714 149 125 163
-0.16055998 -0.56670374 -0.73641562 149 130 162
-0.16143744 -0.56663859 -0.73672926 146 124 159
-0.16064399 -0.56543362 -0.73629457 157 136 173
-0.15804945 -0.56470013 -0.73526013 171 158 190
-0.15720026 -0.56663024 -0.73518181 168 151 178
-0.15799226 -0.56586778 -0.73534405 167 151 181
-0.15814339 -0.5681476 -0.73558366 159 134 162
-0.15709433 -0.5676527 -0.73523933 165 145 171
-0.1563397 -0.56626034 -0.73486555 172 159 183
-0.15681353 -0.56499851 -0.7348569 173 162 189
-0.16578199 -0.56947529 -0.7386474 137 119 136
-0.16484131 -0.57028615 -0.73840821 138 118 137
-0.16501768 -0.5717352 -0.73865187 134 115 132
-0.16451266 -0.57034016 -0.7382955 139 119 138
-0.16554475 -0.56907827 -0.73851401 139 120 138
-0.16409571 -0.56857729 -0.73792738 136 116 139
-0.16454272 -0.56914496 -0.738159 138 118 139
-0.16304512 -0.57090813 -0.73783326 141 118 140
-0.16226594 -0.57166219 -0.73764366 142 118 140
-0.16351092 -0.56910425 -0.73778033 137 116 140
-0.16403432 -0.56921309 -0.73798323 138 117 140
-0.15896222 -0.57133144 -0.73648149 153 133 157
-0.16006662 -0.57110548 -0.73677897 150 127 151
-0.15894215 -0.57114369 -0.73643571 153 132 157
-0.16109534 -0.57207799 -0.73730487 146 123 146
-0.16027689 -0.57052547 -0.73672253 150 125 150
-0.16030887 -0.57219678 -0.73708421 149 127 150
-0.16144228 -0.57157737 -0.73730975 146 121 144
-0.16036402 -0.56911409 -0.73657596 146 122 149
-0.15958314 -0.56955212 -0.73631752 152 127 153
-0.16061229 -0.5691551 -0.73668033 144 121 148
-0.16192001 -0.56895274 -0.73717839 135 113 141
-0.16106966 -0.56952649 -0.73690879 142 119 146
-0.155444 -0.56937277 -0.73498201 161 143 165
-0.15537526 -0.56910801 -0.73492128 163 146 167
-0.15492569 -0.57028812 -0.73497921 155 138 160
-0.15561697 -0.57086521 -0.7352767 148 128 153
-0.15443215 -0.57073712 -0.73490906 154 138 159
-0.15758555 -0.56922048 -0.73559171 155 132 158
-0.15810734 -0.57010311 -0.73595369 156 134 160
-0.15519182 -0.57189363 -0.7353459 145 127 150
-0.15708274 -0.57206261 -0.73601997 151 134 157
-0.15742049 -0.57088464 -0.73588616 153 133 158
-0.15330079 -0.57153785 -0.73477328 151 136 156
-0.15400511 -0.5713957 -0.73491138 150 134 155
