ply
format ascii 1.0
comment PCL generated
element vertex 924
property float x
property float y
property float z
property uchar red
property uchar green
property uchar blue
element camera 1
property float view_px
property float view_py
property float view_pz
property float x_axisx
property float x_axisy
property float x_axisz
property float y_axisx
property float y_axisy
property float y_axisz
property float z_axisx
property float z_axisy
property float z_axisz
property float focal
property float scalex
property float scaley
property float centerx
property float centery
property int viewportx
property int viewporty
property float k1
property float k2
end_header
-0.080576748 -0.1379701 -0.71480352 126 96 90
-0.080756895 -0.13852409 -0.71465117 126 94 89
-0.080637701 -0.13834576 -0.71468532 126 95 90
-0.079185098 -0.13596159 -0.71515763 127 98 90
-0.079145685 -0.13760467 -0.7145651 126 94 88
-0.078885421 -0.13603044 -0.71505344 127 97 89
-0.079917617 -0.13716577 -0.71492469 128 98 90
-0.085619673 -0.14252274 -0.71457762 132 102 91
-0.084546745 -0.14182337 -0.71451747 129 97 88
-0.085159317 -0.14182243 -0.71468139 130 99 90
-0.085467473 -0.14150931 -0.71486503 130 99 91
-0.084557548 -0.13982053 -0.7151683 124 93 89
-0.086606361 -0.14208353 -0.71498352 133 103 95
-0.080971174 -0.1386932 -0.71464413 125 93 89
-0.083541304 -0.14212684 -0.71416098 129 97 86
-0.081768282 -0.14035572 -0.71430159 128 96 88
-0.083298653 -0.14149679 -0.71430564 128 96 86
-0.082935393 -0.1404617 -0.71455193 126 95 87
-0.083044745 -0.13977414 -0.71480107 124 93 88
-0.081949592 -0.14244799 -0.71363556 125 94 84
-0.081231229 -0.14027138 -0.71419001 127 95 88
-0.08320649 -0.14195389 -0.71413261 129 97 86
-0.081934214 -0.14142707 -0.71397972 127 95 86
-0.082799569 -0.1418744 -0.71405333 128 96 86
-0.081969105 -0.14235012 -0.71367401 125 95 84
-0.079875633 -0.14015093 -0.71387708 124 93 86
-0.079886965 -0.13957183 -0.71407747 124 93 87
-0.079621799 -0.13875422 -0.71428728 125 93 88
-0.089503683 -0.14474306 -0.71500003 129 99 92
-0.090412296 -0.14528574 -0.71510679 130 101 91
-0.088408977 -0.1432566 -0.71511698 134 105 97
-0.090378262 -0.14585136 -0.71493 125 94 88
-0.087976031 -0.14439145 -0.71465516 121 88 91
-0.087403975 -0.14600864 -0.71402347 106 69 82
-0.087319046 -0.14616393 -0.71395868 105 68 81
-0.086435594 -0.14381878 -0.7144109 123 90 89
-0.085197389 -0.14265406 -0.71442419 131 100 89
-0.085725427 -0.14343233 -0.71433544 125 93 88
-0.086355045 -0.14419392 -0.71427882 120 86 87
-0.087767243 -0.14508739 -0.71439189 114 80 87
-0.086870581 -0.14312685 -0.71473098 130 99 93
-0.082986623 -0.14289191 -0.71377444 125 95 83
-0.08130604 -0.14279893 -0.71336114 122 92 82
-0.087665625 -0.14733037 -0.71373641 98 61 76
-0.096394539 -0.15278637 -0.71521771 98 66 68
-0.091961995 -0.1186014 -0.72653157 156 126 110
-0.090881869 -0.11869128 -0.72617239 152 118 105
-0.09136188 -0.11909805 -0.72609407 155 122 106
-0.099918008 -0.12297157 -0.72672719 144 115 111
-0.0989272 -0.122595 -0.72662777 149 121 115
-0.098543093 -0.12223154 -0.72670025 151 123 115
-0.096381336 -0.1227266 -0.72579837 163 135 123
-0.097936973 -0.12238076 -0.72644204 154 126 118
-0.096574612 -0.12068266 -0.72690064 158 130 117
-0.093866341 -0.11923087 -0.72680092 159 130 112
-0.095173202 -0.1223409 -0.72562474 165 136 124
-0.093105502 -0.12028187 -0.72602469 160 130 114
-0.09544421 -0.12014487 -0.72683215 161 133 117
-0.094276763 -0.12003767 -0.72651881 161 131 115
-0.09347599 -0.12117122 -0.72568363 163 133 119
-0.092137083 -0.1213204 -0.72517025 165 137 125
-0.092689581 -0.12284974 -0.72455323 170 144 135
-0.093543656 -0.12292418 -0.72479236 169 142 133
-0.09218628 -0.12194844 -0.72485906 167 140 129
-0.093193293 -0.12096977 -0.72569656 162 132 118
-0.093771547 -0.12249364 -0.72509086 167 139 129
-0.088120461 -0.12273146 -0.72329426 163 135 109
-0.088238224 -0.12176367 -0.72382748 157 125 105
-0.088123269 -0.12168618 -0.72383535 156 124 103
-0.089091301 -0.12217678 -0.72385269 161 131 114
-0.090094827 -0.12176626 -0.72434574 160 129 119
-0.088194296 -0.12124552 -0.72408307 154 119 102
-0.091272809 -0.12152603 -0.72480363 164 134 125
-0.091303714 -0.12192514 -0.72460443 165 137 128
-0.090942815 -0.12189551 -0.72451741 163 134 126
-0.090706088 -0.11964141 -0.72562456 154 120 107
-0.091500342 -0.12090468 -0.72519189 162 133 121
-0.091080323 -0.11971921 -0.72569025 156 123 109
-0.086509958 -0.12228798 -0.72311193 150 121 100
-0.087617472 -0.12153844 -0.72377706 154 121 101
-0.087176129 -0.12227944 -0.72328144 156 129 104
-0.1039983 -0.12610219 -0.7266168 155 115 104
-0.10427039 -0.12613587 -0.7267018 156 118 105
-0.10161075 -0.12393721 -0.7268154 144 107 103
-0.10253685 -0.12461465 -0.72680032 145 105 100
-0.10311818 -0.12554631 -0.72656447 150 110 102
-0.10344371 -0.1265239 -0.72622848 156 119 107
-0.10029255 -0.12491591 -0.72594523 154 124 114
-0.10044812 -0.12673143 -0.72515011 163 131 113
-0.100655 -0.12687205 -0.72515285 163 131 113
-0.10200678 -0.1254869 -0.72624457 154 122 111
-0.10102224 -0.12625881 -0.72555989 159 127 113
-0.10099576 -0.12557308 -0.72587085 156 125 113
-0.10116251 -0.12460103 -0.72637904 151 120 113
-0.096512102 -0.12581286 -0.72436684 161 128 120
-0.095814191 -0.12686017 -0.72365785 156 120 118
-0.096450597 -0.12652329 -0.72401142 159 124 118
-0.09757898 -0.12555017 -0.72481632 164 133 119
-0.096160263 -0.12482608 -0.72472721 163 131 122
-0.096831255 -0.12419187 -0.72523224 166 137 123
-0.097721845 -0.123215 -0.72595221 157 129 120
-0.09906815 -0.12605081 -0.72503 164 133 116
-0.097109489 -0.12309244 -0.72582757 159 131 122
-0.099021569 -0.12547472 -0.72528476 161 131 116
-0.097451024 -0.12460647 -0.72522312 165 136 121
-0.098929487 -0.12555206 -0.72522134 162 132 117
-0.092419758 -0.12562941 -0.72309232 170 142 134
-0.091920987 -0.1233679 -0.72404367 171 146 139
-0.093123756 -0.12440206 -0.72394896 166 137 132
-0.094698012 -0.12594965 -0.72372842 160 126 123
-0.093248591 -0.12460887 -0.72388971 166 136 131
-0.094537303 -0.12431352 -0.72445148 164 135 127
-0.095402263 -0.12350269 -0.72511721 166 137 126
-0.094992109 -0.12609771 -0.72375399 159 125 122
-0.093154877 -0.12423921 -0.72403687 166 138 132
-0.094292842 -0.12411437 -0.72446632 165 136 129
-0.094611704 -0.12564465 -0.72384495 161 128 124
-0.088797189 -0.12308625 -0.72330099 166 140 116
-0.090299606 -0.12429266 -0.72312069 169 143 127
-0.091334075 -0.12403582 -0.7235381 171 146 135
-0.10790864 -0.12941562 -0.72661853 163 130 126
-0.10786849 -0.12877007 -0.72688013 166 134 124
-0.10744882 -0.12893976 -0.72666907 165 132 126
-0.10587136 -0.12699106 -0.72690898 171 138 116
-0.10528028 -0.12739886 -0.72652161 164 131 116
-0.10618667 -0.12812841 -0.72654796 164 131 120
-0.1066238 -0.12966789 -0.72605443 157 124 125
-0.10679445 -0.12894233 -0.7264266 162 129 124
-0.1058201 -0.12780493 -0.72654992 164 131 119
-0.10619809 -0.12958993 -0.72592992 155 122 124
-0.10651609 -0.13061306 -0.72561818 156 124 129
-0.10443 -0.12857762 -0.72571248 159 126 118
-0.10692259 -0.1304175 -0.72584653 154 121 128
-0.10419413 -0.12996244 -0.72505045 162 133 123
-0.10366711 -0.12928893 -0.72514063 163 132 120
-0.10545017 -0.13057701 -0.72524816 159 129 127
-0.10116715 -0.12991951 -0.72400016 167 140 124
-0.10197201 -0.12976143 -0.72436452 167 138 123
-0.10051026 -0.12998022 -0.72373354 168 141 125
-0.10024799 -0.12793735 -0.72455895 166 135 118
-0.10018681 -0.12866393 -0.72420913 167 138 120
-0.099994041 -0.12941656 -0.72379965 168 140 123
-0.10328649 -0.12953205 -0.72490901 164 135 121
-0.10273159 -0.12793152 -0.72539264 162 130 115
-0.10011397 -0.12711313 -0.72486991 165 133 115
-0.10121921 -0.12703224 -0.72526824 163 130 113
-0.10310134 -0.12934759 -0.72492474 164 134 120
-0.10136571 -0.12720275 -0.72524554 163 130 113
-0.097235233 -0.12866794 -0.72327369 161 131 122
-0.095829099 -0.12733388 -0.72344685 157 122 119
-0.096531019 -0.12708111 -0.72377449 158 123 117
-0.096153796 -0.12723641 -0.72358954 157 122 118
-0.096744925 -0.12719004 -0.72379059 158 124 118
-0.099113166 -0.12841918 -0.72395784 165 136 120
-0.096292146 -0.12752925 -0.72349966 157 123 119
-0.099499837 -0.1269781 -0.72472543 165 133 115
-0.095490411 -0.12713233 -0.72342533 157 122 119
-0.10868796 -0.13091309 -0.72624272 156 122 126
-0.1078915 -0.13116476 -0.72589129 154 121 128
-0.10979567 -0.1325589 -0.72603321 153 124 118
-0.10849335 -0.13141629 -0.72600228 154 122 126
-0.11015558 -0.13178954 -0.72642124 156 124 119
-0.10817082 -0.13186717 -0.72572827 152 121 124
-0.10742889 -0.13228965 -0.72529149 151 118 121
-0.10818832 -0.13298544 -0.72530162 150 119 117
-0.10765745 -0.13349368 -0.72490942 148 117 113
-0.10380466 -0.13257158 -0.72385842 161 132 120
-0.10429018 -0.13267143 -0.72399908 159 130 119
-0.10519458 -0.13345148 -0.72402501 155 125 114
-0.10475932 -0.1333783 -0.72389239 156 126 115
-0.1042119 -0.13212769 -0.72418618 161 133 121
-0.10598641 -0.13271852 -0.72460431 154 124 116
-0.10641795 -0.1324213 -0.72487533 154 123 119
-0.10645489 -0.13240914 -0.72489339 154 122 119
-0.1056219 -0.13180535 -0.72482628 158 128 122
-0.10435959 -0.13096522 -0.72469556 163 135 127
-0.10521638 -0.13107622 -0.72496212 160 131 127
-0.10145761 -0.13110496 -0.72358471 167 141 127
-0.10138395 -0.13165502 -0.72333956 166 139 125
-0.10254715 -0.13293281 -0.72325593 162 133 120
-0.10285495 -0.13088349 -0.72418153 167 140 127
-0.10351171 -0.13257332 -0.72374994 162 133 121
-0.11596631 -0.13817038 -0.72649449 151 115 102
-0.11426757 -0.13706774 -0.7261672 147 112 101
-0.11382459 -0.1370924 -0.72599024 148 113 101
-0.11255956 -0.13771185 -0.7253114 147 114 98
-0.1116894 -0.1367972 -0.72526664 148 119 101
-0.11489419 -0.13857524 -0.72593248 147 106 97
-0.11356499 -0.13747901 -0.72576928 148 112 100
-0.11439626 -0.13860135 -0.72573382 147 107 96
-0.11199936 -0.13776353 -0.72508091 147 115 98
-0.10865235 -0.13677777 -0.72415286 143 112 99
-0.10994091 -0.13793665 -0.72426176 144 112 97
-0.10842139 -0.1361776 -0.7242552 144 113 101
-0.11004008 -0.13823119 -0.72420639 143 112 96
-0.10849889 -0.13597742 -0.72434556 145 113 101
-0.10761198 -0.13557617 -0.72414756 143 112 102
-0.11058202 -0.13763838 -0.72458887 147 114 97
-0.10934287 -0.13528369 -0.72487414 147 118 104
-0.11110507 -0.13799669 -0.72466862 147 115 97
-0.11100299 -0.13756387 -0.72476733 147 116 98
-0.10626527 -0.13661419 -0.72332376 143 113 104
-0.10573986 -0.13660608 -0.72313106 144 115 105
-0.10449123 -0.13508245 -0.72314233 152 121 111
-0.106106 -0.13720499 -0.72308028 141 113 104
-0.10653713 -0.13547547 -0.72377992 146 115 105
-0.11725008 -0.13941468 -0.72664213 161 131 111
-0.11583471 -0.1397936 -0.72595805 156 120 105
-0.11537456 -0.1392009 -0.72594362 151 111 100
-0.11650485 -0.1400885 -0.7261306 158 126 110
-0.11614096 -0.14002256 -0.72601181 158 124 108
-0.11186244 -0.1417679 -0.72390932 161 127 104
-0.11178771 -0.13999552 -0.72435838 154 121 100
-0.11151638 -0.14225985 -0.72364336 161 126 104
-0.11146389 -0.13972662 -0.72430605 151 118 98
-0.11238289 -0.13995707 -0.72459805 157 124 102
-0.11244084 -0.14011556 -0.72457767 157 125 102
-0.11494306 -0.14064617 -0.72539407 164 129 107
-0.11368161 -0.13895594 -0.72536248 149 111 97
-0.11463568 -0.13930421 -0.72563452 152 113 100
-0.11384729 -0.13985173 -0.72518688 157 122 102
-0.11447538 -0.13879853 -0.72570807 148 108 97
-0.11467532 -0.14158827 -0.72504032 172 141 113
-0.10980258 -0.14193602 -0.72306591 149 115 99
-0.10937333 -0.14072788 -0.72326827 147 115 101
-0.10771388 -0.13881604 -0.72318435 134 107 98
-0.11061796 -0.13957515 -0.72403622 147 115 97
-0.11095336 -0.14188528 -0.72353548 157 123 103
-0.11102219 -0.14219752 -0.72347635 159 124 104
-0.10817236 -0.13902551 -0.72329468 137 108 98
-0.1096313 -0.1405248 -0.72342122 148 116 101
-0.11540853 -0.1453689 -0.7243669 180 157 137
-0.11606171 -0.14645934 -0.72437459 175 153 143
-0.11606769 -0.1443501 -0.72490478 174 147 128
-0.11620802 -0.14639489 -0.72445363 174 151 142
-0.11523472 -0.14561407 -0.72423089 182 160 139
-0.11569639 -0.14582339 -0.7243768 178 155 140
-0.1123824 -0.1453675 -0.7231645 179 151 118
-0.11221691 -0.14471029 -0.7232734 175 145 115
-0.11281442 -0.14615819 -0.72312731 183 159 123
-0.11345749 -0.14585303 -0.72346723 181 156 128
-0.11254985 -0.14472716 -0.72340274 174 145 119
-0.11506113 -0.14630751 -0.7239905 182 161 144
-0.11467659 -0.14580204 -0.7239688 179 157 139
-0.11203377 -0.14321348 -0.723598 165 132 111
-0.11478472 -0.14603308 -0.72395265 180 158 141
-0.11472775 -0.14370425 -0.72451323 179 151 124
-0.11514558 -0.14373569 -0.72466636 181 154 126
-0.1103827 -0.14257918 -0.72310096 153 118 100
-0.11830808 -0.14963521 -0.72472495 159 116 123
-0.11539235 -0.15035176 -0.72336304 168 122 136
-0.11646707 -0.15019736 -0.72384471 164 119 131
-0.11561567 -0.14911737 -0.72368586 172 134 137
-0.11594978 -0.1501473 -0.72363591 167 122 133
-0.11679965 -0.15004939 -0.72401232 164 119 129
-0.11685155 -0.14704323 -0.7245996 169 142 138
-0.11836199 -0.14956217 -0.72476161 159 116 122
-0.1178134 -0.14744696 -0.72493476 161 130 133
-0.11664074 -0.14757349 -0.72440666 172 143 136
-0.11821231 -0.14841318 -0.72491932 159 122 128
-0.11793092 -0.14815772 -0.72484785 161 126 130
-0.11517961 -0.14792399 -0.72372246 178 148 142
-0.11440434 -0.14918438 -0.72316629 175 137 136
-0.11303046 -0.14674364 -0.72307783 184 159 125
-0.11338701 -0.14657754 -0.72325277 185 161 129
-0.11423755 -0.14904551 -0.72312564 175 138 134
-0.11651634 -0.1506034 -0.72379363 164 119 130
-0.11716302 -0.15132144 -0.72394472 164 124 128
-0.11680146 -0.15067506 -0.72390175 163 118 129
-0.11650769 -0.15057687 -0.72379452 164 119 130
-0.11502114 -0.15051289 -0.72317082 169 124 137
-0.092448406 -0.12607382 -0.72288364 169 141 133
-0.093067668 -0.12650679 -0.72288507 166 136 129
-0.091525495 -0.12678942 -0.72223234 171 144 132
-0.089431845 -0.12644753 -0.72181511 170 141 124
-0.088740699 -0.12622774 -0.72173125 169 140 120
-0.088891953 -0.123979 -0.72288454 168 141 117
-0.088939205 -0.12611069 -0.7218442 169 141 121
-0.089859352 -0.12546311 -0.72241968 170 143 126
-0.089039028 -0.12554345 -0.72215223 169 141 121
-0.089210331 -0.12402599 -0.72294968 168 142 119
-0.086528361 -0.12552464 -0.72148842 153 120 104
-0.086525433 -0.1250228 -0.72173572 152 120 103
-0.086919785 -0.12442452 -0.72213387 156 125 105
-0.086890481 -0.12419455 -0.72223991 156 125 104
-0.08609692 -0.12437588 -0.72194391 147 114 99
-0.087418541 -0.1240579 -0.72244477 161 133 108
-0.086531602 -0.12576205 -0.72137552 153 121 105
-0.084862433 -0.12604198 -0.72084403 142 108 94
-0.085175909 -0.12465194 -0.72157663 139 103 93
-0.08700794 -0.12671271 -0.72103953 161 130 110
-0.085298687 -0.12673619 -0.72061986 148 115 98
-0.084924504 -0.12683275 -0.72048473 145 113 96
-0.083500378 -0.12682216 -0.72013342 137 104 89
-0.082627937 -0.12632075 -0.72013313 132 98 86
-0.082242556 -0.12688816 -0.71976095 137 101 90
-0.096700259 -0.1304381 -0.72230786 168 145 129
-0.098847933 -0.1306095 -0.72288841 168 144 128
-0.098587461 -0.13022853 -0.72298157 167 141 127
-0.097546168 -0.13059242 -0.72249711 169 145 129
-0.093823597 -0.12709479 -0.72286385 163 132 125
-0.094550192 -0.12808837 -0.72266871 164 134 125
-0.094970956 -0.12967065 -0.72209638 169 145 130
-0.095305584 -0.12830949 -0.72283065 161 131 123
-0.094283581 -0.12787692 -0.72267216 164 134 126
-0.095331222 -0.12919632 -0.72243685 165 138 126
-0.092073463 -0.12828393 -0.72174573 169 141 129
-0.092032455 -0.12996806 -0.72100949 165 134 125
-0.091939539 -0.12863249 -0.72155291 168 139 128
-0.094290569 -0.12947221 -0.72195077 171 148 132
-0.093197636 -0.12924962 -0.72169381 169 143 130
-0.09504097 -0.130325 -0.72182667 170 148 131
-0.090522967 -0.13066068 -0.7202993 163 130 118
-0.089053519 -0.13015823 -0.72012162 165 132 114
-0.088310413 -0.12881099 -0.72048181 166 135 114
-0.087957129 -0.12988158 -0.71994865 165 132 111
-0.088390343 -0.13078333 -0.7196908 164 131 111
-0.088365637 -0.12943648 -0.7202388 166 133 114
-0.088737622 -0.12710965 -0.7213062 169 139 120
-0.089166857 -0.12787305 -0.72109836 167 137 119
-0.091396719 -0.13010885 -0.72076124 164 132 122
-0.090707056 -0.12936305 -0.72088879 165 134 121
-0.089292258 -0.12828052 -0.72095841 167 136 119
-0.089035198 -0.12724264 -0.72133219 169 139 120
-0.084374376 -0.12778094 -0.71993375 142 108 92
-0.08448147 -0.12877859 -0.71950191 144 109 94
-0.085772417 -0.12880267 -0.71986622 150 117 99
-0.085127495 -0.128198 -0.71995914 146 113 96
-0.085047022 -0.12790982 -0.72006321 146 113 95
-0.087309949 -0.12996745 -0.71975714 161 127 107
-0.086242437 -0.12885632 -0.71995932 154 121 102
-0.087853029 -0.12972394 -0.71998721 165 133 111
-0.084534526 -0.12699999 -0.72031528 143 110 93
-0.085863188 -0.12794431 -0.72024411 152 119 101
-0.083103269 -0.12836151 -0.71930963 140 104 92
-0.083550505 -0.1278048 -0.71968961 139 105 91
-0.080234431 -0.1270055 -0.71916103 136 98 91
-0.10056405 -0.13178383 -0.72299081 165 140 125
-0.09961389 -0.13467851 -0.7215727 159 130 117
-0.10012786 -0.13176125 -0.72284871 166 140 125
-0.10006463 -0.1346226 -0.72174889 159 129 117
-0.099860795 -0.13245745 -0.72249442 164 138 123
-0.099912904 -0.13282958 -0.72237217 163 137 122
-0.10113601 -0.13345662 -0.72255701 161 133 119
-0.098073922 -0.1338795 -0.72140265 161 134 120
-0.09733104 -0.13323748 -0.72141671 163 137 123
-0.097815402 -0.13380022 -0.72135365 161 134 121
-0.09605097 -0.13454506 -0.7205385 158 129 120
-0.097763583 -0.13346633 -0.72146273 162 136 122
-0.097934857 -0.13348162 -0.7215091 162 136 122
-0.099465504 -0.13230799 -0.72242004 165 139 124
-0.099070631 -0.13222399 -0.72233045 165 140 125
-0.097540595 -0.13102196 -0.72231364 169 147 130
-0.09745723 -0.13145204 -0.72212607 168 145 128
-0.099337056 -0.13289036 -0.72216117 163 137 122
-0.097830698 -0.13132134 -0.72228992 168 145 128
-0.091846325 -0.1338349 -0.71944714 151 121 113
-0.093245506 -0.1341451 -0.71978498 153 123 115
-0.092073105 -0.13297164 -0.71984559 155 124 116
-0.093823828 -0.1335679 -0.72019017 157 126 118
-0.092132382 -0.13350266 -0.71966499 153 123 115
-0.093223423 -0.13276927 -0.72029567 159 127 119
-0.093290925 -0.13225617 -0.72051042 161 129 121
-0.094828166 -0.13254061 -0.72089994 163 136 124
-0.095401101 -0.13281946 -0.72098053 163 137 125
-0.094760194 -0.13347802 -0.72052753 160 130 121
-0.093795054 -0.13203184 -0.72075695 163 133 123
-0.095331028 -0.13374697 -0.7206111 160 131 122
-0.088866018 -0.13196321 -0.7193628 159 126 109
-0.091640629 -0.13291942 -0.71973479 154 123 115
-0.09173847 -0.13407105 -0.71932697 150 120 112
-0.090223521 -0.13244617 -0.71954209 157 125 112
-0.091794148 -0.13167016 -0.720245 159 127 119
-0.091227069 -0.13120197 -0.72027284 161 129 119
-0.0909357 -0.1318294 -0.71996051 159 127 116
-0.10545952 -0.13660109 -0.7230289 145 116 106
-0.10379934 -0.13691406 -0.72223896 148 118 108
-0.1059965 -0.1382575 -0.72267455 138 110 101
-0.10593767 -0.1385562 -0.72254419 137 109 101
-0.10401963 -0.1375159 -0.72211695 145 116 106
-0.10412068 -0.13729501 -0.72223723 146 116 106
-0.10386442 -0.13800938 -0.72187757 144 115 105
-0.099740654 -0.13551271 -0.72132218 157 128 114
-0.10259583 -0.13840264 -0.72128057 145 116 104
-0.10072092 -0.1376747 -0.72089994 150 122 106
-0.10168024 -0.13761637 -0.72124493 148 120 107
-0.10217298 -0.13846061 -0.72111732 145 117 104
-0.10009439 -0.13778223 -0.72065049 151 124 106
-0.10241094 -0.13745847 -0.7215479 147 118 107
-0.10076702 -0.13568363 -0.72161126 155 125 113
-0.10265342 -0.13553044 -0.72231495 154 123 112
-0.1011815 -0.13548453 -0.72182459 155 125 113
-0.10272485 -0.13506486 -0.72250468 155 125 113
-0.10151532 -0.13515069 -0.72205788 156 126 114
-0.096301958 -0.13818733 -0.71928823 144 118 107
-0.097082943 -0.13801874 -0.71960163 147 120 107
-0.099223562 -0.13862377 -0.72006947 149 123 103
-0.098383151 -0.13774222 -0.72012198 151 124 107
-0.096259341 -0.13788751 -0.71938437 146 119 108
-0.096850358 -0.13719966 -0.71982712 150 122 110
-0.098433673 -0.13649899 -0.72057629 154 126 111
-0.096995287 -0.13547391 -0.72049624 156 127 116
-0.098672405 -0.13656132 -0.72062713 154 126 111
-0.099073224 -0.13813102 -0.72020167 151 124 105
-0.099069059 -0.1372672 -0.72050166 153 125 108
-0.09951745 -0.13582562 -0.72114062 156 128 113
-0.094867826 -0.13477045 -0.72007698 155 125 117
-0.094542779 -0.13493463 -0.71991134 154 124 116
-0.094355449 -0.13685079 -0.71915007 145 117 109
-0.095670216 -0.13509683 -0.72021842 156 126 118
-0.10785466 -0.14224118 -0.72219032 131 97 89
-0.10847689 -0.14110574 -0.72278982 138 106 96
-0.10766763 -0.13967074 -0.72290742 133 104 96
-0.10844715 -0.14242302 -0.722372 136 102 91
-0.10711941 -0.13881579 -0.72294772 133 106 98
-0.10705996 -0.13926829 -0.72278285 133 104 97
-0.10580289 -0.13884696 -0.72239178 137 108 100
-0.10440224 -0.1394549 -0.72162396 139 109 100
-0.10675777 -0.14046852 -0.72228783 132 101 93
-0.10551491 -0.13970035 -0.72200942 136 106 97
-0.10564969 -0.14192581 -0.72141957 127 93 90
-0.10462327 -0.14231895 -0.72092384 122 87 91
-0.10352256 -0.1406642 -0.72095782 130 97 97
-0.10427603 -0.1419829 -0.72088391 123 89 92
-0.10411009 -0.14073044 -0.72116226 131 98 96
-0.10200829 -0.14197631 -0.72005057 127 95 94
-0.099931635 -0.14105146 -0.71955258 141 114 97
-0.10158113 -0.14197227 -0.71988976 129 99 94
-0.10155869 -0.14257382 -0.71969271 128 97 93
-0.10202253 -0.14239849 -0.71992368 126 94 93
-0.10219319 -0.13927886 -0.7208851 141 112 101
-0.10244712 -0.13882634 -0.72109431 143 115 103
-0.10062047 -0.13960949 -0.72026289 142 113 100
-0.10148219 -0.14027968 -0.7203719 136 106 98
-0.10046995 -0.13943544 -0.72025937 143 115 100
-0.10346074 -0.14149845 -0.72070938 125 90 95
-0.097016603 -0.13914877 -0.71919113 142 117 104
-0.098224849 -0.13924424 -0.71955049 145 119 102
-0.098750226 -0.13904032 -0.71978372 147 121 102
-0.098703451 -0.13956118 -0.71960533 145 119 101
-0.11191811 -0.14598364 -0.72281641 183 156 116
-0.11149658 -0.14503103 -0.7228986 178 148 111
-0.10988899 -0.1432271 -0.72273022 153 120 99
-0.10843486 -0.14259955 -0.72231358 136 101 91
-0.11059526 -0.14451234 -0.72267479 168 137 105
-0.10991744 -0.14494275 -0.72229147 165 134 103
-0.1085273 -0.14338498 -0.72214353 142 109 93
-0.11064171 -0.14503215 -0.72255743 172 142 106
-0.10830932 -0.14596328 -0.72145027 154 114 88
-0.10893017 -0.14557339 -0.72177273 158 122 94
-0.10819137 -0.14481287 -0.72167587 146 109 89
-0.10892027 -0.14473714 -0.72196496 153 120 95
-0.1082012 -0.14397427 -0.72187597 142 107 90
-0.1084773 -0.14363824 -0.72205746 143 111 93
-0.10632692 -0.14610757 -0.72063661 141 98 80
-0.10409418 -0.14367524 -0.72037065 123 86 88
-0.10479926 -0.14607854 -0.71999198 133 92 79
-0.10368142 -0.14431731 -0.72001266 123 85 85
-0.10476559 -0.14634836 -0.71990132 134 93 78
-0.10590515 -0.14497921 -0.72077554 136 94 84
-0.10484795 -0.14266163 -0.72091877 121 85 89
-0.10679347 -0.14369835 -0.72141254 131 94 85
-0.10541197 -0.14439994 -0.72072512 132 92 86
-0.10551222 -0.14298376 -0.72109485 124 88 88
-0.10685208 -0.14402883 -0.72135729 133 95 84
-0.10618475 -0.14337823 -0.72125709 128 91 86
-0.10340052 -0.14633478 -0.71932626 127 89 77
-0.10121795 -0.14350604 -0.71929848 132 101 89
-0.10241515 -0.14510319 -0.7192989 129 94 83
-0.10279586 -0.14451602 -0.71961015 125 90 85
-0.10308476 -0.14592209 -0.7193203 127 89 80
-0.10221256 -0.14426872 -0.71945912 128 94 86
-0.11304241 -0.14711876 -0.72301191 183 156 125
-0.1124268 -0.14705859 -0.72277945 184 155 121
-0.1121939 -0.14889956 -0.72227478 183 151 132
-0.11360098 -0.1496944 -0.72272396 176 137 134
-0.11281346 -0.14897989 -0.72253609 180 145 130
-0.1133656 -0.14926182 -0.72271937 177 139 131
-0.11193801 -0.14733593 -0.72252721 184 153 118
-0.10761654 -0.14851689 -0.72053897 162 126 97
-0.10999456 -0.14996651 -0.72110951 179 151 131
-0.10789666 -0.14884695 -0.72056419 165 130 102
-0.10768951 -0.14920148 -0.7203874 166 134 103
-0.1075733 -0.14824456 -0.72059363 160 122 94
-0.1076279 -0.14949182 -0.72028607 168 136 105
-0.1082857 -0.14649682 -0.72131646 156 115 87
-0.10962366 -0.14779554 -0.72150874 170 135 110
-0.11117612 -0.14945871 -0.72169501 185 159 138
-0.11061062 -0.14814395 -0.72179407 180 150 121
-0.1111623 -0.1490767 -0.72177976 185 158 134
-0.11049154 -0.14703229 -0.72201151 179 148 110
-0.10412131 -0.14797425 -0.71922845 137 103 86
-0.10565627 -0.14926818 -0.71953344 154 124 98
-0.10502347 -0.14808685 -0.71955347 145 111 90
-0.10424461 -0.14721438 -0.71944743 136 99 83
-0.10438975 -0.14768799 -0.71939731 139 103 86
-0.10687235 -0.14891446 -0.72012115 161 127 98
-0.10609856 -0.14740676 -0.72018874 147 108 86
-0.10686509 -0.14734381 -0.72053289 150 110 86
-0.105956 -0.14766121 -0.72006065 148 110 87
-0.10641306 -0.14928293 -0.71982753 161 130 100
-0.10707222 -0.14676076 -0.72077543 148 104 81
-0.11411597 -0.15065059 -0.72273624 174 134 139
-0.11440221 -0.1509306 -0.72280461 173 133 137
-0.11350796 -0.15186867 -0.72220236 178 148 137
-0.1140475 -0.15189293 -0.72244 176 142 136
-0.11428786 -0.15289883 -0.72233689 176 145 132
-0.11218464 -0.15193592 -0.72160655 180 151 139
-0.11318976 -0.15320908 -0.72179669 175 144 131
-0.11255753 -0.15178204 -0.72179621 181 154 140
-0.11176749 -0.15199263 -0.72141635 178 149 138
-0.11210582 -0.15121751 -0.72170931 184 157 143
-0.11287917 -0.15399338 -0.72151393 169 136 127
-0.1101852 -0.15393652 -0.72037822 164 132 122
-0.10941493 -0.15088436 -0.72067112 177 149 126
-0.11129382 -0.15159498 -0.72128928 179 151 140
-0.10939898 -0.15042555 -0.72075206 180 153 129
-0.10931474 -0.15104575 -0.72060031 176 147 124
-0.1105148 -0.15278983 -0.72074968 170 137 125
-0.11309173 -0.15799762 -0.72091359 151 121 112
-0.11184307 -0.15699962 -0.72054964 148 115 109
-0.11323671 -0.15673722 -0.72118974 161 130 122
-0.11220518 -0.1572656 -0.72065914 149 117 110
-0.11248134 -0.1566989 -0.72087353 155 123 116
-0.11287431 -0.15731718 -0.7209363 154 123 115
-0.11301463 -0.15531996 -0.72133768 166 133 125
-0.11360355 -0.15551962 -0.72155648 167 135 126
-0.11126088 -0.15611094 -0.72045344 150 115 111
-0.11127861 -0.15715528 -0.72028309 143 109 104
-0.11019742 -0.15539065 -0.72013456 154 121 114
-0.1098969 -0.15493102 -0.72007769 157 127 117
-0.1101053 -0.15454496 -0.72022706 161 130 121
-0.10975242 -0.15655053 -0.71976316 145 111 103
-0.11155985 -0.15868779 -0.72015136 134 101 95
-0.11150154 -0.15833403 -0.72018152 136 103 97
-0.1127117 -0.15826492 -0.72070789 146 116 107
-0.10477292 -0.10954041 -0.72886258 109 96 108
-0.10389208 -0.11061031 -0.73026174 115 93 97
-0.1060551 -0.11006996 -0.7296387 97 78 91
-0.1055614 -0.11076098 -0.73054606 100 75 84
-0.10416825 -0.10967556 -0.72901529 114 101 110
-0.10478561 -0.11016889 -0.72971028 108 89 98
-0.10509828 -0.11096555 -0.73079926 104 77 83
-0.1056419 -0.10898686 -0.72794569 110 102 122
-0.10664416 -0.11020423 -0.72979438 94 73 88
-0.1066665 -0.11012115 -0.72965264 95 75 91
-0.10541116 -0.10883654 -0.72773576 112 105 125
-0.10138585 -0.10955908 -0.72889137 102 81 95
-0.10064189 -0.11062913 -0.73020375 117 83 91
-0.10324392 -0.11092851 -0.73067546 116 90 93
-0.10089751 -0.11046478 -0.73000747 114 83 92
-0.10026149 -0.11051345 -0.73004472 116 82 91
-0.10059699 -0.10988032 -0.72926438 108 80 94
-0.10286626 -0.11039172 -0.72997236 113 90 96
-0.1034421 -0.11030848 -0.72983932 118 99 104
-0.10311325 -0.11062648 -0.7302798 115 91 95
-0.099091835 -0.1111877 -0.73077399 129 89 91
-0.098917283 -0.11092163 -0.7304101 126 89 93
-0.097723752 -0.11077984 -0.73025191 129 95 94
-0.097926818 -0.11066612 -0.7301864 126 91 92
-0.093073376 -0.11069217 -0.72951275 140 113 104
-0.09323293 -0.11096615 -0.72970551 144 118 106
-0.095189624 -0.11080901 -0.72999406 139 112 103
-0.091061421 -0.11029893 -0.72910166 140 114 104
-0.09982878 -0.11379728 -0.73078984 133 100 94
-0.098364174 -0.11163456 -0.73078793 135 98 95
-0.099146843 -0.11217463 -0.73084658 132 95 93
-0.099334158 -0.1137889 -0.73069137 135 103 95
-0.098323971 -0.11351729 -0.73056453 140 111 99
-0.09871272 -0.1140396 -0.73056644 139 111 99
-0.098384693 -0.11411399 -0.730492 141 114 100
-0.095928855 -0.11302553 -0.73003501 147 119 107
-0.09580598 -0.11300667 -0.73000312 147 119 107
-0.096331224 -0.11371431 -0.72997922 146 117 106
-0.095820166 -0.11178202 -0.73032087 147 121 106
-0.094979741 -0.11499346 -0.72927827 147 117 109
-0.092558026 -0.11320759 -0.729204 147 121 109
-0.092547812 -0.11521889 -0.72850335 139 114 109
-0.091848783 -0.11352761 -0.72888976 144 119 109
-0.093724027 -0.1133664 -0.72948289 150 121 109
-0.095556669 -0.1121725 -0.73015714 148 121 107
-0.095074318 -0.11428523 -0.72952193 148 119 108
-0.095430799 -0.11188114 -0.73020715 148 121 107
-0.094735876 -0.11320382 -0.72973257 149 120 108
-0.094391741 -0.1132376 -0.72965664 149 121 108
-0.095387593 -0.11286509 -0.72994679 148 120 108
-0.091560289 -0.1132269 -0.72893602 145 119 109
-0.091673881 -0.11177982 -0.72945875 150 125 109
-0.090792865 -0.11212151 -0.7291792 147 120 109
-0.090615511 -0.11137144 -0.72940695 150 122 109
-0.091711 -0.11337615 -0.72891176 144 119 109
-0.10255587 -0.1168666 -0.73062366 126 93 91
-0.10061845 -0.11571071 -0.73062468 134 105 95
-0.10049189 -0.11780683 -0.7295953 137 105 97
-0.10050248 -0.1188112 -0.72910815 139 106 99
-0.1004685 -0.11762008 -0.72967911 136 105 97
-0.10210815 -0.11846231 -0.72978741 126 92 91
-0.10009154 -0.11793323 -0.72940671 140 108 99
-0.099649295 -0.11863194 -0.72892535 145 113 103
-0.098864846 -0.11878355 -0.72860771 148 116 105
-0.096821502 -0.11675514 -0.72898591 148 117 108
-0.096089855 -0.11711097 -0.72857076 152 122 111
-0.099299625 -0.11888586 -0.7286948 147 114 104
-0.096259512 -0.11741745 -0.72846913 152 123 111
-0.097876146 -0.11757965 -0.72890389 147 116 106
-0.097995549 -0.11798464 -0.7287361 148 117 107
-0.096687265 -0.11543385 -0.72959924 145 115 106
-0.0982944 -0.11753293 -0.72905552 146 114 105
-0.098952554 -0.11805315 -0.7289986 146 114 104
-0.098428793 -0.11668322 -0.72951072 144 113 103
-0.096721731 -0.11583247 -0.72941488 146 115 107
-0.0970992 -0.11524073 -0.72981691 144 114 105
-0.092480667 -0.1172384 -0.72742349 149 123 111
-0.092224926 -0.11633735 -0.72782648 144 119 110
-0.091801271 -0.11636166 -0.72767717 144 119 110
-0.093708321 -0.11794763 -0.72743291 153 126 112
-0.095555149 -0.11901342 -0.72743618 159 132 116
-0.095619209 -0.11794668 -0.72799772 156 128 114
-0.095057547 -0.1159621 -0.72884661 148 119 110
-0.094130658 -0.11737803 -0.72786063 150 124 113
-0.094532892 -0.11694941 -0.72819394 150 123 112
-0.094909094 -0.11808812 -0.72772229 154 128 115
-0.095542222 -0.11589384 -0.72902018 149 119 110
-0.091438375 -0.11612093 -0.72770804 143 117 109
-0.091709599 -0.11532159 -0.72821212 138 114 109
-0.10419367 -0.1224278 -0.72840095 129 79 79
-0.099953763 -0.12200034 -0.72725338 144 113 108
-0.099691935 -0.11998102 -0.72824383 146 114 105
-0.10079046 -0.12173641 -0.72765905 141 103 100
-0.10163578 -0.12279302 -0.72736746 136 95 95
-0.10049038 -0.12107259 -0.72791678 142 106 101
-0.10087954 -0.12212982 -0.72747773 140 102 100
-0.10095304 -0.12149944 -0.72783804 140 101 98
-0.10032312 -0.11930848 -0.72880179 141 107 100
-0.10181975 -0.12073652 -0.72852141 134 92 91
-0.10293282 -0.12238044 -0.72800547 130 80 83
-0.10251191 -0.12167754 -0.72824341 131 85 86
-0.10254262 -0.1214559 -0.72837037 130 85 86
-0.097377449 -0.12077331 -0.72709155 154 126 115
-0.097454071 -0.11965969 -0.72769892 154 125 112
-0.099267527 -0.1191914 -0.72852796 148 115 105
-0.098503552 -0.12107773 -0.72728181 150 121 113
-0.098886207 -0.11999535 -0.727979 149 118 108
-0.098189145 -0.12053058 -0.72747171 151 122 112
-0.098336615 -0.12097753 -0.72728157 150 122 113
-0.11351886 -0.12410028 -0.73077524 171 138 114
-0.11261438 -0.1238201 -0.73058468 169 135 108
-0.10997733 -0.12669131 -0.72845846 169 140 125
-0.10969691 -0.12661682 -0.72839832 169 139 124
-0.10855634 -0.12487737 -0.72877699 157 118 99
-0.10803607 -0.12622705 -0.72802019 168 135 114
-0.10854674 -0.12492792 -0.72875184 158 119 100
-0.10880136 -0.12605035 -0.72834897 166 132 114
-0.11027683 -0.12587516 -0.72891104 163 130 116
-0.10542459 -0.12626138 -0.72707433 163 127 110
-0.10489002 -0.12530467 -0.72731441 153 111 101
-0.10623659 -0.12632965 -0.72734672 166 131 113
-0.10567927 -0.12530455 -0.72760922 154 115 103
-0.10476046 -0.1240542 -0.72783411 141 94 90
-0.10420498 -0.12351503 -0.72787476 134 84 84
-0.10441095 -0.12321876 -0.72807485 133 81 80
-0.10377206 -0.12318869 -0.72786564 130 78 81
-0.10321403 -0.12367201 -0.72745061 134 85 87
-0.10322451 -0.12347268 -0.72754645 132 83 85
-0.11687817 -0.12781025 -0.73045093 172 138 126
-0.11724118 -0.12872991 -0.73024178 167 135 124
-0.11796283 -0.1295024 -0.73023152 160 128 118
-0.11691973 -0.12939157 -0.72984684 168 138 125
-0.11775423 -0.13053071 -0.7297349 159 129 117
-0.11647906 -0.13079448 -0.72910017 168 140 124
-0.11681268 -0.12902099 -0.72995132 169 139 126
-0.11698682 -0.13064237 -0.72937185 164 136 122
-0.11139342 -0.12875296 -0.7280525 166 136 126
-0.1117814 -0.13029644 -0.72754073 164 132 121
-0.11279352 -0.13084599 -0.72767627 167 136 123
-0.107557 -0.12742451 -0.72734779 172 142 122
-0.10809071 -0.12832858 -0.72714055 169 137 123
-0.11079524 -0.13036452 -0.7271713 163 129 118
-0.1111092 -0.12878315 -0.72794384 166 135 125
-0.10974513 -0.12799472 -0.72782791 169 139 124
-0.11091038 -0.13031785 -0.72722924 163 129 118
-0.10920445 -0.12777004 -0.7277447 171 140 123
-0.11047556 -0.12814945 -0.72800308 168 138 126
-0.10659778 -0.12701347 -0.72716987 173 141 119
-0.11654201 -0.13224204 -0.72862291 164 131 118
-0.11359851 -0.13184981 -0.72763556 162 132 119
-0.11197913 -0.13115209 -0.7272777 162 128 118
-0.11459731 -0.13268404 -0.72772259 159 130 118
-0.11207086 -0.13156338 -0.72717494 158 125 116
-0.11324255 -0.1318738 -0.72749817 160 129 118
-0.084077038 -0.12970573 -0.71896088 143 108 94
-0.084130779 -0.13044049 -0.71865124 144 109 96
-0.082684465 -0.1299087 -0.71850365 139 106 94
-0.081303671 -0.13062389 -0.71782488 137 106 96
-0.081266865 -0.12855466 -0.71873784 136 102 92
-0.080242142 -0.12996922 -0.71783906 134 104 95
-0.080788739 -0.12852374 -0.71862692 135 101 93
-0.080195144 -0.12884891 -0.71832693 134 102 93
-0.080522053 -0.12736619 -0.71907413 135 99 91
-0.080711283 -0.12817641 -0.7187618 135 101 92
-0.079716116 -0.12958433 -0.7178688 133 101 92
-0.078642398 -0.13016254 -0.71731573 134 104 90
-0.078360036 -0.13078149 -0.71696126 138 111 94
-0.078158788 -0.13014978 -0.71718848 135 106 90
-0.090669982 -0.13379802 -0.71914083 151 120 109
-0.089656502 -0.13331434 -0.71903956 152 120 107
-0.09045767 -0.13404271 -0.71897566 148 118 108
-0.091011509 -0.13452581 -0.71894002 146 117 108
-0.088760056 -0.13395327 -0.71850634 144 114 102
-0.086067013 -0.13098809 -0.7189585 154 119 103
-0.08551877 -0.13216262 -0.7183184 143 110 97
-0.087421194 -0.13419449 -0.71801329 137 107 96
-0.086359039 -0.13144815 -0.71885413 153 119 103
-0.085906513 -0.13187268 -0.71854907 147 114 99
-0.084378839 -0.13435328 -0.71710753 132 100 88
-0.084366202 -0.13155885 -0.71824479 142 108 96
-0.084956698 -0.13259299 -0.71798575 140 107 94
-0.085705064 -0.13359196 -0.71778458 137 105 93
-0.084639899 -0.13350849 -0.71752447 136 103 91
-0.083999835 -0.132396 -0.71780187 139 105 93
-0.081989765 -0.13328713 -0.71691293 132 102 91
-0.080562793 -0.13287698 -0.71671158 132 103 93
-0.081710428 -0.13249207 -0.71716112 132 103 92
-0.080966175 -0.13331382 -0.71663934 132 103 92
-0.081992447 -0.13311203 -0.71698409 132 102 91
-0.080675177 -0.13458748 -0.71605217 131 102 91
-0.081975304 -0.13087192 -0.71789205 139 107 96
-0.082258418 -0.1329491 -0.71711844 132 102 91
-0.081883669 -0.13212246 -0.71735752 134 104 93
-0.082909837 -0.13115329 -0.7180227 140 108 96
-0.082230419 -0.13159075 -0.71766567 137 106 95
-0.08314044 -0.13378482 -0.71700901 132 100 89
-0.076988257 -0.13408616 -0.71526825 129 97 86
-0.076501369 -0.13287818 -0.71561486 134 105 88
-0.07930126 -0.13474879 -0.7156263 129 100 90
-0.078519158 -0.13358793 -0.71587533 134 106 91
-0.080052175 -0.1312965 -0.71721584 133 105 96
-0.079477318 -0.13309681 -0.71633345 133 106 93
-0.079874977 -0.13404129 -0.71606272 132 104 92
-0.077874154 -0.13225052 -0.71623313 138 112 92
-0.078300305 -0.13167936 -0.71658015 137 111 93
-0.077646665 -0.13120686 -0.71659052 139 114 93
-0.075975001 -0.13252433 -0.7156173 134 104 87
-0.094500378 -0.13735145 -0.71900856 144 116 107
-0.09200117 -0.13590448 -0.71872222 147 116 108
-0.092234716 -0.13640429 -0.71861309 147 116 107
-0.093781807 -0.13698341 -0.71890748 144 116 107
-0.092136338 -0.13803916 -0.71797162 146 114 105
-0.093593538 -0.13700217 -0.71883845 145 116 107
-0.091829225 -0.13522211 -0.71891975 147 117 109
-0.089775041 -0.13831146 -0.71715224 138 104 97
-0.088851437 -0.13728027 -0.71725971 135 103 95
-0.088277526 -0.13556033 -0.71772873 136 106 96
-0.089599982 -0.13690919 -0.71762246 140 108 98
-0.089472771 -0.13749099 -0.71736747 138 106 97
-0.089555666 -0.13811904 -0.7171582 137 104 97
-0.090659104 -0.1362588 -0.71818209 144 113 103
-0.090224735 -0.13634048 -0.71802151 142 111 101
-0.090182289 -0.13552208 -0.71831363 142 112 103
-0.091366492 -0.13768899 -0.71786124 145 113 103
-0.091176458 -0.13588864 -0.71847498 145 115 106
-0.091711447 -0.13711154 -0.7181797 147 115 106
-0.085495986 -0.13730533 -0.71630418 127 94 88
-0.084917575 -0.13664587 -0.71639001 128 95 88
-0.084056549 -0.13600598 -0.71639138 128 96 87
-0.0874286 -0.13841516 -0.71642166 128 94 90
-0.086415753 -0.13770817 -0.7164064 128 94 89
-0.084181271 -0.13830239 -0.71557647 123 91 88
-0.087651871 -0.13528782 -0.71764845 134 104 94
-0.085608535 -0.13578285 -0.71689963 131 98 89
-0.085137956 -0.13532856 -0.71693903 131 99 88
-0.085736901 -0.13511766 -0.71718299 132 101 90
-0.086803734 -0.13701612 -0.71676999 130 97 90
-0.085604325 -0.13637049 -0.71667939 130 96 88
-0.081151552 -0.13641164 -0.71549928 127 98 91
-0.081162252 -0.13710485 -0.71525222 126 97 91
-0.082983784 -0.13802585 -0.71537071 123 92 89
-0.080571748 -0.13479632 -0.71594256 130 102 91
-0.082122087 -0.13547669 -0.71608913 129 99 89
-0.081834756 -0.13557129 -0.71598035 129 99 89
-0.083290681 -0.13771208 -0.71556282 124 92 88
-0.081970118 -0.13650724 -0.71566916 126 97 90
-0.078325145 -0.13482808 -0.71533644 127 96 88
-0.096045241 -0.13888064 -0.7189579 142 115 105
-0.099385247 -0.14231031 -0.71896344 138 112 94
-0.096221447 -0.14234382 -0.71787268 137 105 97
-0.096340165 -0.14240852 -0.71789175 137 105 96
-0.096113123 -0.13988496 -0.71865022 140 112 102
-0.096125782 -0.14033855 -0.71850425 139 111 101
-0.096061379 -0.14093463 -0.71828485 139 109 100
-0.097521693 -0.14255567 -0.71824652 137 107 95
-0.094407305 -0.14233199 -0.71727496 139 107 100
-0.09375225 -0.14141667 -0.71736151 141 109 101
-0.092361115 -0.14129268 -0.71694714 144 113 104
-0.091923676 -0.14127143 -0.71681094 145 114 105
-0.091808058 -0.14149602 -0.7166993 145 115 106
-0.092282481 -0.14123093 -0.71694165 144 113 104
-0.094538122 -0.1392462 -0.71833766 142 113 104
-0.09482988 -0.14058806 -0.71798933 140 109 101
-0.092791528 -0.13942713 -0.71770179 144 112 102
-0.095574118 -0.14020914 -0.71836025 140 110 102
-0.09535604 -0.14039432 -0.71822703 140 110 101
-0.095375307 -0.1391459 -0.71864694 141 113 104
-0.089197576 -0.14148748 -0.71591771 137 106 100
-0.088259891 -0.13907605 -0.71643072 130 96 92
-0.091009818 -0.14233948 -0.71618187 142 113 105
-0.089657828 -0.14235504 -0.71577007 140 111 102
-0.090185627 -0.14147304 -0.71621966 139 108 101
-0.089236118 -0.13871644 -0.71684164 135 100 95
-0.090675086 -0.13966833 -0.71696019 141 108 101
-0.090910368 -0.14019972 -0.716856 142 110 102
-0.091374688 -0.14019099 -0.71699804 144 112 103
-0.090711586 -0.14007437 -0.71683764 141 109 101
-0.091604874 -0.14068262 -0.71690547 145 114 104
-0.086153686 -0.14085893 -0.71525866 130 100 94
-0.087430336 -0.14040248 -0.71575671 131 100 94
-0.087878309 -0.13924521 -0.71626061 130 96 92
-0.087218791 -0.14156924 -0.71531439 134 104 97
-0.087738723 -0.13886338 -0.71634829 129 94 91
-0.087664396 -0.14087094 -0.71566629 133 102 96
-0.1005662 -0.14323463 -0.71912831 134 106 91
-0.100561 -0.14542583 -0.71849352 132 96 85
-0.10047753 -0.14536195 -0.71847981 132 97 85
-0.10046022 -0.14459381 -0.71869594 133 101 87
-0.10297769 -0.14642213 -0.71913761 129 91 78
-0.10202146 -0.14608632 -0.71886575 130 93 80
-0.10156569 -0.14522013 -0.71894109 132 97 83
-0.095715083 -0.14371501 -0.71727157 139 107 96
-0.095734641 -0.1446389 -0.71699363 142 109 95
-0.097929016 -0.14529957 -0.71757966 134 97 89
-0.096412241 -0.14361408 -0.71755368 136 102 94
-0.096803211 -0.14466816 -0.7173692 137 103 92
-0.096822478 -0.14531338 -0.71717709 139 104 92
-0.097789004 -0.14379829 -0.71797645 135 101 92
-0.098607704 -0.14280753 -0.71854347 137 108 94
-0.09918654 -0.14373516 -0.71847206 135 104 91
-0.096232787 -0.14268744 -0.71776718 136 104 96
-0.098135576 -0.14344354 -0.7181977 136 104 93
-0.096587293 -0.14263168 -0.71790439 137 105 96
-0.091847211 -0.14500268 -0.71562314 135 106 95
-0.092802487 -0.14540163 -0.71580935 138 108 95
-0.092814125 -0.14380488 -0.71629566 144 114 102
-0.09242861 -0.14499198 -0.71581316 138 109 96
-0.093070753 -0.1450534 -0.71600062 141 111 97
-0.094705313 -0.14523865 -0.71647078 145 114 97
-0.094892219 -0.14553113 -0.71644169 146 114 96
-0.094924286 -0.14448839 -0.71677387 143 111 97
-0.092897519 -0.14330193 -0.71647674 144 114 103
-0.093615219 -0.14270803 -0.71689475 141 110 102
-0.094797522 -0.14298731 -0.71719545 139 107 99
-0.090667821 -0.14375214 -0.71564537 138 109 99
-0.09140633 -0.14493424 -0.71551007 135 106 95
-0.090764515 -0.14353317 -0.71574068 139 110 100
-0.091399647 -0.14290085 -0.71612287 143 114 104
-0.08873044 -0.14293237 -0.71531045 137 108 100
-0.10058556 -0.14649101 -0.71819448 130 91 83
-0.10236837 -0.14747775 -0.7186588 131 95 84
-0.10195052 -0.14726099 -0.71854681 131 94 83
-0.10198812 -0.14834565 -0.71831268 133 99 89
-0.10251261 -0.14914422 -0.71833259 134 103 91
-0.10212436 -0.14778093 -0.71849489 132 96 86
-0.10134489 -0.15022045 -0.71764618 121 88 86
-0.099949569 -0.14807825 -0.7175929 124 85 83
-0.10250308 -0.14946896 -0.71825498 134 104 92
-0.10077512 -0.14981431 -0.71751988 120 84 84
-0.1014046 -0.15022548 -0.71766782 122 88 86
-0.099654742 -0.14747982 -0.71761411 125 85 83
-0.096824758 -0.14771341 -0.71654111 134 100 89
-0.096893385 -0.14928465 -0.71619624 119 88 83
-0.097616427 -0.14854489 -0.71663994 126 91 85
-0.098310992 -0.14953993 -0.71666414 116 80 81
-0.096849523 -0.14829881 -0.71641225 129 96 86
-0.098546252 -0.14907522 -0.71685809 120 82 82
-0.098875582 -0.14776634 -0.71726882 126 88 84
-0.098439276 -0.14836629 -0.71697783 124 87 84
-0.098616004 -0.14846542 -0.71701932 123 85 83
-0.099146008 -0.14970687 -0.71693307 113 75 80
-0.097664416 -0.14754951 -0.71688122 132 96 87
-0.095474854 -0.14659736 -0.71631312 145 113 93
-0.099925146 -0.1508953 -0.7169624 109 70 77
-0.10153446 -0.15365148 -0.71699822 116 77 76
-0.10149033 -0.15307716 -0.71710902 116 78 78
-0.10252701 -0.15348713 -0.71743798 122 87 80
-0.10227922 -0.15317363 -0.71740758 121 85 80
-0.10300989 -0.15279831 -0.71776336 127 94 85
-0.10177204 -0.15091965 -0.71766567 122 89 86
-0.10106494 -0.15143496 -0.71729386 116 80 80
-0.10286396 -0.15076903 -0.71811146 131 101 91
-0.10102463 -0.15139447 -0.71728653 116 79 80
-0.096109048 -0.15194046 -0.71529859 101 72 72
-0.097205833 -0.15222721 -0.71564239 105 72 73
-0.098561369 -0.15166245 -0.71627194 106 70 75
-0.098883659 -0.15045223 -0.71666312 108 71 78
-0.099150784 -0.15085244 -0.71667296 107 69 77
-0.097459063 -0.15046071 -0.71613055 108 77 78
-0.09773834 -0.15123355 -0.71606147 107 74 77
-0.098837458 -0.15040323 -0.71665686 108 72 78
-0.104053 -0.11128506 -0.73117083 116 88 88
-0.10514617 -0.11117048 -0.73110247 106 78 80
-0.10117232 -0.11128022 -0.73103106 124 88 90
-0.10339866 -0.11127102 -0.73111099 120 92 92
-0.10474673 -0.11315105 -0.73169929 123 93 89
-0.10378078 -0.11314303 -0.73144543 124 92 91
-0.10416853 -0.11265301 -0.73149598 122 93 90
-0.10466965 -0.11473574 -0.73184425 126 93 89
-0.10492446 -0.11366148 -0.73179907 124 93 89
-0.10602929 -0.11453538 -0.73217946 124 94 86
-0.10498507 -0.11278052 -0.73171997 122 93 88
-0.1052777 -0.11252978 -0.73166639 117 89 85
-0.10037134 -0.11300338 -0.73102021 130 93 91
-0.10087411 -0.11489606 -0.73093736 133 103 95
-0.10298706 -0.11478504 -0.73150587 128 91 91
-0.10115967 -0.1117411 -0.73112333 125 88 90
-0.10152327 -0.1124296 -0.73121154 126 89 90
-0.10337698 -0.11176052 -0.73122573 122 92 91
-0.10199738 -0.11235046 -0.73122478 125 90 90
-0.10160719 -0.11272709 -0.73124629 126 89 90
-0.098826252 -0.11157114 -0.73086834 133 94 93
-0.10412207 -0.11556944 -0.7316227 126 90 88
-0.10493318 -0.11547671 -0.73187107 126 91 87
-0.10246534 -0.1160113 -0.73097116 128 96 92
-0.10339145 -0.11557466 -0.73140937 127 92 91
-0.11440144 -0.1235591 -0.73133087 170 136 114
-0.11353974 -0.12335339 -0.73111254 168 134 108
0 0 0 1 0 0 0 1 0 0 0 1 0 0 0 0 0 924 1 0 0
