ply
format ascii 1.0
comment PCL generated
element vertex 745
property float x
property float y
property float z
property uchar red
property uchar green
property uchar blue
element camera 1
property float view_px
property float view_py
property float view_pz
property float x_axisx
property float x_axisy
property float x_axisz
property float y_axisx
property float y_axisy
property float y_axisz
property float z_axisx
property float z_axisy
property float z_axisz
property float focal
property float scalex
property float scaley
property float centerx
property float centery
property int viewportx
property int viewporty
property float k1
property float k2
end_header
-0.04002624 -0.47819912 -0.6878975 120 109 128
-0.041372497 -0.48234597 -0.6891163 147 143 144
-0.042593744 -0.48151818 -0.68861943 132 123 133
-0.042552583 -0.4812409 -0.68852693 130 120 132
-0.043445446 -0.4821755 -0.68871504 132 120 130
-0.043576665 -0.48182371 -0.68856758 128 116 128
-0.04200837 -0.48154306 -0.6887244 136 129 137
-0.043584198 -0.48108885 -0.68830335 123 109 125
-0.043731 -0.48040137 -0.68803531 122 104 122
-0.040706001 -0.48115894 -0.68881369 140 135 140
-0.039369032 -0.47962853 -0.6885407 130 119 128
-0.040047284 -0.47862971 -0.68804383 121 110 127
-0.040854272 -0.48129123 -0.68883055 141 136 141
-0.039909657 -0.47854152 -0.68804061 120 109 126
-0.039467033 -0.4809804 -0.68900216 140 130 134
-0.038577396 -0.48131111 -0.68927777 134 116 127
-0.040106427 -0.48208821 -0.68925738 144 136 139
-0.039858505 -0.48174456 -0.68918735 142 133 137
-0.036016166 -0.48136741 -0.68984997 119 87 110
-0.03689719 -0.48125297 -0.6895836 124 94 115
-0.036621094 -0.48025838 -0.68931955 123 95 112
-0.036693506 -0.48177835 -0.68981302 122 90 114
-0.036980551 -0.48154166 -0.68965942 124 93 116
-0.032563582 -0.48192737 -0.69099033 122 99 109
-0.032462478 -0.48232034 -0.69115716 123 100 110
-0.049043387 -0.48613372 -0.68935251 151 130 136
-0.049437795 -0.48552123 -0.68906152 150 127 136
-0.046850696 -0.48574528 -0.68947965 147 129 139
-0.046070904 -0.48611706 -0.68969274 149 134 145
-0.048373733 -0.48607087 -0.68942177 149 129 135
-0.047317527 -0.48608917 -0.68954509 149 131 140
-0.047317997 -0.485145 -0.68922329 143 124 133
-0.046045747 -0.48550552 -0.68948716 145 129 141
-0.041776799 -0.48445815 -0.6897344 151 139 149
-0.041170079 -0.48508337 -0.69001168 151 134 149
-0.042251352 -0.48480076 -0.68977708 151 139 149
-0.04251688 -0.48469704 -0.68970877 150 140 149
-0.043003719 -0.48577616 -0.68997961 151 136 150
-0.044344459 -0.48514917 -0.68958503 146 135 146
-0.044539388 -0.48333421 -0.68893462 133 119 131
-0.043362148 -0.48307988 -0.68904114 139 129 137
-0.044127557 -0.48440185 -0.68936604 143 131 142
-0.043856479 -0.48478615 -0.68954146 147 137 146
-0.042299751 -0.48264968 -0.68906897 143 136 140
-0.037143908 -0.48527059 -0.69089341 128 110 123
-0.039333295 -0.48486161 -0.69028062 141 113 137
-0.037221856 -0.48367634 -0.69032925 127 99 120
-0.037691347 -0.48574701 -0.69093883 132 114 127
-0.040142182 -0.48619184 -0.69056278 147 124 144
-0.039468218 -0.48248738 -0.68950802 140 125 135
-0.039284192 -0.4840138 -0.69001836 140 114 135
-0.040676679 -0.48278549 -0.68937802 148 141 144
-0.040386185 -0.48499691 -0.69012177 147 125 144
-0.040512059 -0.48510295 -0.69013166 148 126 146
-0.039076887 -0.48257738 -0.68960834 137 118 132
-0.034308445 -0.48516148 -0.69165802 122 101 115
-0.033545606 -0.48329899 -0.69124067 121 99 109
-0.035051912 -0.48522085 -0.69146883 124 106 117
-0.03510654 -0.48513928 -0.69142562 124 106 117
-0.03705899 -0.48495167 -0.69080573 128 107 122
-0.036551755 -0.48296103 -0.69026726 125 95 117
-0.03556883 -0.48452213 -0.69108403 126 108 117
-0.036964271 -0.48294014 -0.69014227 125 94 118
-0.036728863 -0.48471519 -0.69081891 127 107 121
-0.036743969 -0.48454526 -0.6907562 127 105 120
-0.032067705 -0.48270646 -0.69137561 124 100 113
-0.06000299 -0.49015674 -0.68965966 164 138 156
-0.053003721 -0.48918769 -0.68997008 162 137 157
-0.054843236 -0.48980817 -0.68999952 135 91 138
-0.050383858 -0.48992485 -0.69061893 150 119 156
-0.049154267 -0.48923096 -0.69051749 149 119 155
-0.049849398 -0.48860154 -0.69018722 150 123 148
-0.049338117 -0.48784268 -0.68996656 150 125 145
-0.049892552 -0.48819935 -0.69002897 151 125 145
-0.04905168 -0.48964784 -0.69068915 149 117 158
-0.051596865 -0.48907498 -0.69013631 152 126 146
-0.052349664 -0.48911384 -0.69003338 161 138 155
-0.051164839 -0.48827177 -0.68987876 156 133 147
-0.051724076 -0.48887461 -0.69003499 156 132 149
-0.045125667 -0.48666096 -0.68999547 150 137 152
-0.045771148 -0.48845899 -0.69060409 151 130 158
-0.047857922 -0.48970583 -0.69084734 149 119 162
-0.046018809 -0.48828527 -0.69051147 151 130 157
-0.046132986 -0.48869845 -0.69065505 151 128 158
-0.046774324 -0.48823205 -0.690409 150 127 157
-0.047637768 -0.48772207 -0.69011986 150 127 150
-0.048147719 -0.48842752 -0.69033098 149 122 153
-0.047804795 -0.48900476 -0.69058806 149 121 159
-0.048598319 -0.48978198 -0.69079494 149 116 161
-0.047763854 -0.48678601 -0.68975073 150 130 143
-0.048204761 -0.48654795 -0.68961155 150 130 140
-0.04160627 -0.48805007 -0.69103098 153 131 152
-0.043991499 -0.48951715 -0.69122976 153 130 160
-0.041976582 -0.48814145 -0.69100553 153 131 153
-0.041641306 -0.48964411 -0.6916827 154 135 152
-0.041442048 -0.48866099 -0.691311 154 133 151
-0.042999629 -0.48649573 -0.69021571 152 133 151
-0.043817271 -0.48705971 -0.69031793 152 134 153
-0.044673312 -0.48665038 -0.69004744 151 137 152
-0.044751082 -0.49001467 -0.69130731 153 130 162
-0.043643758 -0.4881328 -0.69074661 153 131 156
-0.038236402 -0.48792246 -0.69167536 131 112 125
-0.039943952 -0.48701301 -0.69093364 144 122 141
-0.039900638 -0.48904464 -0.69178122 145 127 140
-0.040430844 -0.48675144 -0.69072127 148 125 145
-0.039717212 -0.48821756 -0.69147933 143 123 138
-0.03726152 -0.48676866 -0.69141132 128 113 122
-0.040492043 -0.48636895 -0.6905508 149 126 147
-0.036885485 -0.48730135 -0.69172317 123 106 116
-0.066104069 -0.49386808 -0.69083881 158 144 172
-0.061744515 -0.49366939 -0.6909095 149 125 161
-0.061858293 -0.49189928 -0.69023025 163 145 165
-0.063747577 -0.49363166 -0.6908136 155 142 173
-0.061026908 -0.49320245 -0.69076079 150 125 158
-0.062519446 -0.49393633 -0.69097972 149 129 165
-0.064086802 -0.49370873 -0.69083309 155 144 174
-0.062176216 -0.49118602 -0.68998569 168 151 169
-0.063429214 -0.49311355 -0.6906293 158 145 172
-0.057438578 -0.49372801 -0.69126409 145 119 147
-0.058986723 -0.49263746 -0.69068807 130 87 141
-0.057514481 -0.49230894 -0.69069523 130 88 137
-0.058654133 -0.49407503 -0.69128829 146 120 151
-0.057410393 -0.49409634 -0.69141257 149 127 150
-0.05774929 -0.49266255 -0.6908133 133 94 140
-0.060057238 -0.49271211 -0.69063181 145 113 151
-0.060276851 -0.49369001 -0.69098729 141 108 152
-0.058687162 -0.49123397 -0.69017577 135 92 140
-0.060540471 -0.49255055 -0.69053239 154 127 157
-0.059710082 -0.49144545 -0.69017625 150 117 150
-0.054840736 -0.4938297 -0.69154364 161 142 151
-0.054042608 -0.49168471 -0.69083828 153 128 150
-0.052758172 -0.49387348 -0.69173741 173 157 154
-0.054846898 -0.49351189 -0.69142848 159 139 151
-0.055065151 -0.4939889 -0.69158185 160 142 151
-0.05481369 -0.49238768 -0.69102585 152 129 150
-0.05538284 -0.49285719 -0.69114566 152 129 149
-0.056314286 -0.49354658 -0.69130605 149 126 148
-0.054907404 -0.49226636 -0.69096911 150 126 148
-0.054773849 -0.49083823 -0.69041979 137 98 139
-0.056595299 -0.4915038 -0.6904633 124 77 130
-0.054791082 -0.49143991 -0.69065601 143 110 143
-0.052306738 -0.49360466 -0.69170588 170 151 154
-0.050082222 -0.49230355 -0.69156629 152 122 153
-0.05240465 -0.490998 -0.69075131 155 129 151
-0.050769966 -0.49134892 -0.69112009 150 119 152
-0.052068777 -0.49352089 -0.69171089 168 149 154
-0.052580256 -0.49074164 -0.69063288 155 128 150
-0.050213419 -0.49125245 -0.69115609 149 117 154
-0.05157841 -0.49044874 -0.69066286 151 121 153
-0.051310148 -0.49041668 -0.69068563 151 120 154
-0.04962099 -0.49066404 -0.6910044 149 116 159
-0.048115537 -0.49158117 -0.6915496 147 116 157
-0.048805438 -0.491799 -0.69155425 147 114 156
-0.04802252 -0.4910782 -0.69136417 148 116 159
-0.045542825 -0.49054864 -0.69143087 151 126 161
-0.043896668 -0.49043286 -0.69162351 153 131 158
-0.066722915 -0.4960576 -0.69169539 159 143 171
-0.066891685 -0.49593151 -0.69163823 159 143 170
-0.064891435 -0.49444348 -0.69108921 156 145 176
-0.066499755 -0.49444088 -0.69103706 160 146 172
-0.06432984 -0.49591166 -0.69171041 164 157 184
-0.062642328 -0.49589202 -0.69177109 157 144 171
-0.063969582 -0.4944354 -0.69111949 153 141 173
-0.062533736 -0.4944711 -0.69119263 149 130 165
-0.061415892 -0.49472904 -0.69134396 147 123 159
-0.063586503 -0.49434158 -0.6910966 151 137 171
-0.059207931 -0.49545664 -0.69178987 150 127 154
-0.058461562 -0.49495503 -0.69164646 149 124 154
-0.057813291 -0.49423385 -0.69142652 149 126 151
-0.05355471 -0.49417695 -0.69177884 170 153 154
-0.027138578 -0.50144988 -0.69999039 122 102 115
-0.026501581 -0.50131375 -0.70006484 122 102 115
-0.026438998 -0.50186682 -0.7002998 123 103 115
-0.02687287 -0.50117153 -0.69993228 121 102 115
-0.024271455 -0.4997651 -0.69994247 125 103 116
-0.024153555 -0.49957898 -0.69989663 125 103 116
-0.024894167 -0.50071931 -0.70017308 124 103 116
-0.034501005 -0.50473893 -0.69990408 116 97 111
-0.03390513 -0.5050506 -0.70016414 114 95 109
-0.033452693 -0.50541526 -0.70042121 113 93 108
-0.033888746 -0.50461262 -0.69996333 115 96 110
-0.037019633 -0.50566262 -0.69984812 118 100 113
-0.032700207 -0.50425768 -0.70004553 115 96 109
-0.032165334 -0.5030905 -0.6996246 117 99 112
-0.030341424 -0.50240678 -0.69972456 119 100 114
-0.029967157 -0.50221187 -0.69972032 119 101 114
-0.030101882 -0.50330478 -0.70017946 117 98 114
-0.029856475 -0.50272697 -0.69997895 119 100 114
-0.032581698 -0.50537074 -0.70058662 113 93 108
-0.031787749 -0.50447553 -0.70035595 115 95 110
-0.031653874 -0.50450706 -0.70039535 115 95 110
-0.029553996 -0.50546002 -0.70121014 112 93 116
-0.0279711 -0.50577432 -0.70172226 115 96 120
-0.027971968 -0.50472248 -0.70122093 115 96 117
-0.027405361 -0.50585866 -0.70190394 117 98 122
-0.028423021 -0.50207973 -0.69998664 121 102 116
-0.027373876 -0.50229228 -0.7002905 122 102 116
-0.028775023 -0.50510001 -0.70121115 113 95 116
-0.028759843 -0.50251108 -0.70010334 120 100 116
-0.028927062 -0.50436908 -0.7008667 115 96 116
-0.027495269 -0.50324482 -0.70067459 119 99 116
-0.04155679 -0.50779301 -0.69973689 116 100 117
-0.041017078 -0.50964427 -0.70068032 124 107 128
-0.044286128 -0.50966382 -0.69999355 129 112 131
-0.042816352 -0.5091067 -0.70005691 124 107 126
-0.043057416 -0.50836235 -0.69966733 122 105 122
-0.040367205 -0.50787634 -0.70004344 117 101 118
-0.040954817 -0.50912678 -0.70046347 122 105 125
-0.038791452 -0.50670129 -0.69989306 116 99 115
-0.038467959 -0.50693816 -0.70007902 119 102 117
-0.037825212 -0.50902492 -0.70108634 122 106 123
-0.038835865 -0.50775504 -0.70035189 121 104 121
-0.040433951 -0.50952512 -0.7007553 124 107 127
-0.037427932 -0.50755799 -0.70056081 120 104 118
-0.037975244 -0.50892317 -0.70101327 122 106 122
-0.037773669 -0.50888073 -0.70103729 122 106 122
-0.033978052 -0.50914806 -0.70191377 121 103 120
-0.033691689 -0.50686681 -0.70100439 114 95 111
-0.036194891 -0.50922656 -0.70149761 121 105 121
-0.033244211 -0.5089274 -0.70196897 121 102 118
-0.033972692 -0.50833434 -0.70156974 119 100 116
-0.03400097 -0.50910968 -0.70189285 121 103 119
-0.033494063 -0.50586134 -0.70062089 112 92 107
-0.035009738 -0.50644839 -0.70057178 115 97 111
-0.036454085 -0.50855362 -0.7011652 120 104 119
-0.036758069 -0.50698167 -0.70045555 118 102 116
-0.03592658 -0.50665653 -0.70048124 117 99 113
-0.035918161 -0.50698626 -0.7006194 117 100 114
-0.03009098 -0.50803149 -0.70225817 119 102 123
-0.030899124 -0.5092259 -0.7026251 124 106 125
-0.030866312 -0.5074724 -0.70181376 116 98 119
-0.030337214 -0.50780016 -0.70209193 118 100 121
-0.031973582 -0.5091539 -0.70233756 122 104 122
-0.030655228 -0.50752372 -0.70188767 116 98 119
-0.031266503 -0.50742483 -0.70171434 116 97 117
-0.032108109 -0.50797337 -0.70178437 118 99 117
-0.032684077 -0.50746131 -0.70145589 116 97 114
-0.031745777 -0.50684285 -0.70137489 114 95 114
-0.031820364 -0.50717986 -0.7015034 115 96 115
-0.03171711 -0.50720465 -0.70153385 115 96 115
-0.028862104 -0.50773728 -0.70241719 120 103 125
-0.029102447 -0.50729698 -0.70215136 117 100 123
-0.046522029 -0.51008844 -0.69981104 134 117 138
-0.041259672 -0.51181912 -0.7017386 132 118 138
-0.041040961 -0.51121402 -0.70147407 130 114 135
-0.041198339 -0.51109099 -0.70137733 130 114 135
-0.041074678 -0.51072824 -0.70121717 128 112 133
-0.043147985 -0.51054049 -0.70067954 131 116 136
-0.041961536 -0.51026201 -0.7007888 128 112 133
-0.043480974 -0.51062292 -0.70065111 132 117 137
-0.037346061 -0.51174551 -0.7024914 123 106 128
-0.039070599 -0.51202089 -0.70229244 130 116 135
-0.038369097 -0.51113802 -0.70198518 128 113 131
-0.039515071 -0.51359439 -0.7029978 132 117 139
-0.037175186 -0.51335931 -0.70333761 122 103 129
-0.039004102 -0.51348698 -0.70304376 130 114 137
-0.04099996 -0.51206386 -0.70191956 133 118 138
-0.040061511 -0.51056522 -0.70134276 127 111 131
-0.040331867 -0.51146978 -0.70175201 130 115 135
-0.039250895 -0.51021475 -0.70132983 125 110 128
-0.039276175 -0.51182014 -0.70214993 131 117 135
-0.038929626 -0.51111066 -0.70185667 128 114 132
-0.036742091 -0.51352179 -0.70350569 123 104 130
-0.034064475 -0.51098996 -0.7027728 125 106 125
-0.033828579 -0.51054955 -0.70259994 124 105 124
-0.034432098 -0.51135725 -0.7028833 125 106 126
-0.034463674 -0.51001191 -0.70220119 123 105 123
-0.037047904 -0.5110935 -0.70222193 122 106 126
-0.033907924 -0.5097698 -0.70219195 123 105 122
-0.036384329 -0.51006603 -0.70183903 123 107 124
-0.035240758 -0.5109297 -0.70250583 123 105 124
-0.035425723 -0.51112765 -0.70256805 123 104 125
-0.033152346 -0.51067924 -0.70280033 128 110 127
-0.023457052 -0.48987594 -0.6961326 130 105 119
-0.023947258 -0.49003506 -0.69604903 127 102 115
-0.023095587 -0.49006039 -0.69631577 132 105 119
-0.023649421 -0.49020335 -0.69620645 128 102 116
-0.030502774 -0.49366945 -0.6960336 111 87 101
-0.029730532 -0.49266124 -0.69579166 111 87 103
-0.027516672 -0.49263203 -0.69626945 115 93 108
-0.026901878 -0.49302128 -0.69657171 116 94 109
-0.028700095 -0.49394634 -0.69658065 115 92 108
-0.027714089 -0.49263817 -0.6962291 115 93 107
-0.026491646 -0.49353427 -0.6968829 116 95 111
-0.02675122 -0.49273247 -0.6964795 116 94 109
-0.029248063 -0.49342391 -0.69623733 113 90 106
-0.026176516 -0.49096096 -0.69583821 116 94 107
-0.026525956 -0.49103004 -0.69579291 115 93 106
-0.024972012 -0.49335638 -0.69717169 119 99 114
-0.023971442 -0.49111924 -0.69650495 126 101 115
-0.024330325 -0.49157038 -0.69659203 123 100 114
-0.022311809 -0.49068341 -0.69681615 135 108 123
-0.022981521 -0.49069399 -0.69661897 132 105 120
-0.025073703 -0.49364144 -0.69726443 118 98 114
-0.021735627 -0.49051121 -0.69691384 139 111 126
-0.017147874 -0.49253964 -0.69887829 138 112 126
-0.017123226 -0.49221781 -0.69875139 139 113 127
-0.039152935 -0.49793836 -0.69585943 101 84 95
-0.033329502 -0.49495098 -0.69585943 106 85 94
-0.033218414 -0.49647352 -0.69647878 110 90 100
-0.035425473 -0.49761 -0.69650781 109 90 100
-0.033957511 -0.49690554 -0.69650871 110 90 100
-0.035601158 -0.49716777 -0.6963008 108 88 99
-0.034170315 -0.49617249 -0.69618034 108 87 97
-0.035126369 -0.4960309 -0.69593143 107 86 96
-0.035923444 -0.49614206 -0.69578832 107 87 97
-0.033008374 -0.49646723 -0.6965282 110 90 101
-0.032449283 -0.49550807 -0.69629043 109 88 99
-0.030816473 -0.4952338 -0.69658732 113 91 105
-0.031256899 -0.49511638 -0.69643217 112 90 103
-0.03193263 -0.49632227 -0.69673795 113 92 104
-0.032462548 -0.49726132 -0.69697517 114 94 106
-0.030395305 -0.49579182 -0.69690883 114 93 107
-0.029449571 -0.49685842 -0.69755518 115 93 108
-0.029660309 -0.49631611 -0.69729263 115 93 108
-0.03051446 -0.49768329 -0.69761586 115 94 107
-0.029698066 -0.49554619 -0.69698375 115 92 108
-0.031416543 -0.49754387 -0.69734102 114 94 107
-0.027360689 -0.4975087 -0.69830018 116 95 110
-0.025686933 -0.49752086 -0.69870925 116 97 112
-0.02652798 -0.49728262 -0.69840783 116 96 111
-0.026864387 -0.4966771 -0.69807661 116 96 111
-0.027702674 -0.49780041 -0.69833809 116 95 110
-0.027279496 -0.49680597 -0.69802958 116 96 111
-0.02839944 -0.49597529 -0.69744414 115 94 109
-0.028982818 -0.49667445 -0.69758928 115 93 109
-0.027966745 -0.49549183 -0.6973502 116 94 110
-0.027492963 -0.49452874 -0.69707847 116 94 110
-0.026560713 -0.49482521 -0.6973967 116 96 112
-0.02816058 -0.49430349 -0.69684559 115 93 109
-0.024639094 -0.49779889 -0.69907826 119 100 114
-0.024209172 -0.49472666 -0.69792265 123 104 120
-0.024300808 -0.49607897 -0.69845814 122 103 119
-0.024144426 -0.49679273 -0.69879204 123 104 120
-0.023856051 -0.49637511 -0.69869179 125 106 122
-0.024640189 -0.49647781 -0.69853789 120 102 117
-0.045620006 -0.50139695 -0.69599944 121 101 114
-0.046500888 -0.50121742 -0.69575715 122 101 111
-0.04116413 -0.49952364 -0.69608468 98 83 99
-0.041569792 -0.50093663 -0.69660228 102 87 105
-0.043152533 -0.50131464 -0.69645578 110 92 110
-0.04206102 -0.50041664 -0.69628793 104 87 104
-0.043594867 -0.50119168 -0.69631839 112 94 111
-0.041352637 -0.4987638 -0.69572443 98 82 96
-0.043656304 -0.50033402 -0.69592357 112 94 108
-0.040522415 -0.49848104 -0.69578576 97 81 95
-0.040164839 -0.50094813 -0.696904 103 87 106
-0.039321508 -0.49914253 -0.69633168 102 85 100
-0.040181722 -0.4993588 -0.69623214 100 84 99
-0.039764591 -0.49828318 -0.69587237 99 83 95
-0.040374283 -0.50181949 -0.69722581 104 88 109
-0.037291799 -0.50009537 -0.69718832 112 93 109
-0.038946256 -0.50081915 -0.69712293 107 90 108
-0.039608415 -0.50184631 -0.69740939 107 91 111
-0.037166897 -0.4992516 -0.6968587 111 91 105
-0.037385829 -0.49918413 -0.69678086 109 91 104
-0.033933945 -0.50151718 -0.69849116 118 99 112
-0.035540868 -0.50047487 -0.69768894 117 97 113
-0.033730898 -0.49956727 -0.69766575 115 96 109
-0.03429893 -0.50005984 -0.69776553 116 97 110
-0.033427376 -0.49985325 -0.69785696 116 97 109
-0.036728807 -0.50163966 -0.69795746 118 98 116
-0.036100946 -0.49868482 -0.69682211 111 92 104
-0.03681127 -0.5012356 -0.69776917 117 97 115
-0.036217228 -0.50100064 -0.69778192 117 97 114
-0.036775332 -0.49821842 -0.69649684 108 89 101
-0.034765579 -0.49913514 -0.69726568 114 95 108
-0.035261434 -0.49936199 -0.69726807 114 95 108
-0.032118905 -0.50114644 -0.69874281 118 98 111
-0.030512029 -0.5004074 -0.69880003 118 98 111
-0.030079583 -0.5002194 -0.69882011 118 97 111
-0.030452425 -0.50010508 -0.69868183 117 97 111
-0.031287245 -0.50007677 -0.69847178 117 97 110
-0.032425772 -0.49996862 -0.69814557 116 97 109
-0.031028343 -0.49877232 -0.6979546 116 95 108
-0.032994192 -0.50137597 -0.69863319 118 99 111
-0.032608833 -0.49995488 -0.69809473 116 97 109
-0.031918243 -0.49940735 -0.6980198 116 96 109
-0.032815792 -0.49925151 -0.6977309 115 96 108
-0.028899778 -0.49893582 -0.69853193 117 96 110
-0.028461633 -0.49902165 -0.69866657 117 96 111
-0.027597817 -0.49908271 -0.69888479 118 97 112
-0.028781764 -0.49875113 -0.69847727 117 95 110
-0.029273061 -0.49830157 -0.69817168 116 94 109
-0.02852306 -0.50085342 -0.69945437 119 100 114
-0.026557311 -0.49897581 -0.69907719 118 98 112
-0.026124155 -0.49929383 -0.69930536 119 99 113
-0.024459414 -0.49833575 -0.69933134 121 101 114
-0.024503244 -0.4986479 -0.69944221 122 101 115
-0.070843838 -0.50578171 -0.69575447 166 154 163
-0.065236546 -0.50566721 -0.69577694 153 137 161
-0.068218194 -0.50559801 -0.69578838 142 123 151
-0.060789909 -0.50546521 -0.69576931 136 113 140
-0.049918786 -0.50381416 -0.69632941 130 109 120
-0.0502056 -0.50339651 -0.69610512 130 109 117
-0.049762189 -0.50376004 -0.69632864 130 109 119
-0.04907557 -0.50226128 -0.69577402 126 103 108
-0.049085386 -0.50374889 -0.69642252 128 107 118
-0.050522365 -0.5057438 -0.69708437 134 116 133
-0.050887674 -0.50331187 -0.69595629 135 115 125
-0.050950788 -0.50406134 -0.69628608 133 113 123
-0.04880482 -0.50321782 -0.6962325 127 105 114
-0.046930183 -0.50222445 -0.6961385 123 101 113
-0.047075305 -0.50213796 -0.69607455 123 101 112
-0.048622999 -0.50261265 -0.69600201 125 103 111
-0.046255901 -0.50213385 -0.69622082 121 101 114
-0.045752339 -0.50239283 -0.6964249 121 101 117
-0.046608955 -0.50313509 -0.69659406 123 104 120
-0.045549247 -0.50450915 -0.69735819 122 104 119
-0.045102146 -0.5022369 -0.69647294 120 100 117
-0.046331029 -0.50410688 -0.69705796 123 105 122
-0.045276795 -0.50581163 -0.69795382 121 105 119
-0.046915408 -0.50449204 -0.69712329 125 107 124
-0.045952804 -0.50538486 -0.69766086 123 106 121
-0.041889545 -0.50397474 -0.69787049 107 91 109
-0.041379102 -0.5045355 -0.69825017 105 90 106
-0.041926377 -0.50578171 -0.69869965 108 93 107
-0.04195378 -0.50455827 -0.69812596 107 92 109
-0.041161932 -0.5029254 -0.69755465 103 88 108
-0.043535415 -0.50478858 -0.69786185 114 98 114
-0.044390149 -0.50346798 -0.69712579 117 100 116
-0.04380431 -0.50445157 -0.69765455 115 99 115
-0.042905834 -0.50300699 -0.69721794 110 94 113
-0.044519678 -0.50280219 -0.69681948 118 99 116
-0.042093929 -0.50254786 -0.69718093 107 91 111
-0.044002533 -0.50351983 -0.69722259 116 98 115
-0.038411655 -0.50582927 -0.69959062 113 96 110
-0.038789492 -0.50441647 -0.69880301 112 95 111
-0.039928459 -0.50521368 -0.69890684 108 92 107
-0.040092994 -0.50497645 -0.69874859 108 92 107
-0.040394638 -0.505409 -0.6988849 107 91 106
-0.037830297 -0.50368625 -0.69868672 116 97 114
-0.040580563 -0.50443387 -0.69838619 105 90 106
-0.039210726 -0.50392497 -0.69845843 111 94 110
-0.038419351 -0.5022679 -0.69786823 113 95 114
-0.038740203 -0.50241125 -0.69786245 112 94 113
-0.039605051 -0.50403708 -0.69842172 109 92 109
-0.039069992 -0.5030179 -0.69806957 111 93 112
-0.036124058 -0.50327921 -0.69887024 118 98 115
-0.03553319 -0.50430608 -0.69949579 118 98 113
-0.034329187 -0.50392467 -0.69955426 117 98 112
-0.036587402 -0.50481081 -0.69952857 118 98 113
-0.03402698 -0.50328404 -0.69930106 117 98 112
-0.03532216 -0.50253558 -0.6986708 118 98 114
-0.033368323 -0.50240523 -0.69901979 118 99 111
-0.030178359 -0.50197434 -0.69955945 119 101 114
-0.031961244 -0.50266016 -0.69946778 118 99 112
-0.07425499 -0.50729316 -0.69627619 159 148 160
-0.07331536 -0.50782317 -0.69655371 152 136 156
-0.072395727 -0.50799394 -0.69665742 150 132 159
-0.072230063 -0.5072813 -0.69634926 160 145 163
-0.071892232 -0.50656533 -0.69605041 167 154 165
-0.071038119 -0.50615358 -0.69591075 164 151 163
-0.071576081 -0.50782824 -0.69662213 146 126 156
-0.071448751 -0.50713879 -0.69632471 154 138 159
-0.071839906 -0.50731039 -0.69638115 156 139 161
-0.067874633 -0.50639546 -0.69611853 143 126 151
-0.068228841 -0.50658363 -0.69620013 142 124 150
-0.066648968 -0.50608438 -0.69597256 148 131 156
-0.067909382 -0.5071677 -0.69642872 142 126 150
-0.066035308 -0.50683445 -0.69626248 148 134 157
-0.060845584 -0.50641286 -0.69619316 133 110 136
-0.063446641 -0.50647616 -0.69614422 147 129 155
-0.06180653 -0.50696528 -0.69640338 135 114 143
-0.062846623 -0.50685167 -0.69632661 142 123 151
-0.050264049 -0.50633615 -0.69741261 136 118 136
-0.050500326 -0.50615877 -0.69728887 135 118 135
-0.049517576 -0.50633901 -0.697523 134 117 135
-0.047796097 -0.50904894 -0.6991151 132 113 136
-0.045371883 -0.50657392 -0.69830585 123 106 121
-0.047854505 -0.50924146 -0.69919837 133 113 137
-0.046738982 -0.50781649 -0.69868869 128 109 129
-0.046044715 -0.50915653 -0.69944048 131 113 133
-0.048073221 -0.50880992 -0.69895494 132 112 136
-0.048002504 -0.50678551 -0.69797391 129 111 131
-0.048268057 -0.50908393 -0.69905686 133 113 138
-0.048523895 -0.50881737 -0.69888353 133 113 138
-0.04701785 -0.50769079 -0.69858199 128 110 130
-0.048442923 -0.50786972 -0.69843227 132 113 135
-0.043549519 -0.50837308 -0.69955903 123 107 124
-0.04344165 -0.50640625 -0.69863993 118 102 116
-0.044173427 -0.50709689 -0.69880128 122 105 120
-0.044886816 -0.50718582 -0.69867808 124 108 123
-0.043326776 -0.50813502 -0.69949651 122 105 122
-0.04208713 -0.50680155 -0.69914502 114 98 113
-0.043279629 -0.5061512 -0.69855678 115 100 114
-0.040084086 -0.50633043 -0.6994074 110 94 109
-0.033918828 -0.48556238 -0.69189495 120 100 115
-0.032730754 -0.48462626 -0.69188571 120 97 113
-0.03227913 -0.48596612 -0.69242018 120 98 119
-0.032532848 -0.48621815 -0.69245112 119 98 118
-0.037620939 -0.48856321 -0.69206578 122 102 115
-0.037880439 -0.4899824 -0.6925838 117 92 108
-0.038266063 -0.48976591 -0.69241565 123 100 115
-0.039393667 -0.49020532 -0.69235647 135 113 127
-0.03790044 -0.48809892 -0.69181979 128 110 121
-0.035889279 -0.48776561 -0.69217974 117 96 111
-0.035321482 -0.48653397 -0.69183582 123 105 118
-0.034699097 -0.48738486 -0.69235915 116 93 111
-0.034198351 -0.48700494 -0.69234473 117 94 113
-0.035486314 -0.48894528 -0.69276762 109 83 101
-0.034924038 -0.48908558 -0.69296491 107 80 98
-0.034157559 -0.487809 -0.6926716 112 87 107
-0.035539482 -0.48869345 -0.69265759 111 85 104
-0.035765849 -0.49003994 -0.69311553 104 76 93
-0.030433556 -0.48993787 -0.69441414 106 79 97
-0.029766928 -0.48755378 -0.69356608 121 98 117
-0.032450352 -0.48959279 -0.6937601 103 75 91
-0.029821916 -0.48894587 -0.69414526 113 88 107
-0.030650754 -0.48934215 -0.69410574 109 83 100
-0.032491349 -0.49012008 -0.69397444 100 71 86
-0.03251059 -0.48941445 -0.69367445 104 76 92
-0.031931464 -0.48829538 -0.69336647 111 86 103
-0.032779481 -0.48659891 -0.69253999 117 95 115
-0.031241646 -0.48671651 -0.6929056 121 99 119
-0.031649631 -0.48814958 -0.69336945 113 88 105
-0.032469232 -0.48832652 -0.69326639 109 84 101
-0.025571767 -0.48800561 -0.69480759 129 105 119
-0.028382286 -0.48994929 -0.69492126 111 85 103
-0.02621026 -0.48875508 -0.69495046 123 99 114
-0.025578661 -0.49002868 -0.69557518 117 94 107
-0.028846635 -0.48897678 -0.69441122 116 90 109
-0.029019739 -0.48839447 -0.69411671 118 94 113
-0.024558946 -0.48950782 -0.69565135 124 101 114
-0.024360729 -0.48794463 -0.69510728 134 111 125
-0.024831718 -0.48953664 -0.69558334 123 100 113
-0.02375236 -0.48787487 -0.69524771 136 114 128
-0.025351174 -0.48975578 -0.6955241 119 96 109
-0.025102222 -0.48868179 -0.69518411 127 103 117
-0.049769502 -0.49370381 -0.69214457 152 125 150
-0.049814932 -0.49330252 -0.69198036 153 125 152
-0.045883294 -0.49297622 -0.69236362 142 119 148
-0.046729419 -0.4929435 -0.69224656 144 119 149
-0.046440497 -0.49316314 -0.69236976 142 118 147
-0.046266414 -0.49306935 -0.69235373 142 119 148
-0.048665188 -0.49245661 -0.69182724 146 114 153
-0.048442859 -0.49324363 -0.69216096 145 115 149
-0.043108426 -0.49138427 -0.69213873 149 129 149
-0.041582059 -0.4905979 -0.69207931 153 135 148
-0.04118529 -0.49298355 -0.693174 123 103 123
-0.042840619 -0.49393508 -0.6932615 123 103 126
-0.041461539 -0.49138507 -0.69243526 144 126 140
-0.041171677 -0.49120802 -0.69241542 144 126 140
-0.04187059 -0.49159369 -0.69244546 144 126 141
-0.037213005 -0.4926399 -0.6938802 111 85 96
-0.039247058 -0.49287954 -0.69353819 109 84 104
-0.039168172 -0.49267974 -0.6934678 108 84 104
-0.037680697 -0.49234775 -0.69364917 110 84 98
-0.038580541 -0.49206498 -0.69332719 108 82 101
-0.039912462 -0.49331647 -0.69358373 108 85 106
-0.040556151 -0.49170181 -0.69275367 132 111 128
-0.040561263 -0.49159402 -0.69270641 133 113 129
-0.0382815 -0.49029055 -0.69262546 120 95 111
-0.040954877 -0.49201462 -0.69280416 133 113 130
-0.039151266 -0.49173161 -0.69306093 114 89 109
-0.038937408 -0.49029031 -0.6924879 128 105 120
-0.034835171 -0.49314886 -0.69470924 106 82 91
-0.035309564 -0.49378601 -0.69486809 108 85 93
-0.034428488 -0.49377069 -0.69508779 106 83 92
-0.033330787 -0.4931421 -0.69509292 102 78 89
-0.033608295 -0.49200967 -0.69452244 101 75 87
-0.034218315 -0.49348959 -0.69501793 105 82 91
-0.036389887 -0.49243245 -0.69399559 109 83 94
-0.036761779 -0.49031425 -0.69297087 106 77 94
-0.036114722 -0.49224082 -0.69398171 108 82 93
-0.034572769 -0.49124268 -0.69393712 102 75 87
-0.035643298 -0.49041045 -0.69329858 103 75 91
-0.036256477 -0.49276632 -0.6941762 109 84 93
-0.031591527 -0.49318603 -0.69555295 106 83 96
-0.031374406 -0.49252829 -0.69531584 106 82 95
-0.030013606 -0.49131709 -0.69512475 108 82 99
-0.032151166 -0.49271074 -0.69520003 104 80 92
-0.032378234 -0.49190605 -0.69478828 102 77 90
-0.031926628 -0.49224836 -0.69505274 104 79 92
-0.031559534 -0.49031991 -0.69429505 102 74 90
-0.032470793 -0.49067611 -0.69422299 100 72 87
-0.031928517 -0.49108765 -0.69454068 102 75 90
-0.027143875 -0.49051058 -0.6954276 113 89 104
-0.028358541 -0.49081862 -0.69529474 111 86 102
-0.028011102 -0.49105713 -0.69547808 112 88 103
-0.064925894 -0.49697629 -0.69212526 168 159 185
-0.064935066 -0.49754757 -0.69235772 173 162 187
-0.065099612 -0.49748182 -0.69232589 171 160 185
-0.066423774 -0.49635696 -0.6918276 159 143 172
-0.06713789 -0.49734405 -0.69220722 152 131 164
-0.065909259 -0.49663243 -0.69195515 159 146 175
-0.061597507 -0.49712417 -0.69232708 159 140 164
-0.06211235 -0.49678457 -0.69215816 162 145 170
-0.062862948 -0.49788785 -0.69258732 170 155 177
-0.063114204 -0.49645382 -0.69198108 163 151 177
-0.062854782 -0.49652421 -0.6920203 163 150 176
-0.064363509 -0.49703026 -0.69216537 173 165 190
-0.058666199 -0.4972887 -0.69257659 154 131 155
-0.057021577 -0.49585804 -0.69211954 153 130 156
-0.059811797 -0.49754736 -0.6926173 154 131 151
-0.056736037 -0.49745223 -0.69273347 153 131 165
-0.056643322 -0.49499571 -0.69181377 153 130 154
-0.05826205 -0.4957751 -0.69200563 152 129 153
-0.059803512 -0.49650142 -0.69217986 152 129 153
-0.059477065 -0.49625906 -0.69210553 152 129 153
-0.056436121 -0.49680218 -0.69251168 154 132 163
-0.056555323 -0.49517527 -0.69188899 153 130 155
-0.056026772 -0.49606907 -0.69227195 156 135 160
-0.056207474 -0.49511263 -0.69189608 155 133 155
-0.052817889 -0.49430975 -0.69189483 174 157 155
-0.053263947 -0.49516127 -0.69217467 169 152 156
-0.053572312 -0.49502853 -0.69209844 170 152 158
-0.053894609 -0.49659738 -0.69265705 162 143 159
-0.053499598 -0.49554667 -0.69229835 167 150 157
-0.054140974 -0.49613309 -0.69246227 164 145 160
-0.049422074 -0.49533719 -0.69281244 145 120 147
-0.049736455 -0.49438635 -0.69241261 149 123 148
-0.050391197 -0.4956333 -0.6927734 148 124 149
-0.052687678 -0.49663779 -0.69277966 161 144 154
-0.052407235 -0.49635538 -0.69271922 161 142 154
-0.051411994 -0.49495396 -0.69235545 160 139 151
-0.052198846 -0.49486476 -0.69219559 167 148 153
-0.045820609 -0.49445364 -0.69295019 136 116 140
-0.042555336 -0.4974044 -0.69483709 107 90 103
-0.042729564 -0.49630058 -0.6942904 112 93 109
-0.041185793 -0.49555573 -0.69431144 105 85 105
-0.042421211 -0.49767593 -0.69499308 106 89 101
-0.041502718 -0.49694845 -0.6948753 102 84 100
-0.042101648 -0.496907 -0.69471568 106 88 103
-0.04350286 -0.49570283 -0.69387299 119 100 118
-0.043374497 -0.49479088 -0.69351751 122 102 123
-0.042040542 -0.49499208 -0.69385964 112 91 112
-0.043855984 -0.49457365 -0.69333375 126 106 128
-0.043286584 -0.49535942 -0.69377166 119 100 118
-0.042994574 -0.49495709 -0.69366038 119 99 119
-0.037235022 -0.49492198 -0.69489717 112 90 97
-0.037957024 -0.49653247 -0.69548327 106 87 97
-0.039877355 -0.49756595 -0.69552791 99 82 94
-0.037339818 -0.49627677 -0.69550461 109 88 98
-0.039464097 -0.49539351 -0.69461817 106 86 99
-0.039007097 -0.49429205 -0.69421393 111 88 103
-0.039725702 -0.49627963 -0.69496679 103 84 96
-0.040855091 -0.49586236 -0.69452721 103 84 102
-0.040639702 -0.49636713 -0.69480592 102 83 99
-0.041001327 -0.4973177 -0.695162 98 81 96
-0.035658181 -0.49580327 -0.69569957 107 87 96
-0.033609591 -0.49463645 -0.69566858 106 84 93
-0.03550579 -0.49439558 -0.69508183 110 88 95
-0.036097407 -0.49513224 -0.69527698 110 88 96
-0.065831162 -0.50055331 -0.69357419 154 135 167
-0.067054518 -0.50177109 -0.69404382 133 106 147
-0.066534378 -0.50020325 -0.69340992 146 123 161
-0.065327607 -0.50194311 -0.69416267 156 137 164
-0.064488649 -0.49986431 -0.69332635 175 163 184
-0.065757073 -0.50020635 -0.69343275 156 138 169
-0.061897974 -0.50102508 -0.69389194 159 140 169
-0.063050166 -0.50194997 -0.69422323 163 147 174
-0.062312033 -0.50181931 -0.69419014 160 143 174
-0.061481904 -0.49930882 -0.69323611 158 137 158
-0.060596034 -0.50178164 -0.69421637 154 135 174
-0.063252024 -0.49845734 -0.69280499 172 158 179
-0.063973106 -0.49849597 -0.69278532 177 165 187
-0.063584544 -0.4994902 -0.69321561 171 156 177
-0.061728347 -0.49808767 -0.69272739 163 144 164
-0.061527375 -0.49825969 -0.69280851 161 141 160
-0.056700569 -0.49845988 -0.69312906 155 134 169
-0.057680823 -0.50103086 -0.6941222 160 144 172
-0.058105916 -0.49967766 -0.69352669 154 134 171
-0.057450231 -0.50171745 -0.69442546 163 149 173
-0.058084164 -0.50063652 -0.69392705 157 139 172
-0.058527689 -0.50061089 -0.69388211 156 137 173
-0.058131237 -0.49850506 -0.693066 154 132 165
-0.058818728 -0.50013602 -0.69366467 154 133 172
-0.059503518 -0.49911416 -0.6932345 154 132 162
-0.058764663 -0.49807015 -0.69286603 154 132 159
-0.058977216 -0.50033224 -0.69373292 154 133 172
-0.059970483 -0.49881214 -0.69309425 154 132 158
-0.056402639 -0.49987623 -0.69374311 160 143 170
-0.055272672 -0.49862465 -0.69332021 156 137 164
-0.054047633 -0.49809262 -0.69320464 154 135 159
-0.056117978 -0.49990386 -0.69377917 160 143 169
-0.056028448 -0.49877825 -0.69331884 156 137 167
-0.053496424 -0.49851462 -0.69342768 156 138 158
-0.046317473 -0.50086236 -0.69562602 122 102 111
-0.045169085 -0.49875668 -0.69485956 121 103 112
-0.045005463 -0.49958697 -0.69527316 121 102 113
-0.045771465 -0.49894476 -0.69483781 122 103 110
-0.046678897 -0.49915656 -0.69477457 125 107 116
-0.045560274 -0.49809477 -0.69448531 124 107 116
-0.048810974 -0.50011444 -0.69483745 132 113 124
-0.046248984 -0.49887586 -0.69472182 124 106 115
-0.044882782 -0.49879605 -0.69493139 120 103 112
-0.043999687 -0.49891874 -0.69519025 115 97 108
-0.044456042 -0.49923119 -0.69523031 118 100 110
-0.044774961 -0.49846795 -0.69480437 120 102 111
-0.041373555 -0.49805152 -0.69541097 98 82 94
-0.07303831 -0.505853 -0.69567353 179 173 174
-0.07332325 -0.5049898 -0.6952455 166 154 164
-0.072458245 -0.50524348 -0.69541657 172 160 164
-0.074006468 -0.50458682 -0.69501388 159 145 161
-0.073699094 -0.50571001 -0.69556719 175 169 174
-0.072392397 -0.50446415 -0.69504881 161 144 153
-0.068691708 -0.50530893 -0.6956377 142 123 150
-0.072064057 -0.50527245 -0.69545162 171 159 163
-0.071506396 -0.50491124 -0.69530731 161 145 156
-0.069932573 -0.5047549 -0.69531149 145 125 148
-0.070490986 -0.50412983 -0.69498557 141 117 142
-0.068847597 -0.50426018 -0.69513589 133 109 143
-0.069984123 -0.50291675 -0.69444132 126 96 133
-0.069614813 -0.50387967 -0.69491363 133 107 139
-0.068443589 -0.50435895 -0.69520533 133 109 145
-0.065695167 -0.5052464 -0.69558978 150 132 159
-0.067808494 -0.50492769 -0.69546914 139 118 150
-0.06611038 -0.50420195 -0.69510615 140 117 152
-0.068358846 -0.50536489 -0.69568145 140 121 150
-0.066747338 -0.50432295 -0.69517142 139 116 150
-0.065046132 -0.50476593 -0.69536567 151 132 160
-0.066745527 -0.50270855 -0.69444752 134 108 148
-0.065251008 -0.50303888 -0.69462872 154 135 162
-0.065962471 -0.50344563 -0.69478124 143 120 154
-0.066501677 -0.50212771 -0.69420832 140 115 152
-0.065933794 -0.50401568 -0.69502342 141 118 153
-0.06395489 -0.50285292 -0.69458443 163 147 168
-0.063859269 -0.50356269 -0.6948874 160 143 166
-0.062910162 -0.50382793 -0.69502336 154 135 159
-0.063598402 -0.50332391 -0.69479275 159 142 165
-0.064215571 -0.50508022 -0.69552106 157 140 164
-0.062582672 -0.50222468 -0.6943509 160 143 172
-0.062422652 -0.50239313 -0.69442624 158 141 170
-0.061143033 -0.50295502 -0.69469541 150 131 165
-0.061899606 -0.50323206 -0.69479501 152 133 161
-0.062075421 -0.50380462 -0.69503403 149 130 155
-0.060145646 -0.50311637 -0.69481933 148 129 164
-0.060069226 -0.50423801 -0.69530356 142 122 152
-0.059642602 -0.50301564 -0.69482821 150 132 165
-0.059156958 -0.5025543 -0.69467169 154 138 170
-0.05798652 -0.50253356 -0.69475251 158 144 169
-0.05845451 -0.50303441 -0.69494975 153 138 166
-0.050928362 -0.50263923 -0.69564396 136 118 128
-0.041845124 -0.47850379 -0.68766898 119 105 126
-0.039687686 -0.47781008 -0.68783271 123 109 127
-0.042284671 -0.47914019 -0.68782175 120 106 127
-0.04318976 -0.47972259 -0.68788165 121 103 124
-0.034826394 -0.5130986 -0.70367396 130 114 135
-0.03778128 -0.51465648 -0.70384061 126 108 134
-0.037227865 -0.51434892 -0.70381272 124 105 132
-0.036062036 -0.51403898 -0.70389509 128 110 135
-0.03549153 -0.51406324 -0.70401996 131 114 137
-0.036473833 -0.51412255 -0.70385444 126 108 133
-0.036554106 -0.51534623 -0.70443636 129 111 136
0 0 0 1 0 0 0 1 0 0 0 1 0 0 0 0 0 745 1 0 0
