ply
format ascii 1.0
comment PCL generated
element vertex 1060
property float x
property float y
property float z
property uchar red
property uchar green
property uchar blue
element camera 0
property float view_px
property float view_py
property float view_pz
property float x_axisx
property float x_axisy
property float x_axisz
property float y_axisx
property float y_axisy
property float y_axisz
property float z_axisx
property float z_axisy
property float z_axisz
property float focal
property float scalex
property float scaley
property float centerx
property float centery
property int viewportx
property int viewporty
property float k1
property float k2
end_header
-0.17144789 -0.40732279 -0.75529253 79 60 66
-0.17257908 -0.40783146 -0.75726324 74 50 61
-0.17219888 -0.40672112 -0.75689572 77 54 64
-0.17124423 -0.40517363 -0.75433171 71 51 59
-0.17137769 -0.407103 -0.75510883 78 59 66
-0.17161664 -0.40636837 -0.75575066 78 58 66
-0.171322 -0.40652329 -0.75482488 76 57 64
-0.17210831 -0.40476951 -0.75705564 77 55 65
-0.17139027 -0.40457192 -0.75469661 70 49 58
-0.1718742 -0.41006511 -0.75556862 71 52 64
-0.17160742 -0.40925258 -0.75517553 74 56 65
-0.17150818 -0.41141108 -0.75469822 69 53 66
-0.17170747 -0.41039479 -0.75521028 71 53 65
-0.17148907 -0.40856943 -0.75504446 76 57 65
-0.17159657 -0.40845555 -0.75526232 76 57 65
-0.18589741 -0.33694488 -0.77061188 46 15 6
-0.18590306 -0.3371613 -0.77162296 47 15 8
-0.18595082 -0.33708704 -0.77175808 46 14 8
-0.18624324 -0.33631533 -0.77118474 42 13 7
-0.18387797 -0.34065092 -0.77368742 70 43 41
-0.18402655 -0.34033224 -0.77326709 68 40 37
-0.18482058 -0.33916837 -0.77295578 61 29 24
-0.18438827 -0.33946425 -0.77179593 62 33 27
-0.18449594 -0.33950374 -0.77256018 62 32 27
-0.18518424 -0.33790988 -0.7699495 53 20 9
-0.18404163 -0.34004295 -0.77220118 66 39 33
-0.18386456 -0.3401157 -0.77123052 61 34 29
-0.18375842 -0.34021729 -0.77092689 59 33 28
-0.18338032 -0.34106076 -0.77242595 68 44 41
-0.18371394 -0.34010652 -0.76997817 53 27 22
-0.18369688 -0.34016198 -0.77013904 54 28 24
-0.18407224 -0.33961049 -0.77018237 54 26 20
-0.1831203 -0.34124753 -0.77134967 62 38 37
-0.17494164 -0.34077218 -0.77131218 13 8 10
-0.17493033 -0.34107095 -0.77117759 14 8 10
-0.17524567 -0.34028018 -0.77191031 17 10 12
-0.17681195 -0.34165588 -0.7734254 40 22 28
-0.1744681 -0.34174675 -0.77029711 8 4 6
-0.17510681 -0.34016746 -0.77177227 15 9 11
-0.17578812 -0.34148073 -0.77214497 26 14 18
-0.17438287 -0.33910474 -0.77045554 44 40 36
-0.17525606 -0.33920303 -0.77226329 20 14 15
-0.17542404 -0.33820605 -0.77266824 32 25 25
-0.17452177 -0.33791509 -0.77081102 59 54 49
-0.17428713 -0.34108403 -0.77014524 14 11 11
-0.1745041 -0.33943719 -0.77068853 35 31 29
-0.18414173 -0.34435469 -0.77326924 35 26 28
-0.18447784 -0.34460375 -0.77373475 26 19 21
-0.18443283 -0.34551293 -0.77257073 21 18 20
-0.18361132 -0.34324402 -0.77337331 55 40 40
-0.18339996 -0.34410894 -0.77188647 53 41 43
-0.18346456 -0.34518388 -0.77077544 44 37 40
-0.18472713 -0.34516454 -0.77364051 17 13 15
-0.18315186 -0.34418756 -0.77072281 51 40 42
-0.1831093 -0.34251377 -0.77305967 70 51 51
-0.18324107 -0.34503451 -0.77008098 45 37 41
-0.18301708 -0.34264693 -0.77210999 64 46 46
-0.18276854 -0.34195292 -0.77123451 61 39 40
-0.17399743 -0.345366 -0.77183294 4 3 4
-0.17482287 -0.34388465 -0.77187145 24 18 23
-0.17399968 -0.3445881 -0.77143461 4 3 4
-0.17394571 -0.34505963 -0.77162498 2 2 2
-0.17662638 -0.34220544 -0.77330148 40 23 30
-0.17638643 -0.34404042 -0.7737819 47 32 41
-0.17549714 -0.34313101 -0.77221388 30 20 26
-0.17589448 -0.34482276 -0.77347279 45 33 42
-0.17549303 -0.34470516 -0.77289212 39 29 37
-0.17544314 -0.344506 -0.77273983 37 27 35
-0.18454824 -0.34887704 -0.77287865 57 36 36
-0.18420134 -0.34866649 -0.77106774 47 27 24
-0.18480003 -0.34803519 -0.77365959 45 30 31
-0.18439387 -0.34797499 -0.77163923 37 21 19
-0.18435439 -0.34848803 -0.77172112 46 27 25
-0.18398255 -0.3489022 -0.77039623 52 29 26
-0.18496025 -0.34577328 -0.77351528 9 7 9
-0.18430462 -0.34747678 -0.77153951 35 22 21
-0.18420792 -0.3467595 -0.77153224 32 23 23
-0.18411298 -0.34720299 -0.77118838 37 25 25
-0.18397415 -0.35233158 -0.7712844 63 35 35
-0.18438841 -0.3509385 -0.7728315 69 43 44
-0.18409345 -0.35199958 -0.77173418 65 37 38
-0.18440677 -0.35309106 -0.77303636 71 44 46
-0.18452094 -0.35090438 -0.77335173 72 45 47
-0.18398802 -0.35173693 -0.7712062 62 35 35
-0.18403967 -0.3514654 -0.77137256 63 36 36
-0.18421592 -0.35119754 -0.77214998 66 39 40
-0.1837085 -0.35283455 -0.77018726 58 30 29
-0.18390469 -0.35151106 -0.77072638 61 34 32
-0.18379295 -0.35655266 -0.77334756 59 38 37
-0.18349363 -0.35689422 -0.77260244 58 38 37
-0.18349901 -0.35716873 -0.77281898 56 37 35
-0.18401484 -0.35612443 -0.77377325 60 39 39
-0.18333998 -0.35715178 -0.77227944 58 37 37
-0.18337686 -0.35636842 -0.77183449 63 41 41
-0.183268 -0.35530666 -0.77045316 61 36 36
-0.18353896 -0.35382101 -0.76996207 57 30 29
-0.18395415 -0.35371032 -0.77148241 64 37 37
-0.18375315 -0.35437632 -0.77138907 65 38 39
-0.1829796 -0.35631454 -0.77037418 62 39 39
-0.18312441 -0.35929304 -0.7728036 53 33 32
-0.18307632 -0.35928085 -0.77256393 53 32 32
-0.18351738 -0.35804752 -0.77338088 53 34 32
-0.18257928 -0.36066577 -0.77163804 53 31 31
-0.1835939 -0.35795668 -0.77364904 53 34 32
-0.18261595 -0.35773069 -0.7702049 60 38 38
-0.1825881 -0.35995147 -0.77105141 53 30 32
-0.18260549 -0.35804448 -0.77030283 59 37 37
-0.18251054 -0.3581588 -0.7700364 60 37 38
-0.18263866 -0.35791019 -0.77035606 59 37 38
-0.18266472 -0.35843104 -0.77066267 57 35 36
-0.18235239 -0.36233127 -0.77377617 52 33 31
-0.18168055 -0.36404911 -0.77049822 45 20 23
-0.18168162 -0.36382362 -0.7719804 47 25 27
-0.18250529 -0.36139095 -0.77201301 53 32 30
-0.1821789 -0.36253068 -0.77127707 50 27 27
-0.18189219 -0.36351103 -0.77061576 47 22 24
-0.18179078 -0.36357749 -0.77018386 46 21 23
-0.18058206 -0.3648237 -0.77219713 44 21 28
-0.1815142 -0.36447898 -0.77010179 44 18 21
-0.18139996 -0.36404762 -0.77241045 47 25 29
-0.18041156 -0.36473393 -0.77370101 45 25 33
-0.18069382 -0.36454824 -0.77326387 46 25 31
-0.18078063 -0.36454654 -0.77276224 45 24 30
-0.18183811 -0.36703867 -0.77002817 48 22 32
-0.18189821 -0.36745304 -0.77062565 50 25 36
-0.18203497 -0.36820927 -0.77055144 53 28 41
-0.181739 -0.36685362 -0.77286732 47 24 36
-0.18275872 -0.36911327 -0.77255929 56 30 38
-0.18253444 -0.36838296 -0.77328312 53 28 36
-0.18207034 -0.36737561 -0.77354884 49 26 35
-0.18259118 -0.36894569 -0.77217591 56 30 40
-0.18063103 -0.36568701 -0.77354783 44 23 33
-0.18101361 -0.36542106 -0.77164572 43 19 25
-0.18137756 -0.36622486 -0.77371329 45 23 34
-0.18161982 -0.36628357 -0.77326518 45 22 32
-0.18223836 -0.37270609 -0.77150804 49 39 46
-0.18164913 -0.37295762 -0.7701422 57 47 53
-0.18229471 -0.37038085 -0.77064747 54 33 46
-0.18232299 -0.37070388 -0.77085507 53 33 45
-0.18220115 -0.36942047 -0.77000761 57 32 47
-0.18196395 -0.37177455 -0.7704609 54 40 50
-0.182404 -0.37011093 -0.77079171 53 31 44
-0.18264888 -0.36964381 -0.77190989 54 30 41
-0.18297364 -0.3706879 -0.77331972 49 29 36
-0.18263869 -0.36935091 -0.77189755 56 30 40
-0.18282956 -0.36925089 -0.7728135 56 30 38
-0.18295312 -0.37192991 -0.77307051 43 29 38
-0.1816262 -0.37268305 -0.77002239 57 46 53
-0.1821616 -0.37328714 -0.77159429 50 41 47
-0.18257946 -0.37430736 -0.77333432 43 37 42
-0.18248729 -0.37438419 -0.77316242 44 38 43
-0.18187 -0.37348723 -0.77102017 54 45 51
-0.18224336 -0.37306637 -0.77163959 49 40 46
-0.18179363 -0.37455156 -0.77158022 53 47 52
-0.18186118 -0.37541351 -0.77236271 50 46 51
-0.1810675 -0.37461373 -0.77060109 54 41 52
-0.18027821 -0.37665755 -0.7711314 50 32 50
-0.18097217 -0.37611765 -0.77167732 52 39 52
-0.18110694 -0.37526479 -0.77118105 53 41 52
-0.18156861 -0.37390974 -0.77074236 56 46 53
-0.18069947 -0.37461966 -0.77008581 54 37 51
-0.18003005 -0.37595347 -0.77021384 50 30 49
-0.17973672 -0.3783896 -0.77176112 51 30 48
-0.17962989 -0.37874886 -0.77189952 51 30 47
-0.18039405 -0.37861392 -0.77287066 52 37 50
-0.18012376 -0.37775174 -0.77179432 50 32 49
-0.18073359 -0.37855348 -0.77330172 52 40 51
-0.17978412 -0.37858889 -0.77198857 51 31 48
-0.17915079 -0.3800534 -0.77096772 51 33 44
-0.17945735 -0.38032749 -0.77228343 53 35 46
-0.17886269 -0.3808279 -0.77021247 52 36 42
-0.17977367 -0.3808296 -0.77374327 54 37 47
-0.17892566 -0.38020584 -0.77016646 51 33 43
-0.17937361 -0.37813205 -0.7709353 49 26 47
-0.1782883 -0.38420472 -0.7727896 63 38 44
-0.17891438 -0.38276944 -0.7735545 59 37 44
-0.17896965 -0.38265699 -0.77351022 59 37 44
-0.17869468 -0.38325426 -0.7734347 60 37 43
-0.1785178 -0.38370374 -0.77287191 62 38 45
-0.17883384 -0.38221252 -0.77090454 57 40 48
-0.17879429 -0.38251188 -0.77092582 58 41 49
-0.1797287 -0.38093042 -0.77362442 55 38 47
-0.17903402 -0.38213265 -0.77163363 57 40 49
-0.17854933 -0.38315377 -0.77035093 60 43 51
-0.1785109 -0.38322517 -0.7702437 60 43 51
-0.17624402 -0.38295928 -0.77369869 53 28 37
-0.17469506 -0.38095737 -0.7724458 48 24 39
-0.17413193 -0.38098148 -0.77175385 49 24 40
-0.17428343 -0.38093364 -0.77195299 48 24 40
-0.1742758 -0.38125014 -0.77184421 49 24 40
-0.17503089 -0.38404638 -0.77311212 49 28 37
-0.17670834 -0.38472059 -0.77378356 57 31 37
-0.17531939 -0.38291249 -0.77266937 53 28 38
-0.1747974 -0.3828814 -0.77254027 50 26 38
-0.179325 -0.38814831 -0.77213115 49 31 35
-0.17936723 -0.38816515 -0.77111191 49 30 34
-0.17825457 -0.38545856 -0.77314162 60 34 37
-0.17826279 -0.38553718 -0.77376974 60 34 37
-0.17930494 -0.38818997 -0.7731598 49 31 36
-0.1783983 -0.38559574 -0.77155161 61 38 43
-0.17837238 -0.38566628 -0.77241629 60 35 39
-0.17804891 -0.38496196 -0.77358758 63 34 37
-0.17823672 -0.38497642 -0.77051324 64 45 52
-0.1783694 -0.38549834 -0.77144706 61 39 45
-0.17925771 -0.38774994 -0.77015626 51 33 37
-0.17450607 -0.38515013 -0.77367425 44 26 35
-0.17916594 -0.39115441 -0.77209222 41 27 35
-0.1793336 -0.39185995 -0.77306193 29 21 28
-0.17937227 -0.39167726 -0.77328515 28 21 27
-0.17940506 -0.39247552 -0.77347577 21 17 24
-0.17943354 -0.39091539 -0.77363801 32 23 29
-0.17933179 -0.38950884 -0.77271044 47 30 37
-0.17926404 -0.39004248 -0.77147144 47 30 37
-0.17931271 -0.38973176 -0.77192986 47 30 36
-0.1790442 -0.39131871 -0.77015668 47 30 37
-0.17924386 -0.39002052 -0.77217728 47 30 37
-0.17881921 -0.39325434 -0.7725684 35 26 33
-0.17835063 -0.39392561 -0.77292484 28 21 27
-0.17832837 -0.39391527 -0.77264595 32 24 30
-0.17845224 -0.39368784 -0.77220213 39 28 35
-0.17871948 -0.39274368 -0.77009714 48 31 40
-0.17937273 -0.39258161 -0.77330178 21 17 24
-0.17837624 -0.3933486 -0.77024132 55 37 46
-0.17409481 -0.39481169 -0.7699818 55 41 44
-0.17511272 -0.39431259 -0.77163053 38 28 35
-0.17475899 -0.39393073 -0.77137327 37 28 36
-0.17530794 -0.39336038 -0.77028668 49 37 48
-0.17461251 -0.39317188 -0.77049929 42 33 44
-0.17502144 -0.39407623 -0.77138799 39 29 37
-0.1748047 -0.39304104 -0.77020681 46 36 47
-0.17597413 -0.39509183 -0.77377784 13 10 14
-0.17620176 -0.39473414 -0.77148032 48 33 39
-0.17521235 -0.39504421 -0.77275378 29 20 24
-0.1771147 -0.39450818 -0.77072674 59 40 48
-0.17671216 -0.39468998 -0.7716341 46 31 38
-0.17662448 -0.3937251 -0.76994139 61 43 54
-0.16642842 -0.35548523 -0.73836935 38 19 30
-0.16642824 -0.35518146 -0.73832071 39 19 31
-0.16626349 -0.35707867 -0.7384147 33 17 28
-0.16578317 -0.35575172 -0.73759043 39 22 32
-0.16591077 -0.35915187 -0.73861206 34 18 30
-0.1645909 -0.36486235 -0.73746532 54 32 36
-0.16539276 -0.36494207 -0.73861259 52 27 30
-0.16525963 -0.36336029 -0.7383889 47 27 34
-0.1646454 -0.36802426 -0.73782653 58 35 41
-0.16417725 -0.36741543 -0.7371906 61 39 47
-0.16421887 -0.36746398 -0.73724681 61 39 47
-0.16483575 -0.36784121 -0.73806018 57 33 38
-0.16411118 -0.36786661 -0.73713189 61 40 48
-0.16485699 -0.36784825 -0.73808783 56 33 38
-0.16445377 -0.36726758 -0.73753691 59 37 44
-0.16421257 -0.36617357 -0.73709971 59 37 44
-0.16403274 -0.36524978 -0.73667854 56 35 40
-0.16332418 -0.36545464 -0.73570269 58 39 46
-0.16389775 -0.36604032 -0.73662621 59 38 45
-0.16513763 -0.37101862 -0.73849595 54 32 38
-0.16474913 -0.36996928 -0.73789358 62 39 45
-0.17738448 -0.33757141 -0.75273538 61 32 38
-0.17743884 -0.34172952 -0.75173593 62 32 40
-0.17706862 -0.34167925 -0.75096881 59 23 32
-0.17750219 -0.34092072 -0.75209129 61 31 39
-0.17712972 -0.33805209 -0.75232148 61 31 37
-0.17653415 -0.34048289 -0.7504071 61 25 33
-0.17677809 -0.33907932 -0.75134218 62 29 36
-0.17720293 -0.33892021 -0.75212508 59 27 35
-0.17697318 -0.33979952 -0.75140816 60 25 33
-0.17824498 -0.34391123 -0.75370342 62 41 48
-0.17795937 -0.34355703 -0.75291038 62 38 45
-0.1784212 -0.34531814 -0.75395203 58 37 43
-0.17816593 -0.34423226 -0.75336856 60 38 44
-0.17725511 -0.34345463 -0.75193524 63 42 47
-0.17756593 -0.34274584 -0.75222325 64 40 47
-0.17712136 -0.34528485 -0.75191641 61 42 47
-0.17772807 -0.34383664 -0.75247401 61 38 46
-0.17735377 -0.34521106 -0.75216311 60 40 47
-0.17753623 -0.34200272 -0.7520476 64 38 45
-0.17694281 -0.34199116 -0.75078887 59 24 33
-0.17702144 -0.34260666 -0.75132799 62 35 41
-0.17809609 -0.34720188 -0.75375122 55 35 43
-0.17791103 -0.34643474 -0.75316715 57 36 45
-0.17782709 -0.34686014 -0.75311923 56 36 45
-0.17798302 -0.34941545 -0.7541483 51 32 43
-0.17665946 -0.34783524 -0.75186759 54 34 42
-0.17688957 -0.34700096 -0.75191939 55 35 43
-0.17687358 -0.34914708 -0.75250751 52 33 42
-0.17568949 -0.34888104 -0.7509492 51 32 39
-0.17629561 -0.34895036 -0.751728 51 33 41
-0.17552556 -0.34766388 -0.75054681 56 40 44
-0.17576373 -0.347738 -0.75081736 55 38 43
-0.17665447 -0.3464371 -0.75156313 58 40 45
-0.17607678 -0.34623444 -0.75090295 61 45 48
-0.17779538 -0.34964892 -0.75386333 52 33 44
-0.17580052 -0.35193822 -0.752949 48 30 36
-0.17602889 -0.35314274 -0.75409061 47 30 34
-0.17595206 -0.3508575 -0.75237119 49 31 38
-0.17633896 -0.3496829 -0.75202137 50 32 41
-0.17569737 -0.35088056 -0.75206864 48 31 37
-0.17688851 -0.35000852 -0.75294095 51 32 42
-0.17537963 -0.35173425 -0.75190562 47 30 35
-0.17501721 -0.35222307 -0.75087219 47 31 35
-0.17535181 -0.35303971 -0.75215566 46 30 34
-0.17548552 -0.35321301 -0.75262874 46 30 34
-0.17560405 -0.3531917 -0.7530027 46 30 34
-0.17540722 -0.35137376 -0.75190026 48 30 36
-0.17582953 -0.35440621 -0.75363773 45 28 32
-0.1756831 -0.35637385 -0.75289547 40 24 30
-0.17599106 -0.35519731 -0.75416631 43 26 32
-0.17518219 -0.35731485 -0.75092381 39 21 29
-0.17594777 -0.35538504 -0.75398552 42 26 32
-0.17596334 -0.35604644 -0.75397909 41 25 31
-0.17546326 -0.35393608 -0.75253946 45 29 33
-0.17506471 -0.35578433 -0.7508378 42 25 31
-0.17560822 -0.35450667 -0.75287211 44 27 32
-0.17535254 -0.35585576 -0.75174278 42 24 31
-0.17510399 -0.35403162 -0.75136721 45 30 33
-0.17610754 -0.35773227 -0.7541852 38 22 30
-0.17599973 -0.36098182 -0.75236636 37 21 30
-0.17640878 -0.36014536 -0.75353181 38 21 31
-0.17619437 -0.36035177 -0.75303668 38 21 31
-0.17634092 -0.35866034 -0.75414884 38 22 31
-0.17588577 -0.36131164 -0.75199336 37 21 30
-0.1752691 -0.3574791 -0.75124097 38 21 29
-0.17551742 -0.35804701 -0.75218856 38 22 29
-0.17557475 -0.35904953 -0.75243157 37 22 28
-0.17537199 -0.3580845 -0.7516439 38 21 28
-0.17522524 -0.35930356 -0.7511273 37 21 28
-0.1762452 -0.36261049 -0.75313258 39 21 32
-0.17500524 -0.36448753 -0.7516042 38 22 29
-0.17575283 -0.36420271 -0.75300342 41 22 29
-0.17671812 -0.36236849 -0.75398284 40 21 32
-0.17547046 -0.36514732 -0.75294703 42 23 27
-0.17563225 -0.36446375 -0.75289905 41 23 28
-0.17434038 -0.3646754 -0.75040036 36 21 28
-0.17585969 -0.3620396 -0.75220138 38 21 31
-0.17520815 -0.3621982 -0.75106865 36 21 28
-0.17510776 -0.36142311 -0.75059772 36 21 27
-0.17581147 -0.362196 -0.7521711 38 21 31
-0.17508748 -0.36177424 -0.75069088 36 21 27
-0.17525949 -0.36840943 -0.75350332 41 24 32
-0.17457546 -0.36842084 -0.75165188 40 24 35
-0.17563455 -0.36675224 -0.75375342 43 24 29
-0.17528786 -0.36818671 -0.7534771 41 24 32
-0.17587958 -0.36640444 -0.75425738 43 24 28
-0.17409688 -0.36813074 -0.75049192 38 23 35
-0.17573071 -0.36573479 -0.75360161 43 24 27
-0.17463836 -0.36585858 -0.75133783 39 23 29
-0.17434417 -0.36546138 -0.75067431 37 22 29
-0.17420684 -0.36728948 -0.75061619 38 23 33
-0.17532754 -0.36658597 -0.75286674 42 24 30
-0.17433141 -0.37293389 -0.75391239 43 27 29
-0.17406364 -0.37111637 -0.75194645 41 25 33
-0.17386936 -0.36980683 -0.75052691 39 24 36
-0.17432548 -0.37062171 -0.75231647 41 25 34
-0.1744611 -0.37066168 -0.75271183 41 25 33
-0.17443274 -0.37192732 -0.75349772 43 26 31
-0.17492011 -0.37020007 -0.7536431 41 25 32
-0.17424053 -0.37023059 -0.75181925 40 25 35
-0.17419261 -0.37086213 -0.75211972 41 25 34
-0.17305402 -0.37192085 -0.75077659 42 26 31
-0.17324786 -0.37195393 -0.75107265 41 26 31
-0.17349565 -0.37262765 -0.75188512 40 27 29
-0.17314637 -0.37163177 -0.75070822 41 26 32
-0.1739707 -0.37420496 -0.75387818 41 27 29
-0.17378458 -0.37371325 -0.75305623 39 27 29
-0.17369753 -0.37430927 -0.75334114 40 27 29
-0.17320462 -0.37630123 -0.75395244 43 28 29
-0.17287183 -0.37558043 -0.75299805 44 28 29
-0.17332941 -0.37574029 -0.75375098 42 28 29
-0.17303199 -0.37417614 -0.75227904 43 28 28
-0.17200738 -0.37537554 -0.75058287 47 30 30
-0.17207186 -0.37542507 -0.75078046 47 30 30
-0.17272246 -0.37623838 -0.75288451 45 29 30
-0.17289738 -0.37625638 -0.75337958 44 29 29
-0.17250119 -0.37459856 -0.7516892 45 29 28
-0.17385957 -0.37987828 -0.75372791 54 31 33
-0.1730523 -0.38034937 -0.75199443 59 35 37
-0.17375374 -0.37977329 -0.75356776 55 32 34
-0.17370816 -0.38063148 -0.75291914 59 33 35
-0.17253822 -0.37997416 -0.75135082 58 36 38
-0.1727618 -0.37960815 -0.75197101 56 35 37
-0.17330638 -0.3778075 -0.75405335 47 29 31
-0.17219126 -0.37795222 -0.75124657 51 32 34
-0.17276356 -0.37702879 -0.75322014 45 29 30
-0.17201988 -0.37831682 -0.75061989 53 33 35
-0.17248273 -0.37935987 -0.75149 56 35 37
-0.17253612 -0.37853673 -0.75197303 52 33 35
-0.17399859 -0.38124084 -0.75358629 56 32 36
-0.17403588 -0.38266078 -0.75390464 57 36 42
-0.17385063 -0.38255674 -0.75319982 60 37 41
-0.17391461 -0.38423222 -0.75360376 60 40 48
-0.17347029 -0.38459179 -0.7525425 61 40 48
-0.17327833 -0.383131 -0.75204307 61 37 41
-0.17297833 -0.38469771 -0.75156206 62 40 46
-0.17340364 -0.38325879 -0.75230485 61 38 42
-0.17293346 -0.38394895 -0.75141358 62 38 43
-0.17329027 -0.38136563 -0.75203997 61 35 37
-0.1723713 -0.38180977 -0.75046456 63 38 41
-0.17239466 -0.381401 -0.75051945 62 38 41
-0.17302747 -0.38097548 -0.75160873 61 36 38
-0.17397137 -0.38481256 -0.75387704 59 41 50
-0.17406447 -0.38619858 -0.75394744 55 37 46
-0.17401065 -0.38765657 -0.75370246 55 35 44
-0.17203712 -0.38806096 -0.75116384 56 35 42
-0.17372899 -0.38736424 -0.75318986 60 38 46
-0.17326923 -0.38665199 -0.75262743 59 38 46
-0.1730604 -0.38730115 -0.75238478 58 37 45
-0.17318247 -0.38839751 -0.75254589 58 36 44
-0.172794 -0.38502541 -0.75133103 62 39 46
-0.17352198 -0.38479146 -0.75267315 61 41 48
-0.17311677 -0.38509488 -0.75201565 61 40 47
-0.17338355 -0.38506794 -0.75253785 61 40 48
-0.17395096 -0.38890901 -0.75373077 56 35 44
-0.17351042 -0.39042509 -0.7539444 60 39 47
-0.17281856 -0.38894659 -0.75226498 58 36 43
-0.17310457 -0.39131317 -0.75392985 62 41 47
-0.17276415 -0.3913112 -0.75351924 61 40 46
-0.17324366 -0.38951719 -0.75309479 60 37 45
-0.17324048 -0.38959637 -0.75313514 60 37 45
-0.17194086 -0.39117464 -0.75186872 62 38 43
-0.17260042 -0.39239678 -0.75367963 64 42 47
-0.17167704 -0.38975647 -0.75116962 57 36 41
-0.17241292 -0.39148495 -0.75318015 61 40 46
-0.17189397 -0.3919552 -0.75171643 65 40 43
-0.17215 -0.39450255 -0.75266469 67 45 51
-0.17211582 -0.39437425 -0.75260848 67 45 52
-0.17200531 -0.39563552 -0.7522288 67 45 50
-0.17294115 -0.39493081 -0.75426573 63 40 41
-0.17237461 -0.39437288 -0.75314891 66 44 49
-0.17278256 -0.39478233 -0.75395221 64 41 43
-0.17212036 -0.39332581 -0.75246787 67 43 48
-0.17217405 -0.39345601 -0.75264156 66 43 49
-0.17265078 -0.39285374 -0.75386548 64 43 49
-0.17168762 -0.39515224 -0.7515887 69 47 53
-0.17131065 -0.39493781 -0.75049585 71 46 50
-0.17211452 -0.393576 -0.75249684 67 44 49
-0.17084369 -0.39975339 -0.75052464 65 38 47
-0.17114884 -0.39840829 -0.75082386 67 42 49
-0.1716959 -0.39863354 -0.7520225 64 37 42
-0.17193073 -0.39756873 -0.75224537 65 40 44
-0.17162544 -0.39811772 -0.75174582 65 40 45
-0.17086685 -0.40330824 -0.75167513 67 43 52
-0.1710663 -0.40304539 -0.75190043 68 43 51
-0.17071544 -0.40399227 -0.75218314 67 45 55
-0.17130639 -0.40274331 -0.75219178 68 43 49
-0.17144941 -0.40144914 -0.75191748 68 40 45
-0.17080711 -0.40266126 -0.75124741 66 42 51
-0.17091036 -0.40235075 -0.75132006 67 41 49
-0.1709372 -0.40080056 -0.75089347 66 38 46
-0.1711013 -0.40146279 -0.75135928 67 39 47
-0.17099999 -0.40751508 -0.75389934 78 60 67
-0.17107795 -0.40754056 -0.75420272 77 59 65
-0.17036118 -0.40727025 -0.75140613 89 66 81
-0.17114736 -0.40577164 -0.75409406 73 53 61
-0.17060748 -0.40758041 -0.75241303 85 64 76
-0.17094222 -0.4059673 -0.75335139 77 56 66
-0.17047931 -0.40529016 -0.75185126 74 52 65
-0.1703036 -0.4058477 -0.75129676 78 56 70
-0.17084923 -0.40442169 -0.75300157 68 47 58
-0.17090464 -0.40479347 -0.75314564 71 50 61
-0.1702852 -0.40596798 -0.75123519 79 57 71
-0.17097434 -0.4105382 -0.75336999 74 54 66
-0.17086338 -0.4121058 -0.75257033 71 48 65
-0.17096727 -0.41124168 -0.75316435 73 52 65
-0.17071646 -0.41007203 -0.75256443 77 52 65
-0.17094152 -0.40964815 -0.75348032 76 56 66
-0.17056151 -0.4103277 -0.75192815 78 51 66
-0.17074959 -0.40960613 -0.75279665 78 55 66
-0.1709096 -0.40840045 -0.75365829 80 62 69
-0.17035177 -0.40827703 -0.75155187 90 68 82
-0.1703829 -0.41123065 -0.75105822 78 47 65
-0.17025331 -0.41105881 -0.75059855 81 49 69
-0.17072266 -0.41309008 -0.75254852 72 48 62
-0.17093159 -0.41243845 -0.7529766 71 49 64
-0.17071679 -0.41246104 -0.75221729 72 47 63
-0.17081815 -0.41321948 -0.75295478 71 49 62
-0.18561828 -0.3351036 -0.76788837 46 14 4
-0.18563758 -0.33558407 -0.76835108 46 14 4
-0.18557233 -0.33658731 -0.76911217 49 15 4
-0.18595214 -0.33570752 -0.76907146 43 14 4
-0.18546437 -0.33614293 -0.76860088 48 16 5
-0.18510163 -0.33493188 -0.76720613 48 17 8
-0.18509604 -0.3340981 -0.76645881 46 16 8
-0.18407963 -0.33685881 -0.7660293 52 27 20
-0.18485011 -0.3361032 -0.76777726 50 20 11
-0.18502492 -0.33676389 -0.7687093 51 20 10
-0.18492123 -0.33614546 -0.76801068 50 20 10
-0.1846711 -0.33762035 -0.76823449 53 23 14
-0.18431014 -0.33680519 -0.76666319 52 25 18
-0.18302214 -0.34114319 -0.76970696 53 29 28
-0.18283631 -0.34152538 -0.76827192 54 25 26
-0.18310694 -0.34111699 -0.76833862 54 24 24
-0.18265004 -0.34174404 -0.76907742 54 29 30
-0.18299223 -0.34132707 -0.76780576 54 23 24
-0.18370657 -0.34020147 -0.76863337 54 22 19
-0.18297362 -0.34119698 -0.76613945 55 20 21
-0.18354014 -0.33955044 -0.76646084 54 24 21
-0.1843413 -0.33789426 -0.76745486 53 26 18
-0.18370788 -0.33860609 -0.7661894 54 27 22
-0.18306972 -0.34076196 -0.76606899 55 21 22
-0.18324646 -0.34012139 -0.76606739 55 23 22
-0.17409989 -0.33866441 -0.76990539 58 54 48
-0.17398183 -0.34038496 -0.76974529 29 27 24
-0.18286425 -0.34406 -0.76849192 51 32 34
-0.18268983 -0.34274554 -0.7692762 53 32 33
-0.18295977 -0.34388936 -0.769638 48 34 37
-0.18300891 -0.34401828 -0.76984417 47 35 37
-0.18288332 -0.34472984 -0.76747549 52 31 32
-0.18263313 -0.34195107 -0.76881772 54 28 30
-0.18262956 -0.34197748 -0.76891071 54 29 30
-0.18273644 -0.34193397 -0.76670253 55 21 24
-0.1827932 -0.34288719 -0.7662828 55 22 25
-0.18279454 -0.34372747 -0.76690316 54 27 28
-0.18335778 -0.34876752 -0.76693159 57 37 34
-0.18344291 -0.34913591 -0.76721156 59 36 33
-0.18341662 -0.34694725 -0.76916403 48 37 38
-0.18357229 -0.34945205 -0.76787663 60 35 31
-0.18372849 -0.34886888 -0.76962733 56 34 31
-0.18339914 -0.34713915 -0.76884365 49 37 38
-0.18330348 -0.3462607 -0.7689203 46 36 39
-0.18308848 -0.34659642 -0.76669145 53 32 33
-0.18329264 -0.34706777 -0.76803398 51 36 37
-0.18298657 -0.34627995 -0.76610082 54 31 31
-0.1829285 -0.34582347 -0.76603502 54 30 31
-0.18281202 -0.35348961 -0.76849186 59 36 38
-0.18257295 -0.35139108 -0.76623356 63 42 41
-0.18323034 -0.35251674 -0.76837659 59 34 33
-0.1825434 -0.35250637 -0.76716495 62 40 41
-0.18259864 -0.35265765 -0.76739496 62 40 41
-0.18308488 -0.35299444 -0.768543 59 34 34
-0.18276076 -0.3520169 -0.76711404 62 39 39
-0.18344775 -0.35096222 -0.76744664 60 34 31
-0.18355246 -0.35135016 -0.7684263 59 32 29
-0.18350808 -0.3515943 -0.76821142 59 32 30
-0.18350129 -0.35035473 -0.76755244 60 34 31
-0.18377496 -0.34998506 -0.76943499 59 33 28
-0.18292063 -0.35544759 -0.76961303 60 36 36
-0.18256585 -0.356249 -0.76936352 61 39 40
-0.18264833 -0.35460845 -0.76873815 60 38 39
-0.18248263 -0.35378271 -0.7680577 61 39 42
-0.18274228 -0.35526505 -0.76921254 60 37 38
-0.18278542 -0.3543632 -0.76886487 60 37 38
-0.18195045 -0.35707581 -0.7682898 58 36 37
-0.18212703 -0.35621539 -0.76846409 61 41 43
-0.18188016 -0.35457397 -0.76735753 63 45 49
-0.18121445 -0.35701862 -0.76664805 51 29 32
-0.18144786 -0.35714072 -0.76715654 54 31 33
-0.18108673 -0.3557691 -0.76611561 53 33 37
-0.18202314 -0.35793644 -0.76873565 57 34 35
-0.18223879 -0.35946351 -0.7697472 56 33 34
-0.18205233 -0.36020431 -0.7695204 54 30 32
-0.18195206 -0.36064675 -0.7693814 53 28 31
-0.18176287 -0.35898387 -0.76838845 54 30 32
-0.18163264 -0.36079422 -0.76841038 50 27 31
-0.18152304 -0.35917878 -0.76770389 52 29 32
-0.18125153 -0.36026189 -0.76716447 48 26 30
-0.1813861 -0.3575173 -0.76712042 52 29 31
-0.18150282 -0.35798091 -0.76737225 53 31 33
-0.18174328 -0.36311632 -0.76972926 47 22 25
-0.18162949 -0.36256808 -0.76911962 47 23 27
-0.18139134 -0.36240906 -0.76836699 46 23 27
-0.18121739 -0.36333638 -0.76831776 43 19 24
-0.18081599 -0.36133412 -0.76614237 43 23 29
-0.18137713 -0.36351401 -0.76887536 44 20 23
-0.18100642 -0.36352003 -0.76655173 43 22 26
-0.18100759 -0.3633225 -0.76676077 43 21 26
-0.18123549 -0.36454847 -0.76819861 42 19 22
-0.18108489 -0.36371401 -0.76727247 43 21 24
-0.18120675 -0.36445585 -0.76795602 43 19 23
-0.18174608 -0.36672091 -0.76985008 47 21 30
-0.18143046 -0.36828262 -0.7687518 52 28 45
-0.1815877 -0.36912096 -0.76874089 56 31 53
-0.18070187 -0.36822507 -0.76750088 50 27 41
-0.18143791 -0.36831588 -0.76875347 53 28 45
-0.18080859 -0.36704424 -0.76814491 46 22 31
-0.18095581 -0.36616641 -0.76725793 45 23 28
-0.18096976 -0.36612043 -0.76727271 45 23 28
-0.18082576 -0.36639011 -0.7664631 46 25 31
-0.18033326 -0.3681449 -0.76636088 49 28 40
-0.18070437 -0.36704978 -0.76716584 47 24 33
-0.18209663 -0.36975899 -0.76990807 57 34 48
-0.18161841 -0.37215042 -0.76984119 57 44 53
-0.18120775 -0.36916235 -0.76807964 55 31 51
-0.18116899 -0.36938089 -0.76809567 55 32 51
-0.18059483 -0.37034991 -0.76746517 53 36 48
-0.1812636 -0.36984733 -0.76843911 55 34 52
-0.17994915 -0.3712672 -0.76627618 48 29 41
-0.18022211 -0.37069011 -0.76676869 51 33 45
-0.18111376 -0.37275019 -0.7691924 55 44 50
-0.18078876 -0.37210694 -0.76833117 53 40 48
-0.18034245 -0.37219483 -0.76734918 49 34 43
-0.17985572 -0.37241903 -0.76630479 45 28 38
-0.18015148 -0.37494838 -0.76889133 53 37 45
-0.17962782 -0.37568498 -0.76831865 52 34 41
-0.17900628 -0.37661418 -0.76778781 50 29 38
-0.18004347 -0.37533453 -0.76940823 52 34 47
-0.18044624 -0.37471142 -0.7696954 53 37 49
-0.1806711 -0.37426007 -0.76957506 54 40 49
-0.18017779 -0.37367374 -0.76759166 49 35 41
-0.17930871 -0.37538919 -0.76683593 50 34 35
-0.18027966 -0.3732608 -0.767533 48 34 41
-0.1804716 -0.37335852 -0.76803106 50 37 43
-0.18025573 -0.37411734 -0.76807451 52 39 43
-0.17955036 -0.37470716 -0.76690358 49 33 36
-0.17774172 -0.38082394 -0.76702148 55 33 37
-0.17780651 -0.37964845 -0.76643211 53 33 36
-0.17805699 -0.37874612 -0.76639569 52 32 34
-0.1781943 -0.37976012 -0.76754487 52 34 37
-0.17840041 -0.37714288 -0.76601738 51 32 30
-0.17890267 -0.37754956 -0.76855028 49 27 40
-0.17881353 -0.37872577 -0.76880735 50 31 39
-0.17894128 -0.3773115 -0.76859921 49 26 40
-0.17887755 -0.37714127 -0.76818591 49 27 39
-0.17876199 -0.37911573 -0.76878476 51 32 39
-0.17751162 -0.38055721 -0.76646405 56 34 37
-0.17793307 -0.38260639 -0.76647872 51 30 33
-0.17827626 -0.38351542 -0.76685184 47 28 31
-0.17808464 -0.38124734 -0.76774728 53 33 37
-0.17837253 -0.38365969 -0.76702702 47 28 31
-0.1784078 -0.382658 -0.76775354 49 30 34
-0.1783184 -0.38183451 -0.76802391 51 32 36
-0.17867379 -0.38167697 -0.76910919 50 33 38
-0.17852077 -0.38263819 -0.76963675 56 39 46
-0.17861731 -0.38198945 -0.76970506 54 38 44
-0.17877293 -0.38093698 -0.76987982 52 35 41
-0.17827879 -0.38428026 -0.76931202 60 42 50
-0.17725499 -0.38101238 -0.76614946 57 35 38
-0.17873153 -0.38657758 -0.76897979 59 41 47
-0.17908396 -0.38831109 -0.76679456 57 36 40
-0.1788896 -0.38762406 -0.76722193 59 38 44
-0.17887369 -0.38739991 -0.76774246 59 39 44
-0.17940906 -0.38848254 -0.76890624 50 32 35
-0.17919648 -0.38850859 -0.7671259 55 35 39
-0.17839201 -0.38538602 -0.76616365 47 27 30
-0.17887716 -0.38758197 -0.76602328 54 32 36
-0.17872667 -0.38701263 -0.76761657 61 40 46
-0.17888235 -0.38766968 -0.76691228 59 38 43
-0.17879544 -0.38725886 -0.76669544 56 36 40
-0.17852461 -0.38603336 -0.76677781 53 33 37
-0.17800653 -0.39252529 -0.76608622 80 58 74
-0.17891657 -0.39063412 -0.76857716 58 39 48
-0.17867176 -0.39250886 -0.76928157 52 34 45
-0.17878731 -0.39246646 -0.76979673 48 30 40
-0.17876169 -0.39193407 -0.76913738 53 35 45
-0.17866573 -0.39127243 -0.76800835 63 44 54
-0.17882246 -0.39004341 -0.76685262 63 42 50
-0.1791769 -0.38942832 -0.76826072 56 37 42
-0.1788218 -0.39055169 -0.76803309 63 43 53
-0.17903246 -0.38904244 -0.76620203 59 37 42
-0.17900442 -0.38997132 -0.76814383 59 40 47
-0.17388596 -0.39235416 -0.76974332 38 32 45
-0.17797484 -0.39511725 -0.76802403 62 42 50
-0.17838815 -0.39402309 -0.76868057 53 35 44
-0.1779214 -0.39617103 -0.76654464 60 41 48
-0.17813827 -0.39326605 -0.76679659 70 50 63
-0.17852981 -0.39304715 -0.76868027 55 37 47
-0.17839988 -0.39338455 -0.76806337 58 40 50
-0.17833002 -0.39421272 -0.76775163 56 38 47
-0.17808789 -0.39525676 -0.76661485 60 42 50
-0.17826302 -0.39270163 -0.76738149 68 48 61
-0.17592317 -0.39349219 -0.76969016 56 41 51
-0.17764322 -0.39552078 -0.76793516 67 46 53
-0.17731127 -0.39487481 -0.76867729 66 45 54
-0.17716643 -0.39477149 -0.76871872 64 45 53
-0.177728 -0.39617777 -0.76696736 65 45 51
-0.17640045 -0.3943992 -0.76866227 58 41 51
-0.17590275 -0.39459181 -0.76793838 53 39 48
-0.17383195 -0.39331573 -0.76965386 44 35 44
-0.17446223 -0.39341083 -0.7689935 45 35 46
-0.17755267 -0.39647809 -0.76669848 65 45 50
-0.17510846 -0.39528158 -0.76904899 60 43 47
-0.17571023 -0.39580816 -0.76857132 63 45 48
-0.17707999 -0.39627916 -0.76716715 64 45 50
-0.17607066 -0.3950161 -0.76780295 55 40 48
-0.18649228 -0.34220445 -0.78170353 84 64 52
-0.18319653 -0.39608592 -0.78544772 5 2 1
-0.1832341 -0.39639953 -0.78532588 1 0 0
-0.18270923 -0.39508978 -0.78546637 18 8 6
-0.18196395 -0.39441675 -0.78506273 27 13 9
-0.18236277 -0.39733401 -0.78526115 0 0 0
-0.18176879 -0.39669299 -0.78402591 0 0 0
-0.17312966 -0.34040919 -0.74567586 73 45 46
-0.17312488 -0.34115016 -0.74570894 71 43 42
-0.17356381 -0.34519249 -0.74641705 54 38 46
-0.17310125 -0.34560257 -0.74583972 56 42 49
-0.17324172 -0.34561807 -0.7460227 55 40 48
-0.17177464 -0.34430429 -0.74404931 77 57 53
-0.17182347 -0.34465343 -0.74413162 75 56 54
-0.17135011 -0.34544513 -0.74356103 75 59 57
-0.17158484 -0.34551251 -0.74386901 72 57 56
-0.17163987 -0.3439799 -0.74381 78 57 55
-0.17301151 -0.3471193 -0.74606025 50 35 44
-0.17228441 -0.34855899 -0.74543977 48 34 41
-0.17303726 -0.34676972 -0.74599898 49 35 44
-0.17222522 -0.3478179 -0.74514991 46 33 41
-0.17128579 -0.34930092 -0.74424309 44 30 37
-0.17203256 -0.347633 -0.74482763 45 32 41
-0.17052393 -0.34864193 -0.74303174 45 32 39
-0.17116155 -0.34589931 -0.74336588 73 58 57
-0.17113456 -0.34803706 -0.74371475 46 33 40
-0.17069666 -0.34885883 -0.74329466 40 28 36
-0.17178194 -0.34637552 -0.74425566 61 47 50
-0.17116039 -0.34806508 -0.74375325 46 33 40
-0.17101113 -0.35282764 -0.7449801 34 22 28
-0.17064545 -0.35313064 -0.74441129 33 21 28
-0.1709294 -0.35303518 -0.7448824 33 21 28
-0.17139055 -0.35321385 -0.74571747 34 21 28
-0.17004846 -0.34982958 -0.74264902 37 25 33
-0.17165612 -0.35189578 -0.74569023 39 25 32
-0.17126496 -0.35011032 -0.74448407 43 29 36
-0.17258054 -0.3502728 -0.74639285 49 34 39
-0.1722188 -0.34972298 -0.7456823 49 34 39
-0.1713064 -0.35060614 -0.74472463 41 28 34
-0.17059931 -0.35015973 -0.74356669 39 26 34
-0.17087477 -0.34989259 -0.7438556 41 28 35
-0.16989949 -0.35314786 -0.74313152 31 20 28
-0.17094138 -0.35443464 -0.7448585 33 20 27
-0.17126442 -0.35543248 -0.74525905 34 20 28
-0.17168617 -0.35469058 -0.74610609 35 21 28
-0.17043802 -0.35396567 -0.74406224 32 20 28
-0.17087798 -0.35442048 -0.74475104 33 20 28
-0.17100644 -0.35718888 -0.74476546 34 19 27
-0.17047678 -0.35650754 -0.74398929 33 18 27
-0.17155921 -0.35704157 -0.74559993 35 19 27
-0.17030554 -0.35728216 -0.7437101 32 18 27
-0.17086951 -0.35648414 -0.74457985 33 19 27
-0.17170838 -0.35710377 -0.74582225 35 19 27
-0.16991279 -0.35451218 -0.74320257 31 19 27
-0.16955996 -0.35407987 -0.74273175 32 20 28
-0.1721106 -0.36065668 -0.74640858 36 20 29
-0.17185418 -0.3599087 -0.7460255 35 20 29
-0.17197827 -0.35874704 -0.74621499 36 20 28
-0.17206089 -0.35803056 -0.74634099 36 20 28
-0.17190899 -0.36082655 -0.74610531 35 20 29
-0.1720169 -0.36037448 -0.74626863 35 20 29
-0.17019457 -0.36055219 -0.74360883 32 19 27
-0.17002478 -0.35951456 -0.74333483 32 18 27
-0.17027833 -0.35913461 -0.74369264 32 18 27
-0.1707072 -0.3603045 -0.74434596 33 19 28
-0.1702297 -0.3601371 -0.74364871 32 18 27
-0.16975731 -0.35889754 -0.74302256 31 18 26
-0.16956848 -0.35999671 -0.7428835 32 18 27
-0.1694048 -0.35959092 -0.74270445 32 18 27
-0.17070436 -0.36214781 -0.74453205 32 19 27
-0.17076667 -0.36287931 -0.74476779 32 19 27
-0.17099348 -0.36278105 -0.74507731 33 19 27
-0.17153449 -0.36285999 -0.74587798 34 19 28
-0.17097731 -0.36362168 -0.74522096 32 19 27
-0.17173432 -0.36412233 -0.74641877 33 19 27
-0.17034455 -0.36363479 -0.74422657 32 19 26
-0.17020455 -0.36432475 -0.74410099 32 19 26
-0.17112927 -0.36410558 -0.74553686 32 19 26
-0.17042941 -0.36353001 -0.74434656 32 19 26
-0.16985919 -0.36215132 -0.74328345 32 19 26
-0.16947606 -0.36416942 -0.74316514 33 19 26
-0.16930617 -0.36234123 -0.74278086 32 19 26
-0.16924879 -0.36252546 -0.74274713 32 19 26
-0.17096129 -0.36734256 -0.74592632 41 22 24
-0.17119408 -0.36802527 -0.74645686 44 23 23
-0.17065707 -0.36743525 -0.74546576 42 22 23
-0.17124517 -0.36646605 -0.74616951 38 20 25
-0.17041753 -0.36864296 -0.74548161 44 23 22
-0.17006086 -0.36584225 -0.74415213 35 19 25
-0.1706135 -0.36830398 -0.7456454 44 23 22
-0.16823907 -0.36847684 -0.74297374 56 38 44
-0.16973051 -0.36613968 -0.74385023 37 21 27
-0.16897061 -0.36818731 -0.74366218 49 30 35
-0.16911039 -0.36866978 -0.74395603 49 30 32
-0.16948016 -0.36781871 -0.74409139 44 25 29
-0.16878997 -0.3661561 -0.74286693 41 25 31
-0.16897941 -0.36626965 -0.7430982 41 25 32
-0.17025797 -0.37032261 -0.74589473 46 24 23
-0.16994399 -0.37063897 -0.74559671 45 24 23
-0.16963242 -0.37187463 -0.74576145 48 28 29
-0.16959593 -0.37017703 -0.74503368 47 26 27
-0.16919346 -0.37166595 -0.74521124 51 32 34
-0.1692261 -0.37033638 -0.74470615 50 30 32
-0.16767029 -0.37186295 -0.74309021 54 35 37
-0.16888903 -0.37208655 -0.74489164 51 32 34
-0.16856954 -0.37212384 -0.74443775 51 32 34
-0.16785307 -0.37216699 -0.74341226 52 34 35
-0.16945213 -0.37261391 -0.74580526 49 29 30
-0.16867088 -0.37190849 -0.74454272 52 33 35
-0.16795486 -0.37260646 -0.74364334 51 32 33
-0.16990604 -0.37507379 -0.74618495 50 31 35
-0.16913588 -0.37536085 -0.74500996 53 34 40
-0.16914386 -0.37493339 -0.74509382 52 33 38
-0.16906565 -0.37371305 -0.74520785 50 30 33
-0.16916183 -0.37379038 -0.74533236 50 30 33
-0.1674615 -0.37314394 -0.74299806 50 32 32
-0.16843212 -0.37446004 -0.744156 53 34 38
-0.16734752 -0.37441158 -0.74259996 54 36 39
-0.16949515 -0.37345681 -0.74587476 48 28 30
-0.16993429 -0.39194977 -0.7459504 52 30 37
-0.16970941 -0.39161423 -0.74574333 52 31 38
-0.17041314 -0.39535239 -0.74647778 73 40 39
-0.17000762 -0.39468312 -0.74560148 67 37 38
-0.1702847 -0.39636835 -0.74602586 79 43 39
-0.16974567 -0.39471725 -0.74516326 67 37 38
-0.1698802 -0.39639989 -0.74501806 77 41 39
-0.16896699 -0.39504278 -0.74418986 66 37 39
-0.16818355 -0.39584276 -0.74312538 68 40 41
-0.16812634 -0.39457911 -0.74320495 66 40 43
-0.16971849 -0.39279845 -0.7454676 56 32 38
-0.16813894 -0.39503679 -0.74316657 67 40 42
-0.17036556 -0.39667016 -0.74634206 80 43 40
-0.16947056 -0.39916089 -0.74629545 78 44 43
-0.16863522 -0.39713877 -0.74397212 74 42 41
-0.16832595 -0.39780283 -0.74404669 73 43 43
-0.16881704 -0.39750171 -0.744425 75 43 42
-0.16920282 -0.39924473 -0.74602747 77 44 44
-0.16871762 -0.4027358 -0.74627978 70 42 49
-0.16805649 -0.40646675 -0.74604416 65 37 53
-0.16798806 -0.40606239 -0.74555635 67 40 54
-0.16820942 -0.40523934 -0.74559891 67 42 53
-0.16769621 -0.40695944 -0.74536449 67 40 54
-0.16806182 -0.40604201 -0.74575347 66 39 53
-0.16840723 -0.40548834 -0.74634653 65 37 51
-0.16746402 -0.40916649 -0.74565464 68 40 55
-0.16768947 -0.40922764 -0.746306 66 37 53
-0.18195467 -0.33340099 -0.75952107 51 16 12
-0.18193391 -0.33258644 -0.75898725 50 16 9
-0.18299617 -0.33333799 -0.76132047 51 17 18
-0.18238223 -0.3326467 -0.75981927 50 16 12
-0.18301122 -0.33299226 -0.76119572 50 17 18
-0.18319575 -0.33380193 -0.7619946 52 17 21
-0.18124275 -0.33322802 -0.75848693 51 18 10
-0.18179961 -0.33452687 -0.75988126 51 17 14
-0.1819853 -0.33403927 -0.75995904 52 17 15
-0.18226165 -0.33627862 -0.76158553 50 20 19
-0.18245469 -0.33459911 -0.761069 51 18 18
-0.18264896 -0.33589944 -0.7620728 51 20 21
-0.18183617 -0.33642113 -0.76069176 50 20 17
-0.18167387 -0.33638129 -0.75998574 52 21 16
-0.18167876 -0.3365376 -0.76004058 52 21 17
-0.18121295 -0.33557698 -0.75897139 53 21 17
-0.18140291 -0.33580387 -0.75933075 52 21 17
-0.1812059 -0.33747593 -0.75937063 53 25 20
-0.18044718 -0.33627853 -0.75820577 54 27 21
-0.18054517 -0.33551404 -0.75829494 53 25 19
-0.18195058 -0.33851397 -0.76146847 57 28 24
-0.18169592 -0.3390227 -0.76055336 63 33 25
-0.18088241 -0.33801293 -0.75897133 54 28 23
-0.18090206 -0.33857551 -0.7591846 56 29 23
-0.18201432 -0.34476411 -0.76195347 57 30 42
-0.18193868 -0.3446506 -0.76181108 58 30 41
-0.18033002 -0.34500998 -0.75959194 60 30 37
-0.18078467 -0.3454212 -0.76026946 57 27 39
-0.18078764 -0.34439263 -0.76017219 65 35 38
-0.18087594 -0.34541175 -0.76039636 57 27 39
-0.18028285 -0.34474874 -0.75950003 62 32 37
-0.18113951 -0.34504598 -0.76072961 60 30 40
-0.18050289 -0.34582749 -0.75995082 55 25 37
-0.1811897 -0.34678984 -0.76128721 57 28 39
-0.18009217 -0.34673095 -0.75972658 57 29 35
-0.18098229 -0.34637451 -0.76083511 56 27 38
-0.18083781 -0.34699973 -0.76087582 58 29 37
-0.18031253 -0.3464883 -0.75994098 57 28 36
-0.17984414 -0.3471252 -0.75948083 58 29 34
-0.18054979 -0.34861964 -0.76109219 62 34 34
-0.18040134 -0.34903961 -0.76079005 60 33 34
-0.17932729 -0.3466225 -0.75833035 54 26 33
-0.17993259 -0.34925893 -0.75978047 57 30 33
-0.17961292 -0.34722689 -0.75898254 56 28 34
-0.17987454 -0.35213596 -0.76075071 54 32 34
-0.17959219 -0.35237485 -0.76017344 53 32 33
-0.17936851 -0.35299122 -0.75996768 51 30 33
-0.17942515 -0.35251051 -0.75982857 53 31 33
-0.18049361 -0.35089964 -0.76159674 59 35 34
-0.18018471 -0.3528502 -0.76196021 50 30 34
-0.17941284 -0.35095176 -0.75915056 54 30 33
-0.17924657 -0.35055247 -0.75864464 52 28 33
-0.1792873 -0.35187817 -0.75921124 54 31 33
-0.17893299 -0.35165134 -0.75835806 51 28 33
-0.18006559 -0.35099965 -0.760589 59 34 34
-0.17947863 -0.35171878 -0.7595703 55 32 33
-0.17962964 -0.35588229 -0.76169831 44 25 29
-0.17936021 -0.35594183 -0.76068479 44 25 28
-0.17933652 -0.35635099 -0.76083058 43 24 27
-0.17898108 -0.3571772 -0.75992835 42 23 25
-0.17959036 -0.35607773 -0.76165915 44 25 29
-0.17924739 -0.35570127 -0.76010591 44 26 28
-0.17874327 -0.35618308 -0.75877714 44 25 27
-0.17861758 -0.35372061 -0.75837421 49 29 32
-0.17869651 -0.35642472 -0.75866646 43 25 26
-0.17879398 -0.35485584 -0.75886124 46 27 30
-0.17898408 -0.35519072 -0.7593559 45 27 29
-0.17884934 -0.3597019 -0.75990045 44 23 25
-0.17881154 -0.36120957 -0.76046681 45 23 26
-0.17851476 -0.36101013 -0.7597661 44 23 27
-0.17887178 -0.36010221 -0.76011819 44 23 25
-0.17841463 -0.36024061 -0.75922936 44 23 26
-0.1789791 -0.35818022 -0.76000714 43 23 24
-0.17940158 -0.35892048 -0.76159614 44 23 25
-0.1788803 -0.35793653 -0.75964075 42 23 24
-0.17910181 -0.35874534 -0.76044285 43 23 25
-0.17909297 -0.35940152 -0.76036018 44 23 24
-0.17875367 -0.36351657 -0.75982988 44 25 28
-0.17824683 -0.36434191 -0.75856513 44 26 30
-0.17897314 -0.36293191 -0.76043659 45 25 27
-0.17928703 -0.36166829 -0.76141554 45 24 25
-0.17834002 -0.36304736 -0.75909472 44 24 29
-0.17913286 -0.36137703 -0.76117182 45 23 26
-0.17914805 -0.36280444 -0.76093751 45 24 27
-0.17934488 -0.36380213 -0.76169074 43 23 27
-0.17903517 -0.36500731 -0.76086766 42 24 28
-0.17944351 -0.36445758 -0.76208842 42 23 27
-0.17847075 -0.36477545 -0.75905079 44 26 29
-0.17881866 -0.36481035 -0.76015663 43 25 29
-0.17873912 -0.36840069 -0.75957912 50 33 37
-0.17898384 -0.36905906 -0.76125664 44 27 36
-0.17883584 -0.36866611 -0.76024431 48 30 37
-0.17876606 -0.36903998 -0.76000488 49 31 38
-0.17904347 -0.36772761 -0.76103085 45 27 34
-0.17852254 -0.3671906 -0.7588641 49 31 35
-0.17855604 -0.36556494 -0.7593112 44 26 30
-0.17874575 -0.36720845 -0.75956678 48 31 35
-0.17862438 -0.36757407 -0.75910592 50 32 36
-0.178498 -0.36618724 -0.7589969 46 28 32
-0.17808083 -0.37218496 -0.75989717 52 37 41
-0.17816447 -0.37304318 -0.76073772 49 34 39
-0.17838341 -0.37069759 -0.75934291 53 36 40
-0.17827722 -0.3718631 -0.76006824 52 36 40
-0.17854941 -0.37191078 -0.76067334 50 32 36
-0.17858607 -0.36973381 -0.75930691 52 34 39
-0.17893966 -0.36963475 -0.76127821 45 28 36
-0.1788018 -0.37215441 -0.76171017 47 28 34
-0.17876489 -0.37110174 -0.76099008 48 30 35
-0.17885084 -0.37211815 -0.76197278 47 27 33
-0.17664981 -0.37254205 -0.75825375 53 40 41
-0.17741615 -0.37277102 -0.75925404 52 39 43
-0.17789435 -0.37319443 -0.76027316 50 37 41
-0.17786975 -0.37526169 -0.76187032 52 37 37
-0.17803004 -0.3747426 -0.76180321 51 35 36
-0.17761017 -0.37414822 -0.76055956 51 39 41
-0.17716889 -0.3737475 -0.75976574 52 39 41
-0.1768357 -0.37427357 -0.75983208 52 40 39
-0.17743565 -0.37320587 -0.75961536 51 39 42
-0.1762912 -0.37626517 -0.76028824 52 39 35
-0.17618959 -0.37603971 -0.75993103 51 38 36
-0.17599833 -0.37589085 -0.75942814 51 38 35
-0.17635149 -0.37669122 -0.76068002 52 39 35
-0.17636533 -0.37646481 -0.76057047 52 39 35
-0.17553526 -0.37635592 -0.75871813 49 36 35
-0.17626566 -0.38075712 -0.76207566 58 42 46
-0.17587948 -0.38011587 -0.76043868 64 46 50
-0.17663521 -0.37792039 -0.7616601 56 42 40
-0.17633994 -0.37857181 -0.76106435 59 44 44
-0.17575186 -0.37948909 -0.75965935 66 49 51
-0.17602631 -0.38047665 -0.76112825 61 44 49
-0.17557509 -0.37701574 -0.75917304 49 36 34
-0.17558424 -0.3781493 -0.75922769 57 42 42
-0.17589459 -0.3785269 -0.75990683 61 45 45
-0.17615218 -0.37754467 -0.76043057 55 41 39
-0.17532228 -0.37781626 -0.75865394 54 39 40
-0.1754965 -0.37900525 -0.75906533 62 46 48
-0.1759707 -0.38442576 -0.76031971 63 47 51
-0.17536664 -0.38463071 -0.75893116 61 45 53
-0.17631875 -0.38133523 -0.76208693 59 42 47
-0.17607145 -0.38391608 -0.76070601 62 46 50
-0.17648228 -0.38278174 -0.7619741 62 45 48
-0.17617024 -0.38174969 -0.76162714 59 43 48
-0.1758423 -0.38178816 -0.76075512 60 44 50
-0.1751184 -0.38416037 -0.75840694 61 45 55
-0.1751755 -0.38141683 -0.75855994 70 51 58
-0.17512819 -0.38129577 -0.758403 71 52 59
-0.17510259 -0.3827607 -0.75833732 66 49 57
-0.17581116 -0.38089064 -0.76064146 63 46 52
-0.17562737 -0.38844609 -0.75882882 61 36 35
-0.17632003 -0.38851848 -0.75992078 60 35 35
-0.17585887 -0.3881937 -0.75929338 62 37 36
-0.17647852 -0.38669452 -0.76083308 64 42 42
-0.17694618 -0.38628432 -0.7617355 64 43 43
-0.17603496 -0.38819006 -0.75957888 61 37 36
-0.17527394 -0.38703269 -0.75838464 61 40 43
-0.17633575 -0.3858102 -0.76086974 65 46 45
-0.17554748 -0.38797331 -0.75885886 62 38 37
-0.17552941 -0.38539344 -0.7591604 62 44 50
-0.17583776 -0.38649446 -0.75968951 63 42 43
-0.1755417 -0.39213854 -0.7613616 59 36 43
-0.17522395 -0.39135167 -0.76014614 58 35 41
-0.17499204 -0.39072654 -0.75921977 58 35 39
-0.17502439 -0.39006907 -0.75877386 58 35 38
-0.1750849 -0.3892388 -0.75824845 60 35 36
-0.17439374 -0.39173064 -0.75885081 53 34 41
-0.17620578 -0.38987136 -0.76065004 60 35 38
-0.17555751 -0.38896388 -0.7588706 61 35 35
-0.17617717 -0.39112854 -0.76161951 59 36 41
-0.17643604 -0.38912967 -0.76042247 59 35 36
-0.17647518 -0.38904715 -0.76041901 59 35 36
-0.17703584 -0.3889932 -0.76128036 59 34 36
-0.17586395 -0.388926 -0.75933462 60 35 35
-0.17497641 -0.39430627 -0.7596851 54 35 40
-0.17487961 -0.39426795 -0.75952238 54 35 39
-0.17517413 -0.39370555 -0.76038927 56 35 41
-0.17550191 -0.3928656 -0.76147127 58 36 43
-0.17424369 -0.39415222 -0.75837934 50 33 39
-0.17536595 -0.39534128 -0.76047796 59 38 43
-0.17515951 -0.39510879 -0.75961077 54 35 38
-0.1754145 -0.39488754 -0.76068139 59 37 43
-0.17455713 -0.39775121 -0.75852585 62 39 39
-0.17498188 -0.39711583 -0.75901282 57 37 36
-0.17272601 -0.4038302 -0.75837219 79 54 64
-0.17309918 -0.40579784 -0.75867003 76 49 61
-0.18583266 -0.33776021 -0.77384573 49 15 12
-0.18574196 -0.34085271 -0.77635938 82 54 44
-0.18587711 -0.33967683 -0.77557045 68 38 31
-0.1863396 -0.33863553 -0.77547508 56 25 20
-0.18588108 -0.33794618 -0.77402771 50 15 12
-0.18622419 -0.33965063 -0.77617663 67 38 30
-0.18637919 -0.34030107 -0.77704024 73 47 37
-0.18627992 -0.34058505 -0.77711535 76 50 40
-0.18629611 -0.34105647 -0.77756739 81 56 46
-0.18551669 -0.34089082 -0.77598286 84 56 46
-0.18335329 -0.34179556 -0.77417809 78 56 54
-0.18468466 -0.34108719 -0.77515399 80 54 47
-0.18349722 -0.34160715 -0.77418411 77 54 52
-0.18427886 -0.34165037 -0.77516526 83 59 53
-0.18529578 -0.3405911 -0.77544993 79 50 42
-0.18630639 -0.34366459 -0.77746981 65 47 47
-0.18636851 -0.34391844 -0.77747864 62 45 46
-0.1866876 -0.3452585 -0.7774694 42 29 39
-0.18606576 -0.34448147 -0.77639961 45 32 34
-0.1863275 -0.34444639 -0.77708423 52 37 41
-0.18569677 -0.34338692 -0.77617478 61 44 40
-0.18624054 -0.34405485 -0.77711767 58 42 44
-0.1852086 -0.34549049 -0.77408725 10 8 9
-0.18494464 -0.3426899 -0.77553946 70 51 44
-0.18472704 -0.34487796 -0.77390689 21 15 17
-0.18552583 -0.34193709 -0.77671176 90 66 55
-0.18523334 -0.34231067 -0.77612507 80 59 50
-0.18478227 -0.34277412 -0.77529091 67 49 43
-0.17926769 -0.34503525 -0.77736694 37 26 35
-0.17828067 -0.34523743 -0.7764591 44 32 42
-0.17822437 -0.34529787 -0.77637023 45 33 43
-0.18662152 -0.34630406 -0.77723134 33 23 34
-0.18605857 -0.34635311 -0.77582526 20 14 21
-0.18606746 -0.34571615 -0.77561808 17 12 19
-0.1858387 -0.34616005 -0.77519959 14 10 15
-0.1858848 -0.34643719 -0.77541614 17 11 17
-0.18608737 -0.34845379 -0.7766574 32 21 31
-0.18587931 -0.348005 -0.77597761 31 20 29
-0.18591008 -0.34868109 -0.77630705 40 26 36
-0.18521875 -0.34744313 -0.77423245 35 23 26
-0.18507047 -0.34869343 -0.77437752 56 36 40
-0.18493244 -0.34794068 -0.77391797 44 29 31
-0.18572646 -0.35025075 -0.77716672 53 34 47
-0.18309815 -0.3596355 -0.77735257 44 28 36
-0.18320578 -0.35926017 -0.77752203 45 28 37
-0.18296766 -0.36011434 -0.77707046 43 27 34
-0.18306915 -0.36010751 -0.77611369 48 31 34
-0.18337329 -0.35903925 -0.77661735 52 33 38
-0.18292199 -0.36021715 -0.77718008 41 26 34
-0.18320997 -0.35997263 -0.77513301 54 35 35
-0.18365213 -0.35795444 -0.77541143 54 35 37
-0.18373138 -0.35758975 -0.77540904 53 35 37
-0.18366872 -0.35796899 -0.77698517 54 35 41
-0.18339019 -0.35912824 -0.77486813 54 35 35
-0.18223968 -0.3617335 -0.77717173 33 21 30
-0.18184988 -0.36236784 -0.77628213 36 23 30
-0.18235828 -0.3617579 -0.77676642 36 23 30
