ply
format ascii 1.0
comment PCL generated
element vertex 997
property float x
property float y
property float z
property uchar red
property uchar green
property uchar blue
element camera 0
property float view_px
property float view_py
property float view_pz
property float x_axisx
property float x_axisy
property float x_axisz
property float y_axisx
property float y_axisy
property float y_axisz
property float z_axisx
property float z_axisy
property float z_axisz
property float focal
property float scalex
property float scaley
property float centerx
property float centery
property int viewportx
property int viewporty
property float k1
property float k2
end_header
-0.067623273 -0.60493672 -0.75542593 120 91 95
-0.066928647 -0.60689342 -0.75772309 113 84 90
-0.067908406 -0.60539484 -0.75585288 120 90 95
-0.06785924 -0.6060704 -0.75659877 118 88 93
-0.066071339 -0.60640568 -0.75740558 113 83 90
-0.06581708 -0.60547841 -0.75641519 115 85 92
-0.066124305 -0.60386431 -0.75439966 119 90 96
-0.065793462 -0.60418731 -0.75484484 117 89 95
-0.066300869 -0.60460246 -0.75527215 118 89 95
-0.065405101 -0.60520566 -0.75614673 114 85 92
-0.064603686 -0.60452175 -0.75543755 113 85 93
-0.064509295 -0.60429907 -0.75518078 113 86 93
-0.061547656 -0.6036548 -0.75507504 110 82 87
-0.061336972 -0.60367107 -0.7551437 110 82 86
-0.062765807 -0.60435736 -0.75567394 110 82 88
-0.062546775 -0.60430402 -0.75565743 110 82 87
-0.061185911 -0.60358196 -0.75506699 110 82 86
-0.063633218 -0.60404301 -0.75508064 112 85 91
-0.062414128 -0.60492766 -0.75646299 108 80 84
-0.062266804 -0.60623616 -0.75809485 105 76 81
-0.063988805 -0.6043576 -0.75537634 112 84 91
-0.064005658 -0.60580975 -0.75714242 109 80 88
-0.06351237 -0.60652149 -0.75813282 107 77 85
-0.062787719 -0.60611349 -0.75781566 107 77 83
-0.063509487 -0.60564184 -0.75706118 109 80 87
-0.059134066 -0.60431039 -0.75640368 106 77 81
-0.05990902 -0.60445923 -0.75643617 106 77 81
-0.058242764 -0.60467589 -0.75703704 105 75 80
-0.057640605 -0.60488582 -0.75741869 104 74 79
-0.059239168 -0.60532027 -0.75764501 103 74 77
-0.059592322 -0.60580593 -0.75818199 102 73 76
-0.057932988 -0.60371447 -0.75621748 106 77 80
-0.059222315 -0.60406864 -0.75610614 107 78 82
-0.057304583 -0.60442585 -0.75710195 104 75 79
-0.056626461 -0.6052525 -0.75810641 102 72 77
-0.053860806 -0.60526246 -0.75805533 100 73 76
-0.053922489 -0.60537302 -0.75816053 100 72 76
-0.055496823 -0.60515696 -0.75799203 101 72 76
-0.054849584 -0.60433525 -0.75722855 103 75 77
-0.053110864 -0.60498953 -0.75787485 100 73 76
-0.053711407 -0.60363168 -0.75697488 103 76 79
-0.052730922 -0.60511827 -0.75800616 100 73 76
-0.049286082 -0.60702884 -0.75812447 96 69 75
-0.051990561 -0.60555154 -0.75804514 99 72 76
-0.051168583 -0.60426497 -0.75710845 99 72 77
-0.049205117 -0.60504025 -0.75710058 96 68 74
-0.04912008 -0.6035555 -0.75633794 95 67 73
-0.05096712 -0.60436738 -0.75711918 99 72 77
-0.050237335 -0.60592741 -0.75775474 98 71 76
-0.052013531 -0.60415822 -0.75722575 101 74 79
-0.04847097 -0.60688031 -0.75772429 94 66 72
-0.048489612 -0.60479856 -0.7566902 94 66 72
-0.047459114 -0.60607582 -0.75668281 91 62 69
-0.047929928 -0.60551625 -0.75669825 92 64 71
-0.047762986 -0.60504109 -0.75635433 92 63 70
-0.046684273 -0.60502225 -0.75580329 90 60 68
-0.046148695 -0.6048165 -0.75552279 90 60 68
-0.046772774 -0.60356534 -0.75542283 92 63 71
-0.0475327 -0.60438824 -0.75597274 92 63 70
-0.096775286 -0.61107653 -0.75446755 136 113 130
-0.092864923 -0.6098156 -0.75458813 138 115 124
-0.093386732 -0.61094481 -0.75537443 138 116 126
-0.092693008 -0.61125052 -0.75580174 138 116 125
-0.09438777 -0.61071795 -0.75493258 138 116 129
-0.095470071 -0.61113667 -0.75499278 138 116 132
-0.095265649 -0.61052436 -0.75452042 138 116 131
-0.089049675 -0.60985965 -0.75529283 131 103 111
-0.089684524 -0.61088115 -0.75595677 132 106 113
-0.089835532 -0.61050892 -0.75568312 133 106 114
-0.089818537 -0.61056364 -0.75572294 133 106 114
-0.088385619 -0.60895461 -0.75471312 130 100 108
-0.090615466 -0.60943741 -0.75475597 135 110 117
-0.090558372 -0.6100769 -0.75528699 135 110 117
-0.08888492 -0.60868013 -0.75443459 131 102 110
-0.090428837 -0.6091072 -0.75451881 134 109 116
-0.085232154 -0.61100471 -0.75697351 125 94 98
-0.084509797 -0.61038828 -0.75657541 125 93 96
-0.085729577 -0.61032665 -0.7561031 126 94 99
-0.085903056 -0.61008632 -0.75579548 126 95 100
-0.084945172 -0.61060023 -0.75664973 125 94 97
-0.086881474 -0.61103588 -0.75645369 127 96 103
-0.087408036 -0.60841852 -0.75440228 128 97 105
-0.085152805 -0.60856062 -0.75461489 125 93 98
-0.087138407 -0.6086328 -0.75456607 127 96 104
-0.086546972 -0.60925508 -0.75503218 126 95 102
-0.087830342 -0.60982454 -0.7553674 128 97 106
-0.083207756 -0.61025047 -0.75681835 127 96 99
-0.081117027 -0.61036325 -0.75750083 135 107 111
-0.083590962 -0.60909003 -0.75551003 125 94 97
-0.082914591 -0.60932148 -0.75593323 128 97 101
-0.083482638 -0.61064416 -0.75715274 126 95 97
-0.083019204 -0.60976005 -0.75636023 128 97 100
-0.080308661 -0.60898477 -0.75603116 133 104 108
-0.081947125 -0.60778791 -0.75433838 127 95 98
-0.082483321 -0.60817683 -0.75471854 127 95 99
-0.082831971 -0.60851616 -0.7550692 127 96 100
-0.082349166 -0.60850018 -0.75512683 128 97 101
-0.082280844 -0.60821831 -0.75480038 127 96 99
-0.080856055 -0.60806334 -0.75484145 130 98 102
-0.077155113 -0.60743111 -0.75501454 138 108 115
-0.076364227 -0.60853428 -0.75667167 136 106 113
-0.077614173 -0.60834312 -0.75606728 133 102 108
-0.076559953 -0.60803521 -0.75596821 137 108 114
-0.078014605 -0.60961795 -0.75751901 134 104 109
-0.079296723 -0.60851586 -0.75576931 132 101 105
-0.077633813 -0.61000001 -0.75810426 135 105 110
-0.079128295 -0.61007279 -0.75768906 136 108 112
-0.07770177 -0.60897511 -0.75685495 132 100 106
-0.077062376 -0.60941583 -0.75759721 132 101 107
-0.076994881 -0.60974956 -0.75801921 133 102 109
-0.074079424 -0.60897434 -0.75801718 128 96 102
-0.074021056 -0.6082164 -0.75705367 131 100 106
-0.075854301 -0.60857993 -0.75689501 135 105 112
-0.075605825 -0.60770589 -0.75584608 138 109 115
-0.074472412 -0.60910761 -0.75805503 129 97 103
-0.072673626 -0.60794252 -0.75718623 127 96 99
-0.073860638 -0.60801536 -0.75685334 131 100 106
-0.072802775 -0.6076321 -0.75675064 128 97 100
-0.072220065 -0.6081599 -0.75761896 125 93 96
-0.072176188 -0.6084649 -0.7580151 124 92 96
-0.070669912 -0.60761857 -0.75742215 121 92 94
-0.10615879 -0.61508048 -0.75451225 139 118 134
-0.10490884 -0.61477757 -0.754677 139 118 134
-0.10574821 -0.61480325 -0.75442076 139 118 134
-0.099805877 -0.61474401 -0.75669062 135 113 127
-0.10073385 -0.61520028 -0.75669682 137 115 129
-0.10149847 -0.61386222 -0.75515473 135 114 129
-0.10119082 -0.61439133 -0.75576681 136 114 129
-0.1000341 -0.6140182 -0.75593567 134 112 127
-0.10060612 -0.6129548 -0.75472564 133 111 126
-0.10050456 -0.61479926 -0.75643504 136 114 128
-0.10323235 -0.61473161 -0.75520384 139 118 133
-0.10068417 -0.61281687 -0.75457299 133 111 126
-0.098410182 -0.61178762 -0.7545082 133 110 126
-0.09838485 -0.61174518 -0.75447834 133 110 126
-0.099538602 -0.61267364 -0.75493127 132 109 125
-0.098568216 -0.61391288 -0.75639331 136 114 129
-0.097629361 -0.61289883 -0.75581264 136 114 130
-0.097505406 -0.61219543 -0.75520992 136 113 129
-0.09882658 -0.61414248 -0.7565074 136 113 128
-0.096406512 -0.61308336 -0.75631046 139 117 131
-0.096013352 -0.61475569 -0.75773668 141 119 131
-0.095756136 -0.61145049 -0.75517595 139 117 132
-0.096724696 -0.61522216 -0.75792956 140 118 130
-0.096242189 -0.61503071 -0.75789797 141 119 131
-0.098473452 -0.61475104 -0.75711894 137 115 129
-0.098237962 -0.61504215 -0.75740886 137 115 129
-0.093653731 -0.61334795 -0.7572397 139 117 127
-0.092678182 -0.6125297 -0.75685698 138 116 124
-0.091938205 -0.61327344 -0.75779486 137 113 121
-0.092200682 -0.6131013 -0.7575447 137 114 122
-0.091801628 -0.61228889 -0.75695825 137 114 122
-0.09375219 -0.61186725 -0.7560212 138 116 127
-0.094682105 -0.61293238 -0.75662833 139 117 129
-0.095011458 -0.61435175 -0.75767094 141 119 130
-0.095143303 -0.61213607 -0.75587744 139 117 131
-0.095651194 -0.61323869 -0.75662267 140 118 132
-0.095260426 -0.61472827 -0.75790602 141 119 130
-0.093201533 -0.61268324 -0.75681067 139 117 126
-0.091377765 -0.61336488 -0.75794554 136 110 119
-0.091210328 -0.61282092 -0.7574628 135 111 119
-0.088964462 -0.61305833 -0.75776863 129 101 109
-0.091511004 -0.61337274 -0.75794721 136 111 120
-0.089018948 -0.61283022 -0.75756389 130 102 110
-0.089646243 -0.61174494 -0.75661713 132 105 113
-0.0896281 -0.61155558 -0.75646251 132 105 113
-0.089076996 -0.61171454 -0.7566393 130 103 110
-0.086477652 -0.61174428 -0.75730109 126 96 102
-0.087347664 -0.61193478 -0.75712639 127 97 104
-0.087726027 -0.61213481 -0.75714701 127 97 105
-0.087798551 -0.61209601 -0.75708735 127 97 105
-0.084952943 -0.61143005 -0.75753868 125 94 98
-0.083440281 -0.61153752 -0.75817388 126 96 99
-0.11531322 -0.61900455 -0.75473011 136 118 132
-0.11152336 -0.61886787 -0.75585151 129 105 124
-0.11325008 -0.61813563 -0.75466239 131 110 127
-0.11339113 -0.61828059 -0.75474066 131 110 128
-0.11159162 -0.61903739 -0.75597447 130 105 124
-0.11323705 -0.61797768 -0.75453073 130 109 127
-0.11287302 -0.61759531 -0.75431997 129 107 126
-0.10878706 -0.61873502 -0.7568168 136 114 128
-0.11083136 -0.6186716 -0.75592983 131 106 125
-0.10818089 -0.61669189 -0.75523126 137 115 130
-0.10753737 -0.61792457 -0.75659764 140 118 130
-0.10829081 -0.61652994 -0.75504142 137 115 130
-0.10871971 -0.61867601 -0.75679123 137 114 128
-0.10829215 -0.61690193 -0.75537443 137 115 130
-0.10979138 -0.61727726 -0.75511628 132 109 127
-0.1111035 -0.61717534 -0.75454754 126 102 123
-0.10904887 -0.61605817 -0.75434446 133 111 128
-0.11094439 -0.61683524 -0.75431466 126 102 123
-0.10714188 -0.61604643 -0.75505447 139 118 133
-0.10707787 -0.61703074 -0.75597405 139 118 132
-0.10575515 -0.61831558 -0.75763381 139 118 130
-0.10637529 -0.61838859 -0.75749677 139 118 130
-0.10647361 -0.61797601 -0.75708103 139 118 131
-0.10478073 -0.61539423 -0.75524205 139 119 133
-0.10605897 -0.61543745 -0.75485992 139 118 133
-0.10568387 -0.61633539 -0.75581795 139 118 132
-0.10521995 -0.61569142 -0.755373 139 119 133
-0.10414904 -0.61725205 -0.75733376 139 118 132
-0.10408837 -0.61677653 -0.75685835 139 118 132
-0.10393644 -0.61722744 -0.75741792 139 118 132
-0.10544614 -0.6184873 -0.75797713 139 118 130
-0.10177609 -0.61693543 -0.75810313 137 116 130
-0.10179177 -0.61631674 -0.75743657 137 116 131
-0.10335069 -0.61587811 -0.75627166 139 119 133
-0.1027549 -0.61708575 -0.75782567 138 117 131
-0.10230883 -0.61552382 -0.75635993 138 118 132
-0.10083272 -0.61561447 -0.75710666 137 115 130
-0.099961527 -0.61555588 -0.75742233 136 114 128
-0.098656461 -0.61542958 -0.75767374 137 115 129
-0.096804358 -0.61532933 -0.75802422 140 118 130
-0.12365777 -0.62294388 -0.75495249 86 64 86
-0.12090028 -0.62299466 -0.75581175 102 81 101
-0.12126663 -0.62284738 -0.75558805 99 79 100
-0.11936947 -0.62103826 -0.75484896 110 94 115
-0.11981864 -0.622145 -0.75552452 107 89 109
-0.12040436 -0.62179673 -0.75508362 104 86 107
-0.12098272 -0.62108856 -0.75434613 101 83 104
-0.12207326 -0.62204462 -0.75472081 95 75 96
-0.11867213 -0.62202317 -0.7558018 115 96 115
-0.11838607 -0.62149662 -0.75550747 117 99 117
-0.11854415 -0.62103462 -0.7551145 115 99 118
-0.11673353 -0.62009287 -0.75504422 127 110 126
-0.1165015 -0.61916375 -0.75441974 129 114 130
-0.11641698 -0.62068069 -0.75563586 128 109 125
-0.11568379 -0.62075227 -0.75601715 131 112 127
-0.11706638 -0.62225628 -0.75665784 121 102 119
-0.11549386 -0.62133646 -0.75658506 130 111 126
-0.11635248 -0.62291366 -0.75751644 123 103 119
-0.115996 -0.62100095 -0.75608629 129 110 125
-0.11697346 -0.62302434 -0.75733566 120 100 117
-0.1173095 -0.62245047 -0.75671214 120 100 118
-0.11489453 -0.62289804 -0.75814247 127 107 123
-0.11405467 -0.62222677 -0.75789303 128 107 123
-0.11173138 -0.62091571 -0.75776356 133 108 124
-0.11252853 -0.62112457 -0.75755996 131 107 124
-0.11222731 -0.6213032 -0.75790191 132 108 124
-0.1149898 -0.62016344 -0.75580555 133 114 129
-0.11354212 -0.61981934 -0.75599122 132 110 127
-0.11237242 -0.61943173 -0.75605035 131 107 125
-0.11468348 -0.62047571 -0.75616425 132 112 128
-0.11494339 -0.62093258 -0.75645864 131 112 127
-0.11487213 -0.62031442 -0.75596911 133 114 129
-0.11453469 -0.620314 -0.7560786 132 112 128
-0.11104693 -0.61975372 -0.75689799 132 107 124
-0.10877781 -0.62003714 -0.75814617 138 115 128
-0.10877954 -0.61961055 -0.75770646 137 114 128
-0.10818656 -0.61970788 -0.75805664 139 116 128
-0.11030281 -0.61918491 -0.75661719 132 108 125
-0.124241 -0.62470335 -0.75662667 87 66 87
-0.12506637 -0.62624013 -0.7580837 87 68 87
-0.12333679 -0.6233713 -0.75543797 89 67 88
-0.12381238 -0.62489265 -0.75701469 91 71 92
-0.12120229 -0.62455368 -0.75752395 105 85 105
-0.12288852 -0.62534034 -0.75788635 99 82 102
-0.12247106 -0.62459594 -0.75715947 98 80 100
-0.12266452 -0.62400192 -0.75640774 95 75 96
-0.12287762 -0.62402904 -0.75636971 94 74 95
-0.12099069 -0.6237365 -0.75664222 103 82 102
-0.11965989 -0.62377417 -0.75710517 110 90 110
-0.12154793 -0.62313354 -0.75574994 98 77 98
-0.11804218 -0.62310702 -0.75696158 116 96 114
-0.11857117 -0.62324619 -0.75689262 114 94 113
-0.11786415 -0.62394744 -0.75804037 119 98 117
-0.076596312 -0.65202951 -0.75750977 110 84 90
-0.077070095 -0.65295279 -0.75722206 80 61 67
-0.077016503 -0.65292686 -0.75655204 99 75 83
-0.077704333 -0.6540398 -0.75817031 11 8 9
-0.077235892 -0.65328276 -0.75706017 71 54 60
-0.070541508 -0.61912304 -0.77021152 112 81 86
-0.065022543 -0.6190896 -0.77000999 110 78 84
-0.067934625 -0.61913407 -0.77046609 110 78 84
-0.084094897 -0.62286687 -0.77006507 134 106 109
-0.081568301 -0.62280595 -0.77094173 130 104 106
-0.080695488 -0.62173432 -0.77023244 131 105 106
-0.082098387 -0.62237912 -0.7703352 132 105 107
-0.082567915 -0.62270093 -0.77047169 132 105 107
-0.083072081 -0.62239939 -0.76999032 133 106 108
-0.077673011 -0.62279749 -0.77216941 123 93 96
-0.076704606 -0.62198573 -0.7714929 122 90 94
-0.07776206 -0.62271464 -0.7720421 123 94 96
-0.07683102 -0.62300485 -0.77267992 121 89 93
-0.077617355 -0.62228143 -0.77156568 123 94 96
-0.079024635 -0.62101048 -0.76992768 128 101 102
-0.079835564 -0.62150764 -0.77028 129 104 104
-0.078627951 -0.62147987 -0.77044129 127 99 100
-0.07726644 -0.62098801 -0.77017993 124 94 97
-0.073399127 -0.62010372 -0.77064419 116 84 88
-0.074344583 -0.62013966 -0.77026093 118 87 90
-0.074325599 -0.62098563 -0.7712875 117 85 89
-0.075879999 -0.62105459 -0.77066934 121 89 92
-0.074857026 -0.62121868 -0.77132815 118 86 90
-0.074590847 -0.62231493 -0.7725116 117 85 88
-0.073981449 -0.62193513 -0.77226019 116 84 88
-0.072981931 -0.62173623 -0.77223116 114 83 86
-0.072473019 -0.62004578 -0.77077973 114 83 87
-0.073093303 -0.62040496 -0.77101088 115 84 88
-0.073517732 -0.62051678 -0.77104789 116 84 88
-0.073844455 -0.62103981 -0.7714715 116 84 88
-0.069917351 -0.62300497 -0.773799 108 77 82
-0.068662345 -0.6228283 -0.77380103 106 75 81
-0.068727553 -0.62189513 -0.7729553 107 76 82
-0.068730496 -0.62114149 -0.77227885 108 77 82
-0.06884253 -0.62095267 -0.77209479 108 77 82
-0.071961887 -0.62299222 -0.77351475 111 80 83
-0.070250757 -0.62139744 -0.77230877 110 79 83
-0.070955999 -0.6227017 -0.77338624 110 79 83
-0.072003946 -0.62233436 -0.77291602 112 81 84
-0.070516378 -0.61928403 -0.77036417 112 81 86
-0.070110209 -0.61999279 -0.771061 111 80 84
-0.072141737 -0.61966389 -0.77048284 114 83 87
-0.071783215 -0.61953175 -0.77041298 114 83 87
-0.071512766 -0.62183475 -0.77253222 111 80 84
-0.071473651 -0.62129968 -0.7720539 112 81 84
-0.067477524 -0.62193877 -0.77294046 107 76 81
-0.067952514 -0.62081182 -0.7719847 108 77 82
-0.068303823 -0.62166309 -0.77278918 107 76 81
-0.066134788 -0.6217134 -0.77255404 107 76 81
-0.066182032 -0.62201607 -0.77283615 107 76 80
-0.067133076 -0.62077242 -0.77184129 108 77 82
-0.066460334 -0.62255174 -0.77336329 106 75 81
-0.065505594 -0.62138325 -0.77216494 108 76 81
-0.066156439 -0.6206792 -0.77161795 108 77 82
-0.064758286 -0.62090099 -0.77162194 108 76 81
-0.064458825 -0.62096113 -0.77163428 108 76 81
-0.064989492 -0.62096828 -0.77171564 108 76 81
-0.064885445 -0.6194784 -0.77034914 108 77 83
-0.067035131 -0.62028915 -0.77138799 109 77 82
-0.061897103 -0.6206851 -0.77011448 103 71 75
-0.061129697 -0.62156034 -0.77037477 101 69 72
-0.060880933 -0.62260711 -0.77086812 99 67 69
-0.062782213 -0.62094057 -0.77053988 104 72 76
-0.063338459 -0.62287819 -0.77265584 104 72 76
-0.062014263 -0.62216216 -0.77115417 101 70 73
-0.064365998 -0.62053818 -0.77119368 108 76 81
-0.063774027 -0.62082011 -0.77106869 106 75 79
-0.061513323 -0.62208825 -0.77076483 100 68 71
-0.063992172 -0.62192261 -0.77220941 106 74 79
-0.06127689 -0.62294054 -0.77138603 99 67 70
-0.058799215 -0.62283474 -0.77028871 91 57 62
-0.059255853 -0.62228686 -0.77015465 94 60 65
-0.058072627 -0.6227324 -0.76998007 88 53 60
-0.096980676 -0.62675232 -0.77066219 141 114 122
-0.09814515 -0.62663233 -0.7700665 137 112 121
-0.096090183 -0.62578326 -0.76994705 139 112 120
-0.092289709 -0.62574852 -0.77112043 140 112 119
-0.09281303 -0.62644631 -0.77190137 141 113 120
-0.093321726 -0.62661165 -0.77192134 142 113 121
-0.093814343 -0.62657279 -0.77165407 142 114 121
-0.092055932 -0.6268419 -0.77279592 141 113 120
-0.094259799 -0.62566286 -0.77031517 140 112 120
-0.093649179 -0.62534797 -0.77011454 139 111 119
-0.094329208 -0.62564516 -0.77027905 140 112 120
-0.088845596 -0.62530982 -0.77145517 136 104 111
-0.088788271 -0.62499666 -0.77111053 136 104 112
-0.091194712 -0.62690997 -0.77306366 140 110 118
-0.088485338 -0.62603748 -0.77229226 133 102 110
-0.088317618 -0.62426108 -0.77032602 136 104 111
-0.08848507 -0.62515837 -0.77131307 135 103 110
-0.089242056 -0.62464929 -0.77059615 137 106 113
-0.091657683 -0.62508506 -0.77042216 138 111 118
-0.088880561 -0.62416387 -0.77001691 136 105 112
-0.090477042 -0.62467879 -0.77022874 137 108 116
-0.090665512 -0.62550312 -0.77135378 139 109 116
-0.086983323 -0.62556887 -0.77210218 131 101 108
-0.086383425 -0.62431574 -0.77089667 133 103 109
-0.086398475 -0.62480783 -0.77144003 132 102 109
-0.08600121 -0.62368351 -0.7703138 134 104 109
-0.086532168 -0.62420338 -0.77072436 134 103 109
-0.086045474 -0.62619954 -0.77288842 130 101 107
-0.086561784 -0.62684035 -0.77344543 130 100 107
-0.086274289 -0.62552124 -0.77218157 131 101 108
-0.084965996 -0.62368679 -0.7705614 134 105 109
-0.087006725 -0.62628877 -0.77283144 130 100 108
-0.08505661 -0.62538821 -0.7722339 132 102 107
-0.084538132 -0.62393087 -0.77095127 133 104 108
-0.084576458 -0.62373674 -0.77074754 133 105 108
-0.084752254 -0.62693435 -0.77381349 130 101 105
-0.082581148 -0.62619251 -0.77368873 128 100 103
-0.083473139 -0.62379324 -0.7711466 132 104 107
-0.083787784 -0.62408489 -0.77132165 132 104 107
-0.083633669 -0.62537551 -0.77258599 130 102 105
-0.083849445 -0.62511921 -0.77227628 131 103 106
-0.083080702 -0.62454849 -0.77198213 130 103 105
-0.08248587 -0.62485963 -0.7724635 129 102 104
-0.081321552 -0.62338048 -0.77155107 129 103 104
-0.08260943 -0.62315321 -0.77088058 131 104 107
-0.081287719 -0.62472612 -0.77271825 127 101 102
-0.080957368 -0.62361288 -0.77188492 128 102 103
-0.078052394 -0.62472993 -0.77380979 121 92 93
-0.079577073 -0.6243996 -0.77304333 125 99 99
-0.079227954 -0.62360954 -0.77247596 125 98 99
-0.07722421 -0.62414145 -0.77356714 120 89 91
-0.079750545 -0.62414265 -0.7727679 125 100 100
-0.077008292 -0.62337524 -0.77296597 121 89 92
-0.076796375 -0.62331122 -0.77297503 120 89 92
-0.075475372 -0.62338156 -0.7733317 117 85 88
-0.075974479 -0.62336475 -0.7732445 118 86 89
-0.07525824 -0.62309164 -0.7731095 118 85 89
-0.062703073 -0.62422621 -0.77370864 98 66 69
-0.060642455 -0.62376976 -0.77190417 95 63 65
-0.060697541 -0.62441492 -0.77268034 93 61 62
-0.061695445 -0.6233865 -0.77214164 99 67 69
-0.061731238 -0.62378478 -0.77262199 98 66 68
-0.061221331 -0.62323236 -0.77165973 98 66 69
-0.061253499 -0.62334859 -0.77181387 98 66 68
-0.10911928 -0.6305812 -0.77100557 121 92 102
-0.10926019 -0.6301136 -0.77021253 122 94 105
-0.1103662 -0.63057452 -0.7701292 116 87 98
-0.10961242 -0.63052553 -0.77058011 119 90 101
-0.10886058 -0.63018 -0.77058893 123 95 105
-0.10678118 -0.62949777 -0.77078003 132 104 116
-0.10504481 -0.6306836 -0.77310032 132 102 111
-0.106672 -0.63017541 -0.77182251 131 101 111
-0.10651647 -0.6308217 -0.77283323 130 98 107
-0.10403267 -0.63041198 -0.77305168 134 104 114
-0.1057306 -0.62913102 -0.77068043 133 107 117
-0.10591 -0.62924492 -0.77076197 133 106 117
-0.10539772 -0.62886828 -0.77046102 133 108 118
-0.10547595 -0.62943792 -0.77118903 133 106 116
-0.10595175 -0.6290819 -0.77052844 133 107 117
-0.10488129 -0.62947083 -0.77146578 133 106 116
-0.099807799 -0.62861264 -0.77194184 139 113 122
-0.10181098 -0.62943935 -0.77246988 136 107 116
-0.09964437 -0.62784821 -0.77099401 137 112 121
-0.10339095 -0.63073057 -0.77371621 135 104 113
-0.099748902 -0.62761503 -0.77066284 137 111 121
-0.10022858 -0.62875748 -0.77201533 138 112 121
-0.10260712 -0.62816501 -0.77053893 135 110 119
-0.10283589 -0.62883192 -0.77135724 135 108 118
-0.10084879 -0.62731081 -0.76993781 135 111 120
-0.10235556 -0.62791288 -0.77027982 135 110 120
-0.10259266 -0.62920523 -0.77192867 135 107 116
-0.102615 -0.62890869 -0.77152693 135 108 117
-0.10248079 -0.62800997 -0.77037102 135 110 120
-0.096747868 -0.62726104 -0.77137905 142 115 123
-0.096097298 -0.62703687 -0.77134478 144 115 122
-0.096107222 -0.62858433 -0.77336425 145 117 124
-0.097429343 -0.62738782 -0.77127379 141 114 122
-0.098198779 -0.62917507 -0.77329218 143 116 124
-0.098238133 -0.62827885 -0.77211291 141 114 123
-0.097261816 -0.6285066 -0.77280056 143 116 123
-0.098423257 -0.62877536 -0.7726832 142 115 123
-0.09915968 -0.62862247 -0.77218902 140 114 123
-0.098327301 -0.62858224 -0.77247101 141 115 123
-0.098429054 -0.62772185 -0.77131319 139 113 122
-0.095353417 -0.62739056 -0.77209675 144 115 122
-0.094656885 -0.6279521 -0.77309519 143 114 121
-0.093990542 -0.62806344 -0.77349353 142 113 120
-0.094806232 -0.6280579 -0.77317691 144 115 122
-0.093073957 -0.6272856 -0.77286613 141 111 119
-0.091692306 -0.62730801 -0.7734465 139 110 117
-0.089900054 -0.62705952 -0.77333534 136 106 114
-0.11952966 -0.63407135 -0.76999474 143 123 136
-0.11899543 -0.63437462 -0.77066493 146 127 136
-0.11829664 -0.63439983 -0.77119714 145 126 134
-0.11735132 -0.63405579 -0.77134836 143 124 131
-0.11526361 -0.63252676 -0.77006024 142 121 125
-0.11784439 -0.633497 -0.77009916 144 125 133
-0.11601344 -0.6339277 -0.77196133 142 122 126
-0.11612246 -0.63338524 -0.77097774 143 122 127
-0.11620151 -0.63386953 -0.77174646 142 122 127
-0.11572763 -0.6329214 -0.77043909 143 121 126
-0.11407458 -0.63396335 -0.77317482 136 114 117
-0.11217114 -0.6325202 -0.77188379 127 102 108
-0.11439562 -0.63440168 -0.77366489 140 119 120
-0.11221594 -0.63368315 -0.77349138 141 117 119
-0.11266493 -0.63331169 -0.7728014 135 111 114
-0.11290646 -0.63372678 -0.77328926 139 115 118
-0.11209556 -0.63217032 -0.77142382 124 97 104
-0.1124722 -0.63153607 -0.77025402 120 94 103
-0.11516025 -0.6327194 -0.77045333 142 120 124
-0.11365298 -0.63288862 -0.77174771 129 105 111
-0.11466284 -0.63391429 -0.77280402 136 115 118
-0.11406832 -0.63337541 -0.7722919 132 109 114
-0.11522461 -0.63438964 -0.77323085 141 120 122
-0.10892919 -0.63088781 -0.77158642 122 91 100
-0.10915814 -0.63117158 -0.77177918 122 91 101
-0.11006466 -0.63277555 -0.77338898 137 110 114
-0.11086211 -0.63284278 -0.77296066 136 110 114
-0.11006449 -0.63240886 -0.77287692 133 105 111
-0.11009642 -0.63244992 -0.77291328 133 105 111
-0.11129124 -0.6334908 -0.77358502 143 118 120
-0.11044133 -0.6323601 -0.77256203 131 104 110
-0.109774 -0.63259304 -0.77332443 136 108 113
-0.1065441 -0.63142335 -0.77357984 131 100 109
-0.10741168 -0.63115197 -0.7729646 129 98 106
-0.10597678 -0.63107562 -0.77333099 131 100 108
-0.13086668 -0.63796723 -0.77011353 130 102 118
-0.12777187 -0.6375429 -0.77047014 139 115 131
-0.1293548 -0.63821334 -0.77079386 139 112 129
-0.12706298 -0.6384384 -0.77205592 148 125 142
-0.1296327 -0.63827121 -0.77076399 138 111 128
-0.13056347 -0.6381374 -0.77035815 133 105 121
-0.13074173 -0.63798183 -0.77015817 131 103 119
-0.12532504 -0.63862228 -0.77346039 154 130 146
-0.1236201 -0.63794881 -0.77349269 154 129 145
-0.12505458 -0.63830268 -0.77310079 153 129 145
-0.12627071 -0.63851416 -0.77264065 151 128 144
-0.12492593 -0.63783145 -0.77249992 149 126 141
-0.1242361 -0.63732654 -0.77217656 147 122 138
-0.12406083 -0.63629264 -0.770693 136 110 130
-0.12505771 -0.63710243 -0.7713331 142 119 135
-0.12471502 -0.63680971 -0.77109116 140 115 133
-0.12565182 -0.63709295 -0.77095789 141 118 134
-0.12470867 -0.63729388 -0.77183944 145 121 137
-0.12480494 -0.63667858 -0.77083486 138 114 132
-0.11980429 -0.63498789 -0.77095103 143 122 135
-0.11968807 -0.63698483 -0.77290046 151 128 143
-0.11918783 -0.63763219 -0.77375108 156 134 147
-0.12178385 -0.63550299 -0.77055508 135 109 129
-0.12122467 -0.63552672 -0.77080953 137 113 132
-0.12152174 -0.63573122 -0.77089101 137 112 131
-0.1225133 -0.63706821 -0.77255189 147 121 139
-0.12058099 -0.63749808 -0.77339631 153 130 144
-0.12271606 -0.6377123 -0.77352309 153 128 144
-0.12138705 -0.63772815 -0.77367359 155 131 146
-0.12227713 -0.63634479 -0.77146184 139 113 133
-0.12220826 -0.63602799 -0.77098119 136 109 131
-0.12210752 -0.63618726 -0.77123564 138 112 132
-0.11661867 -0.6355443 -0.77359807 145 125 130
-0.11660301 -0.63504201 -0.7731328 144 124 128
-0.11786119 -0.63631612 -0.77344084 150 129 138
-0.11836857 -0.63514376 -0.77196538 147 127 135
-0.11729944 -0.63535088 -0.77292722 146 126 132
-0.11865032 -0.63716966 -0.77368563 154 132 144
-0.14258662 -0.64125472 -0.77026874 131 104 112
-0.14441562 -0.64201212 -0.77033383 148 124 130
-0.14340542 -0.64250898 -0.77128184 155 136 139
-0.14599277 -0.64223003 -0.76995629 155 130 136
-0.14055954 -0.64217633 -0.77152455 151 129 137
-0.14070584 -0.64244825 -0.77185583 156 135 141
-0.13874546 -0.64127195 -0.7706576 138 108 125
-0.13980448 -0.64204895 -0.77149081 150 126 136
-0.1422819 -0.64186502 -0.77094692 143 120 126
-0.14061204 -0.64095128 -0.77006882 129 98 113
-0.14095427 -0.64114577 -0.77025658 132 103 116
-0.14144607 -0.64182001 -0.77095079 144 120 128
-0.13599007 -0.6416685 -0.77343601 137 111 128
-0.13601682 -0.64191151 -0.77374762 142 117 134
-0.13780236 -0.64170682 -0.77196878 143 116 131
-0.1385974 -0.640944 -0.77030224 132 100 120
-0.13761263 -0.64113796 -0.77138007 133 102 121
-0.13625354 -0.64113533 -0.77251273 128 99 120
-0.13756889 -0.64046746 -0.77031356 126 94 113
-0.13674611 -0.64084637 -0.77166402 126 95 116
-0.1377618 -0.64038217 -0.77000368 126 93 113
-0.13734819 -0.64024127 -0.77004933 125 93 112
-0.13714699 -0.64063793 -0.77096051 126 94 115
-0.13513745 -0.64102262 -0.77322543 125 96 117
-0.13111676 -0.63977671 -0.77265686 136 109 128
-0.13193411 -0.63907814 -0.77106601 133 105 120
-0.13261332 -0.63980931 -0.77204502 129 101 118
-0.13288288 -0.63909107 -0.77066296 129 100 114
-0.13285731 -0.63885158 -0.77025354 129 101 113
-0.13382971 -0.64083636 -0.77352315 127 99 120
-0.13393219 -0.63976914 -0.77144319 124 95 112
-0.13474631 -0.64056647 -0.77264434 123 94 114
-0.13449343 -0.64068091 -0.77296323 124 96 116
-0.13262896 -0.64039671 -0.77315867 131 103 123
-0.13219288 -0.64046037 -0.77345318 132 105 126
-0.13068385 -0.63968086 -0.77268499 138 110 129
-0.12829314 -0.6395247 -0.77348816 143 119 138
-0.12953211 -0.63920867 -0.77237821 141 114 132
-0.13029467 -0.63928121 -0.77216172 139 111 129
-0.12956277 -0.63964045 -0.77311903 140 115 133
-0.12870625 -0.63885009 -0.77207494 144 118 135
-0.12868352 -0.63890707 -0.77219707 143 118 135
-0.127186 -0.63918495 -0.77335876 147 124 142
-0.12553903 -0.63887364 -0.77379882 152 129 145
-0.12659465 -0.63892233 -0.77317786 150 127 144
-0.16611037 -0.64383864 -0.77196622 181 163 164
-0.16742568 -0.64363968 -0.77178669 172 153 162
-0.16704668 -0.64358276 -0.77151245 175 155 164
-0.16674525 -0.64361233 -0.77150768 176 158 165
-0.16655432 -0.64353698 -0.77123642 177 159 167
-0.16671151 -0.64388704 -0.77228165 177 159 161
-0.16928706 -0.6431517 -0.77112907 161 141 149
-0.16928728 -0.64299232 -0.77071184 161 141 149
-0.16800568 -0.64360702 -0.77186841 169 149 160
-0.16754989 -0.64303029 -0.77019757 171 151 162
-0.1691533 -0.64320171 -0.77121282 162 142 150
-0.16923986 -0.64334297 -0.77161312 162 142 150
-0.1630763 -0.64467061 -0.77287477 175 157 155
-0.16254668 -0.64388359 -0.77134293 183 170 164
-0.16286269 -0.64457595 -0.77262753 175 159 156
-0.16404921 -0.64453167 -0.77305257 178 162 156
-0.16356923 -0.64414996 -0.77221572 182 167 160
-0.16220701 -0.64386624 -0.77117127 182 169 164
-0.16442381 -0.64349902 -0.77095991 185 171 168
-0.16530381 -0.64406747 -0.77258694 184 168 161
-0.1647234 -0.64342934 -0.7707628 184 169 169
-0.16497679 -0.64348102 -0.77091181 183 168 169
-0.16334973 -0.64333785 -0.77049375 188 176 170
-0.15852864 -0.64434612 -0.77218324 169 148 144
-0.15837629 -0.64345127 -0.77058375 180 163 159
-0.15833564 -0.64493912 -0.7732777 161 138 132
-0.16014244 -0.64428967 -0.77189219 173 155 156
-0.1587157 -0.64450538 -0.77244925 167 146 142
-0.1586491 -0.64344609 -0.77054232 181 164 161
-0.16088568 -0.64317983 -0.77002269 188 176 169
-0.16192935 -0.64445996 -0.7721228 174 158 158
-0.16176744 -0.64449173 -0.7721802 174 157 157
-0.16192985 -0.64465046 -0.77243978 172 155 156
-0.16101786 -0.64466548 -0.77249032 170 152 154
-0.16040112 -0.64321584 -0.77009618 187 174 167
-0.15518299 -0.64391279 -0.77109003 171 155 157
-0.15452254 -0.64459831 -0.77292687 161 141 146
-0.154635 -0.64421546 -0.77194911 167 148 153
-0.15543748 -0.64441913 -0.77230775 165 145 147
-0.1570373 -0.64511204 -0.77373922 157 134 131
-0.15723127 -0.64510256 -0.77367926 157 134 130
-0.15803026 -0.64377117 -0.7711578 175 157 152
-0.1576272 -0.64383292 -0.77121252 174 156 152
-0.15711436 -0.64362264 -0.77076012 177 160 157
-0.15683034 -0.64377612 -0.77099741 174 157 155
-0.15707445 -0.64385509 -0.77117461 173 156 153
-0.15710385 -0.64432341 -0.77202523 167 148 145
-0.15099749 -0.64406639 -0.77339345 155 136 138
-0.15222676 -0.64431661 -0.77335036 156 136 139
-0.1507246 -0.64377552 -0.7727679 156 138 138
-0.15233815 -0.64423186 -0.77305633 157 136 139
-0.15051584 -0.64396501 -0.77340138 155 137 137
-0.15235499 -0.64310098 -0.77013427 169 153 154
-0.15306643 -0.64320034 -0.77005023 172 157 159
-0.15384354 -0.64377058 -0.77111244 169 153 157
-0.15269843 -0.64399636 -0.77221155 159 139 141
-0.15423204 -0.64342344 -0.7700634 177 163 167
-0.15184599 -0.64325166 -0.77074862 164 146 146
-0.14688461 -0.64279675 -0.77062184 160 138 142
-0.14672571 -0.64374173 -0.77305096 154 133 138
-0.1467135 -0.64317513 -0.77160317 158 136 141
-0.14816515 -0.64310563 -0.77130163 159 139 140
-0.14655407 -0.64400184 -0.7737295 153 132 137
-0.14994361 -0.64322931 -0.77150631 159 141 139
-0.14903997 -0.64321852 -0.77151352 159 140 139
-0.14890553 -0.64323562 -0.77156508 159 140 139
-0.14661579 -0.64399809 -0.77371484 153 132 137
-0.15034552 -0.64394999 -0.77343577 154 136 137
-0.14963414 -0.64353693 -0.77234936 157 139 138
-0.14532769 -0.64359212 -0.77289826 157 135 140
-0.14307362 -0.64364392 -0.77344102 159 138 142
-0.14614382 -0.64393288 -0.77362114 154 132 137
-0.14566435 -0.64359957 -0.77285606 156 135 139
-0.14560115 -0.64323121 -0.77192593 158 137 141
-0.14611085 -0.64340144 -0.77226824 157 135 140
-0.14431189 -0.64311481 -0.77195346 160 138 142
-0.14257957 -0.64303041 -0.77251077 157 138 140
-0.14395873 -0.64284343 -0.77160835 158 138 141
-0.1420114 -0.64338374 -0.77327555 158 139 142
-0.14118183 -0.64302725 -0.77281731 158 139 143
-0.14240184 -0.64278895 -0.77211499 156 138 140
-0.13940071 -0.6432941 -0.7736963 161 141 148
-0.14192295 -0.6426276 -0.77191317 156 138 141
-0.13893886 -0.64270169 -0.77259392 160 140 147
-0.13766676 -0.64267409 -0.7734471 159 137 148
-0.086050987 -0.63863283 -0.78596556 123 90 90
-0.082093962 -0.63823473 -0.78605199 117 81 80
-0.083720528 -0.63861006 -0.78628945 119 83 82
-0.0824394 -0.63808471 -0.78588319 117 82 81
-0.082845777 -0.63830459 -0.78606498 118 82 81
-0.076554939 -0.63859844 -0.78591663 111 72 71
-0.079689875 -0.63811088 -0.78601182 113 77 76
-0.078113481 -0.63806689 -0.7857486 112 75 74
-0.073510721 -0.63861239 -0.78579444 106 66 70
-0.073831663 -0.63823044 -0.78555131 107 67 70
-0.10909604 -0.64244998 -0.78664839 165 140 152
-0.10913152 -0.64201587 -0.7860052 162 136 147
-0.10757697 -0.64111292 -0.78562361 156 129 138
-0.10787525 -0.64228058 -0.78712243 164 138 149
-0.10534963 -0.64184618 -0.78676242 163 137 148
-0.10468666 -0.64242035 -0.7872771 161 134 145
-0.10381147 -0.64226049 -0.78698975 159 132 144
-0.10659475 -0.64137536 -0.78611124 159 133 142
-0.10611392 -0.6415664 -0.78639686 161 135 145
-0.10501835 -0.64123744 -0.78595227 160 134 145
-0.10681695 -0.64220518 -0.78729534 164 139 149
-0.10093223 -0.64203686 -0.78721708 149 117 123
-0.10108489 -0.64169568 -0.78674847 150 118 125
-0.10048486 -0.64228922 -0.78764367 148 114 119
-0.10297345 -0.64233643 -0.78710788 157 128 139
-0.10017976 -0.64250892 -0.78799492 147 113 116
-0.10337652 -0.64249194 -0.7872107 158 130 142
-0.10337545 -0.64110953 -0.78575468 160 132 144
-0.10321815 -0.64134437 -0.78602159 159 131 142
-0.10188999 -0.64082736 -0.78564203 154 124 133
-0.097405843 -0.64081925 -0.786834 140 108 110
-0.096858494 -0.64064592 -0.78680032 139 107 109
-0.097549371 -0.64152503 -0.78762037 141 108 109
-0.097027488 -0.64044631 -0.78651267 139 107 110
-0.09739501 -0.64247823 -0.78879076 141 107 108
-0.095762506 -0.64214092 -0.78890187 138 105 105
-0.098272912 -0.64244759 -0.78848141 142 108 109
-0.096813574 -0.64189154 -0.78828096 140 106 108
-0.097178534 -0.64048654 -0.78650975 140 108 110
-0.098963566 -0.64032423 -0.78561443 143 111 115
-0.099432439 -0.64158601 -0.78703099 144 110 113
-0.096645355 -0.63997662 -0.78606999 138 107 110
-0.097772092 -0.64004612 -0.78572267 141 109 113
-0.092189454 -0.64124125 -0.78782284 132 99 97
-0.093728229 -0.64213884 -0.78883082 135 101 100
-0.092175655 -0.64012837 -0.78674525 131 97 97
-0.093012601 -0.64057869 -0.78725684 132 99 99
-0.094530299 -0.64199877 -0.78876823 136 102 102
-0.094157495 -0.64213544 -0.78886652 136 102 101
-0.09198083 -0.63910991 -0.78574252 129 96 97
-0.094506271 -0.6394406 -0.78586739 134 103 105
-0.095119797 -0.64101112 -0.78765178 136 104 105
-0.094974317 -0.64021617 -0.78673112 136 104 106
-0.095594078 -0.64086962 -0.78743494 137 105 107
-0.095544547 -0.63981581 -0.78619933 137 106 108
-0.095689341 -0.64160472 -0.7882905 138 105 106
-0.094730772 -0.6415326 -0.78830695 136 102 103
-0.09141992 -0.6406914 -0.78729099 131 97 97
-0.090232112 -0.63944674 -0.78619933 128 96 97
-0.090531684 -0.63918954 -0.78592235 128 96 97
-0.090527348 -0.64017242 -0.78687328 129 97 96
-0.089440905 -0.64155066 -0.7883271 128 95 95
-0.089382209 -0.63985544 -0.78668147 127 95 96
-0.089441516 -0.63988596 -0.78670496 127 95 96
-0.090175785 -0.6422441 -0.78892541 130 96 95
-0.091053084 -0.6425184 -0.78910029 132 98 96
-0.09029337 -0.64212531 -0.78879726 130 96 95
-0.088197336 -0.63940966 -0.7863906 126 95 96
-0.088148654 -0.63918608 -0.78618014 126 96 96
-0.087799251 -0.64083725 -0.78780764 125 93 94
-0.087879218 -0.6409077 -0.78788346 125 94 95
-0.08499179 -0.64236021 -0.78903925 122 85 86
-0.086105712 -0.64155561 -0.78835583 123 88 90
-0.086390726 -0.64040273 -0.78726286 124 91 91
-0.086145006 -0.64169461 -0.78849405 123 88 89
-0.085505627 -0.64151144 -0.788261 122 87 88
-0.085550107 -0.64210576 -0.78884101 122 86 88
-0.085403629 -0.63887769 -0.78625512 122 88 88
-0.086107917 -0.64026546 -0.78715134 123 90 91
-0.084222212 -0.64225644 -0.78889221 121 83 84
-0.08588098 -0.6394884 -0.78662324 123 90 90
-0.087215349 -0.63892514 -0.78600484 125 94 94
-0.086283199 -0.63984787 -0.78682077 123 91 91
-0.08637125 -0.63987136 -0.78682399 123 91 91
-0.080763824 -0.64001441 -0.78742379 114 78 77
-0.081984043 -0.64080691 -0.78797531 117 80 80
-0.081068248 -0.64244229 -0.78890079 113 75 75
-0.081509836 -0.64098275 -0.78805155 115 78 78
-0.080344751 -0.64040881 -0.78763467 113 76 75
-0.082577005 -0.64202607 -0.78874439 117 80 80
-0.082270347 -0.63935542 -0.78693277 117 81 80
-0.082135133 -0.63991469 -0.78734708 117 80 80
-0.083660729 -0.63874161 -0.7863999 119 83 82
-0.08115615 -0.63948345 -0.7870959 115 79 78
-0.082728893 -0.63929099 -0.78685713 118 81 81
-0.082577154 -0.63931108 -0.78688127 118 81 81
-0.077788368 -0.64221853 -0.78822982 109 70 70
-0.076983385 -0.63980961 -0.78671008 110 71 71
-0.076621778 -0.64225566 -0.78800094 108 69 69
-0.076565608 -0.63935637 -0.78636706 110 71 70
-0.077274211 -0.64132899 -0.78762221 109 71 70
-0.076315768 -0.64006037 -0.7867074 110 71 70
-0.07806053 -0.64103442 -0.78762567 110 72 71
-0.079255208 -0.64009994 -0.78729045 112 74 73
-0.079429179 -0.64114636 -0.78794903 111 73 72
-0.080067888 -0.64081597 -0.78786099 112 75 74
-0.0766185 -0.63867271 -0.7859776 111 72 71
-0.079969034 -0.64204788 -0.78858376 111 73 72
-0.078901529 -0.64128667 -0.78794205 111 72 71
-0.072529569 -0.64135146 -0.78769749 104 67 74
-0.07525374 -0.64245939 -0.78812474 107 68 70
-0.072420143 -0.64211833 -0.78826547 104 68 75
-0.073626898 -0.64245456 -0.78834325 105 68 74
-0.073029049 -0.641675 -0.7878626 104 67 74
-0.072683007 -0.64053172 -0.78708535 104 66 73
-0.075966246 -0.64165682 -0.78756446 108 69 69
-0.075359255 -0.63900387 -0.78606504 109 70 70
-0.075689174 -0.63875055 -0.78593171 110 70 70
-0.074535035 -0.63931447 -0.78621793 107 68 70
-0.07372582 -0.64012468 -0.7866506 105 65 70
-0.074503727 -0.64007229 -0.78664106 106 67 70
-0.070874579 -0.64223266 -0.78689504 100 59 72
-0.070322499 -0.64205474 -0.78618181 98 56 70
-0.069893904 -0.64224935 -0.78586817 97 53 69
-0.071650974 -0.64176983 -0.78738362 102 64 74
-0.071180619 -0.64195973 -0.78702235 101 61 73
-0.071931131 -0.64109266 -0.78719205 103 65 73
-0.071964577 -0.64170486 -0.787669 103 66 74
-0.071489021 -0.63939303 -0.785694 102 61 70
-0.13839969 -0.64480275 -0.78800398 148 121 133
-0.13796113 -0.64518243 -0.78847641 152 123 134
-0.13813956 -0.645136 -0.78823882 151 123 135
-0.13766639 -0.64482462 -0.78905118 150 119 132
-0.13850489 -0.64416033 -0.7881934 141 112 126
-0.13858475 -0.64358413 -0.78837967 135 104 120
-0.1320211 -0.64629918 -0.78615201 168 144 158
-0.13128161 -0.6460011 -0.786093 164 140 156
-0.1279572 -0.64626652 -0.78788424 176 154 167
-0.12789772 -0.64556521 -0.78655225 172 149 164
-0.12880778 -0.64598119 -0.78727573 175 152 166
-0.12856238 -0.6463204 -0.78794092 177 154 167
-0.1292603 -0.6457656 -0.78669906 171 148 164
-0.12970614 -0.64575964 -0.78644609 168 144 161
-0.12792018 -0.64524305 -0.78578925 167 144 160
-0.1258301 -0.64613605 -0.78759784 176 152 164
-0.12507729 -0.64648128 -0.78776616 175 150 162
-0.12561166 -0.64641958 -0.78786522 175 151 164
-0.1259993 -0.64525735 -0.78595889 170 147 161
-0.126579 -0.64564526 -0.78674585 172 150 163
-0.12687993 -0.64532679 -0.78616375 170 148 162
-0.12600248 -0.64532042 -0.78607923 170 147 161
-0.12592456 -0.6460802 -0.78752059 176 152 164
-0.12085697 -0.64534533 -0.78642583 171 145 159
-0.11998596 -0.64512229 -0.78646296 171 145 159
-0.12075314 -0.64591831 -0.78724104 170 144 158
-0.12025086 -0.64606935 -0.78764063 169 143 158
-0.11982992 -0.64497817 -0.78632873 171 145 159
-0.12189966 -0.64490259 -0.785568 172 145 159
-0.12246074 -0.64556462 -0.7861914 172 144 159
-0.12247007 -0.64536691 -0.78595299 172 145 159
-0.11738686 -0.64641738 -0.78904819 166 142 154
-0.11875767 -0.64617705 -0.78833115 168 142 158
-0.11884136 -0.64549816 -0.78738827 169 144 158
-0.11839414 -0.64594489 -0.7881245 168 143 157
-0.11732562 -0.64591885 -0.788405 166 143 155
-0.11807375 -0.64610374 -0.78843397 167 142 156
-0.11808156 -0.64451677 -0.78616589 170 145 156
-0.11780004 -0.64477015 -0.78664565 169 145 156
-0.11840887 -0.64428568 -0.78572607 171 145 157
-0.11558418 -0.64527893 -0.78766227 166 142 149
-0.1160722 -0.64564741 -0.78833085 166 143 151
-0.115696 -0.64527833 -0.78765756 166 142 149
-0.11200293 -0.6436215 -0.78673995 165 140 154
-0.11158965 -0.64526004 -0.78896618 165 137 153
-0.11244589 -0.64404082 -0.78719109 165 140 153
-0.11312699 -0.64457101 -0.78773546 165 141 152
-0.11208019 -0.64344406 -0.78649193 165 141 153
-0.11278129 -0.64571667 -0.78930426 165 138 152
-0.11324131 -0.64498258 -0.78824753 165 140 152
-0.11267957 -0.64334697 -0.78595454 166 141 152
-0.11434344 -0.64475143 -0.78734553 165 141 149
-0.11492163 -0.64504582 -0.78746927 165 141 148
-0.11457884 -0.64422619 -0.78619778 166 141 148
-0.114017 -0.64480776 -0.78768909 165 142 150
-0.11338162 -0.6436944 -0.78608614 166 141 150
-0.10816336 -0.64327455 -0.78822666 165 139 150
-0.10765175 -0.64382982 -0.78920239 165 138 148
-0.10848144 -0.64262301 -0.78724754 165 140 152
-0.11014678 -0.64299041 -0.7867189 165 140 152
-0.11089587 -0.64316368 -0.78652889 165 139 154
-0.10902699 -0.64407086 -0.78875101 165 138 150
-0.10975995 -0.64480853 -0.78930557 165 136 151
-0.10933463 -0.64417017 -0.7887094 165 137 151
-0.10914505 -0.64385909 -0.78840917 165 138 150
-0.10910579 -0.64366627 -0.78817952 165 138 150
-0.11108842 -0.6431849 -0.78644955 165 139 154
-0.1061478 -0.6438207 -0.78929245 161 133 143
-0.10545845 -0.64385945 -0.78932136 159 131 141
-0.10475947 -0.64360082 -0.78898829 157 129 139
-0.10564386 -0.64299107 -0.78819889 161 134 145
-0.10472873 -0.64350796 -0.78885746 157 129 139
-0.10557657 -0.64316505 -0.78845328 160 133 144
-0.1022637 -0.64319086 -0.78826386 153 123 131
-0.10287675 -0.64375699 -0.78909606 153 122 131
-0.10226636 -0.64366543 -0.78898251 151 120 128
-0.10259821 -0.64289165 -0.7877968 155 125 135
-0.099818967 -0.64338607 -0.78892076 145 110 113
-0.10109609 -0.6426993 -0.78797603 150 117 123
-0.096847139 -0.64266419 -0.78916061 140 106 107
-0.098855056 -0.64331639 -0.78914136 143 108 110
-0.092018224 -0.64271331 -0.78918624 134 100 97
-0.083318904 -0.64289933 -0.78939348 119 80 81
-0.083434008 -0.64258289 -0.78913248 119 81 82
-0.07997185 -0.64324296 -0.7893917 110 72 71
-0.076539166 -0.64278108 -0.78832507 108 69 69
-0.076302685 -0.6425848 -0.7881183 108 69 69
-0.077523567 -0.64343697 -0.78905743 108 70 70
-0.074040003 -0.64363539 -0.78890294 110 80 81
-0.075191841 -0.64310408 -0.7884928 109 74 74
-0.07432507 -0.64389777 -0.78911477 110 78 79
-0.072902054 -0.64303809 -0.78874791 106 74 79
-0.073909216 -0.64263952 -0.78842276 105 69 74
-0.072567292 -0.64415759 -0.78932083 112 87 89
-0.14712872 -0.6467104 -0.78616452 178 163 145
-0.14906389 -0.64701265 -0.78566563 175 159 142
-0.14763516 -0.6465131 -0.78714609 162 134 129
-0.14938253 -0.64671969 -0.78708184 151 119 120
-0.14980027 -0.64649487 -0.78849679 123 72 97
-0.14732566 -0.64660865 -0.78646803 176 158 140
-0.14601646 -0.646819 -0.78563243 184 173 159
-0.13976629 -0.64673054 -0.78564876 170 152 157
-0.13847452 -0.64654058 -0.78704149 159 136 143
-0.13760762 -0.64681804 -0.78757262 157 133 143
-0.13708866 -0.64682043 -0.78832924 158 132 142
-0.13592549 -0.64733142 -0.78874367 155 130 143
-0.1368418 -0.64716756 -0.78653902 155 135 147
-0.13480866 -0.64754081 -0.78855479 155 131 145
-0.1380958 -0.6470387 -0.78579062 153 135 147
-0.13687114 -0.6473254 -0.78730673 152 131 145
-0.13549629 -0.64721775 -0.78691202 158 137 148
-0.13605814 -0.64730221 -0.7872709 155 134 146
-0.13095967 -0.64653665 -0.78822464 180 156 172
-0.13244079 -0.64673191 -0.78742945 176 154 167
-0.1326493 -0.64679492 -0.78747779 176 154 167
-0.1345495 -0.64700669 -0.78621185 164 144 154
-0.13253716 -0.64699203 -0.78856975 175 152 166
-0.1336062 -0.64700937 -0.78736383 169 148 159
-0.13248833 -0.64711773 -0.78924263 173 150 165
-0.13451421 -0.64730543 -0.78771311 160 137 150
-0.129499 -0.64679015 -0.78944319 184 162 176
-0.12822825 -0.64679086 -0.78928661 181 159 171
-0.12916277 -0.6465683 -0.78845119 179 156 169
-0.1260992 -0.64684898 -0.78893346 175 153 164
-0.12687571 -0.64655113 -0.78852445 178 156 167
-0.12520473 -0.64685875 -0.78856623 173 149 162
-0.12438074 -0.64695841 -0.78850114 171 147 159
-0.12321768 -0.64684337 -0.78789371 170 143 157
-0.12153897 -0.64697528 -0.78855079 168 143 157
-0.12209138 -0.64682269 -0.78807962 169 143 157
-0.12008259 -0.64693105 -0.78889233 168 143 157
-0.12006361 -0.64651155 -0.78831267 168 142 158
-0.11879103 -0.64683288 -0.78921729 167 142 157
-0.10865325 -0.6496166 -0.80764335 133 108 111
-0.1095245 -0.64922374 -0.80824834 115 94 98
-0.11046518 -0.64879942 -0.80874252 95 81 85
-0.10797507 -0.64992356 -0.80832708 144 111 110
-0.10867152 -0.64960766 -0.80692881 136 112 117
-0.10951017 -0.64922965 -0.80769479 117 98 103
-0.1105153 -0.64954889 -0.80560273 141 118 130
-0.1111192 -0.64942652 -0.80570883 136 114 127
-0.11113434 -0.64919668 -0.80646521 123 104 115
-0.11065857 -0.64906293 -0.80714685 113 97 106
-0.10892523 -0.64979994 -0.80555981 150 126 135
-0.11127796 -0.64904445 -0.80689991 115 97 108
-0.10433658 -0.65035957 -0.80743909 150 112 112
-0.10397203 -0.65034539 -0.80782878 148 108 108
-0.10608096 -0.6501497 -0.80705029 157 123 125
-0.10584576 -0.65014702 -0.80824876 152 114 114
-0.10714777 -0.6501686 -0.80815154 154 117 116
-0.10730888 -0.65016955 -0.80643618 160 129 133
-0.10687422 -0.6501627 -0.80687302 158 125 128
-0.10436453 -0.65422958 -0.80765468 144 106 106
-0.10432385 -0.65321892 -0.80861098 143 104 103
-0.10421252 -0.65265769 -0.80892462 143 103 102
-0.10402766 -0.65368009 -0.80740368 145 107 107
-0.10548642 -0.65142077 -0.8052898 157 125 129
-0.10482445 -0.6515258 -0.80582011 153 119 122
-0.10590751 -0.65052211 -0.80573058 158 126 131
-0.10440384 -0.65130866 -0.80642253 151 114 117
-0.10472791 -0.65066731 -0.80671477 152 116 118
-0.10554392 -0.65140206 -0.80525261 157 125 130
-0.10339306 -0.65118212 -0.80765927 146 106 106
-0.10330845 -0.651223 -0.80781049 146 106 106
-0.1034135 -0.65341955 -0.80546552 148 111 113
-0.10350557 -0.65160954 -0.80829734 146 105 105
-0.10331585 -0.65309256 -0.80649859 148 109 111
-0.1045942 -0.65436894 -0.80830902 142 104 103
-0.10368335 -0.65484154 -0.80714339 145 108 108
-0.10210298 -0.65467584 -0.80527604 148 112 116
-0.10225969 -0.65470809 -0.8054862 148 112 116
-0.10195673 -0.65529847 -0.80658871 145 109 111
-0.10198111 -0.65506434 -0.80607927 146 110 113
-0.10216104 -0.65482455 -0.80567431 147 111 115
-0.10125488 -0.65503067 -0.80545622 147 112 117
-0.1030208 -0.65597206 -0.8089475 141 104 102
-0.099683531 -0.65565103 -0.80571884 146 112 118
-0.10168017 -0.65597141 -0.80796635 143 107 107
-0.10133422 -0.65604472 -0.80789435 143 107 108
-0.10048487 -0.65559262 -0.80616045 145 110 115
-0.10340296 -0.65585423 -0.80893642 141 104 101
-0.096122086 -0.65604258 -0.80648649 144 111 114
-0.096955739 -0.65647608 -0.80749828 144 110 112
-0.096785806 -0.65630913 -0.8071329 144 111 113
-0.09618625 -0.65593326 -0.80627555 144 112 115
-0.095943674 -0.65643847 -0.80725902 144 110 111
-0.095731154 -0.6568954 -0.80814952 143 109 107
-0.099411741 -0.65680254 -0.80850422 145 109 111
-0.098466381 -0.65578187 -0.80601025 145 112 117
-0.098066866 -0.65594876 -0.80642956 145 112 116
-0.098821029 -0.656178 -0.80697858 145 111 115
-0.098980874 -0.65632451 -0.80733597 145 110 114
-0.094085269 -0.65784746 -0.80836076 140 106 104
-0.092878051 -0.65781468 -0.8079893 140 106 106
-0.093101799 -0.6579951 -0.80826825 140 106 105
-0.092450023 -0.65782923 -0.80788922 140 107 107
-0.094191715 -0.65758282 -0.80812371 141 105 104
-0.093934104 -0.65676177 -0.80736119 141 106 106
-0.09536127 -0.65677941 -0.80786324 143 108 107
-0.095497027 -0.65672547 -0.8077727 143 109 108
-0.094491646 -0.65634441 -0.80686343 142 108 109
-0.095283017 -0.65696448 -0.80822712 142 108 106
-0.094512239 -0.65623474 -0.80664444 142 108 110
-0.094198219 -0.65606523 -0.80625826 142 108 111
-0.088145606 -0.65803403 -0.80751294 125 86 94
-0.088439792 -0.657309 -0.80672258 127 89 95
-0.088015169 -0.65707541 -0.80640328 125 86 93
-0.088881321 -0.65678447 -0.80617929 129 92 97
-0.088642575 -0.65712565 -0.80653876 128 90 96
-0.089493446 -0.65586352 -0.80514097 132 94 100
