ply
format ascii 1.0
comment PCL generated
element vertex 836
property float x
property float y
property float z
property uchar red
property uchar green
property uchar blue
element camera 1
property float view_px
property float view_py
property float view_pz
property float x_axisx
property float x_axisy
property float x_axisz
property float y_axisx
property float y_axisy
property float y_axisz
property float z_axisx
property float z_axisy
property float z_axisz
property float focal
property float scalex
property float scaley
property float centerx
property float centery
property int viewportx
property int viewporty
property float k1
property float k2
end_header
-0.15601365 -0.36802182 -0.72657675 53 25 51
-0.1557456 -0.36734784 -0.72616172 55 26 49
-0.1555872 -0.36645681 -0.72585088 57 28 48
-0.15529306 -0.36594987 -0.72542644 60 29 47
-0.15609491 -0.36715215 -0.72655976 53 28 49
-0.15535869 -0.36847281 -0.72570604 53 22 45
-0.15509142 -0.36723101 -0.72530508 58 25 47
-0.15467735 -0.36696514 -0.7246924 59 25 43
-0.15428476 -0.36762649 -0.72411877 56 22 35
-0.15398131 -0.3679173 -0.72373611 58 28 37
-0.15597112 -0.37026301 -0.72656572 55 26 50
-0.15563945 -0.37061766 -0.72606093 57 27 46
-0.15615647 -0.37095401 -0.72680986 58 29 53
-0.15580201 -0.37124673 -0.72627401 59 29 48
-0.15574175 -0.36951923 -0.72625881 52 23 47
-0.1549893 -0.37125981 -0.72509611 59 29 43
-0.15516369 -0.37147418 -0.72534084 60 30 44
-0.15487775 -0.37130964 -0.72493696 59 29 43
-0.15493068 -0.37089741 -0.72501785 57 27 40
-0.15518029 -0.37262821 -0.72534847 64 36 52
-0.15375951 -0.37212104 -0.72353339 69 49 60
-0.15409952 -0.37287223 -0.72388196 67 43 58
-0.15348348 -0.36914647 -0.7231124 59 34 38
-0.15365013 -0.37010598 -0.72336102 62 38 44
-0.15566102 -0.37364426 -0.72606397 72 44 61
-0.1562741 -0.373923 -0.72695273 76 47 63
-0.15622896 -0.37338471 -0.72685397 71 41 58
-0.15556879 -0.37451354 -0.72598892 80 53 68
-0.15585133 -0.37338322 -0.72631747 70 41 58
-0.155114 -0.37690774 -0.7256552 87 57 67
-0.15525384 -0.37597868 -0.72570282 87 60 71
-0.15446411 -0.37577629 -0.72467774 73 43 55
-0.15488623 -0.37515876 -0.72512496 79 52 65
-0.15354484 -0.37551284 -0.72364581 82 53 68
-0.15295729 -0.37658003 -0.72318119 94 63 79
-0.15337612 -0.37637138 -0.723589 86 56 70
-0.15323895 -0.37506121 -0.72326058 86 61 75
-0.15344846 -0.37340519 -0.72324365 78 61 72
-0.15536241 -0.37703064 -0.72598773 91 62 72
-0.15567783 -0.37701648 -0.72638369 96 69 79
-0.15528138 -0.37842679 -0.7261129 84 56 67
-0.15463735 -0.37750649 -0.72514987 76 45 55
-0.15467164 -0.37886161 -0.72535789 80 49 61
-0.15499969 -0.37946004 -0.72589439 80 51 63
-0.15446351 -0.37951425 -0.72511441 87 55 67
-0.1533241 -0.37932271 -0.72373933 92 63 78
-0.15413451 -0.37988842 -0.72471988 93 60 72
-0.15418229 -0.37859124 -0.72465265 84 51 63
-0.15397575 -0.37720788 -0.72430766 78 46 57
-0.15404001 -0.37737009 -0.72438276 77 45 56
-0.1535946 -0.37825593 -0.72396225 85 55 68
-0.15529434 -0.38254562 -0.72667402 80 59 70
-0.155238 -0.38205293 -0.72652817 82 59 70
-0.15503022 -0.38266692 -0.72630286 83 61 71
-0.15482499 -0.38111052 -0.72580236 91 61 74
-0.15447661 -0.38380378 -0.72577643 81 63 74
-0.1543529 -0.38169256 -0.72522384 94 64 76
-0.15310815 -0.38464293 -0.72434133 77 59 74
-0.15251781 -0.384325 -0.723598 79 57 75
-0.15355863 -0.38255122 -0.72446471 89 61 76
-0.15373395 -0.38283142 -0.72472078 87 62 76
-0.15391515 -0.38330072 -0.72501963 85 62 75
-0.15309113 -0.38252437 -0.72392142 90 62 79
-0.15270808 -0.38279513 -0.72353256 89 64 81
-0.15257201 -0.38169479 -0.72317576 98 73 91
-0.15324178 -0.38126907 -0.72386438 99 70 87
-0.1548309 -0.38643861 -0.7266323 72 52 69
-0.1546452 -0.387088 -0.72649866 72 48 69
-0.15455918 -0.38675749 -0.72634602 73 50 69
-0.15337755 -0.38761392 -0.72505075 74 50 70
-0.15291305 -0.38796377 -0.72454786 73 49 69
-0.15303087 -0.3884559 -0.72475797 73 46 68
-0.1523983 -0.388567 -0.72402114 72 48 68
-0.15380304 -0.38627428 -0.72536665 75 56 71
-0.15374362 -0.38795927 -0.72553539 74 47 69
-0.15201803 -0.3878285 -0.7234683 73 52 69
-0.15219447 -0.38513079 -0.7233513 76 56 74
-0.15359862 -0.38515759 -0.72497874 76 60 73
-0.15305537 -0.38590521 -0.72443932 75 57 72
-0.15381855 -0.38492692 -0.72520572 76 61 73
-0.15472302 -0.39013296 -0.72689372 78 53 77
-0.15431547 -0.39153922 -0.72648698 91 71 90
-0.15395826 -0.3894676 -0.72595447 80 47 76
-0.15342946 -0.39090067 -0.72543418 91 58 88
-0.15396605 -0.39035514 -0.72601634 85 56 82
-0.15329427 -0.39110363 -0.72529149 93 59 90
-0.15167201 -0.39228061 -0.72350347 107 59 104
-0.15279925 -0.39250335 -0.72480798 103 69 102
-0.1516072 -0.38877934 -0.72310495 73 50 69
-0.15200433 -0.38898695 -0.72359699 75 49 71
-0.15283486 -0.38996023 -0.72467667 85 48 81
-0.15278222 -0.38949776 -0.72457051 81 48 76
-0.15240511 -0.39020577 -0.72418851 88 50 84
-0.15175058 -0.39096907 -0.72348166 95 54 91
-0.15452114 -0.39617527 -0.72693759 74 47 91
-0.1543607 -0.39468959 -0.72668529 85 62 95
-0.15185477 -0.39552245 -0.72395629 146 125 154
-0.15358594 -0.3942017 -0.72580773 107 87 114
-0.15350172 -0.39374205 -0.72569811 112 94 116
-0.15388021 -0.39569288 -0.7261861 90 65 105
-0.15413918 -0.3963424 -0.72649455 80 51 98
-0.1542708 -0.39405194 -0.72655398 90 69 97
-0.15326913 -0.39583048 -0.72552037 106 81 119
-0.15199308 -0.39358544 -0.72396702 121 86 122
-0.15278862 -0.39292112 -0.72482681 109 78 109
-0.15121573 -0.39386502 -0.72309822 128 86 129
-0.1527255 -0.39389706 -0.72483009 122 98 125
-0.15338433 -0.39349344 -0.72555345 114 95 116
-0.1518179 -0.39400026 -0.72379845 127 94 130
-0.15097782 -0.39891556 -0.72351789 142 113 139
-0.15116508 -0.39905238 -0.72375095 135 106 133
-0.15047403 -0.39960611 -0.72310364 149 119 142
-0.15283491 -0.39771184 -0.72531468 103 73 112
-0.15114518 -0.39898351 -0.72371531 136 107 134
-0.15150547 -0.3992677 -0.72416633 125 94 122
-0.15332808 -0.39869165 -0.72589201 111 89 113
-0.15409765 -0.39681956 -0.72650385 80 52 97
-0.15195 -0.3996352 -0.7246244 130 104 124
-0.152822 -0.39957786 -0.72546506 126 106 121
-0.15410653 -0.39734006 -0.72654963 88 63 101
-0.15137559 -0.40034005 -0.72411823 142 117 131
-0.1541727 -0.39817643 -0.72667342 101 82 107
-0.15067978 -0.40429124 -0.72328782 155 130 136
-0.15086526 -0.40216371 -0.7235446 149 123 134
-0.1513067 -0.40195456 -0.72398227 147 124 133
-0.1511475 -0.40262833 -0.72379643 149 126 134
-0.15097588 -0.40130475 -0.72369212 146 120 133
-0.15152422 -0.40773556 -0.72420996 136 100 114
-0.15074287 -0.40802079 -0.72332013 133 95 112
-0.15115078 -0.40586054 -0.72377545 144 114 124
-0.15087695 -0.40578771 -0.72348249 145 115 126
-0.15052477 -0.40461576 -0.72311819 153 127 134
-0.15115735 -0.40710205 -0.72376812 137 102 116
-0.1505924 -0.40809113 -0.72315061 133 94 112
-0.15214324 -0.40541825 -0.72484517 144 116 124
-0.15116793 -0.40506938 -0.72380292 149 122 129
-0.15116757 -0.40853456 -0.72383159 133 98 111
-0.151539 -0.40855667 -0.72426492 134 100 112
-0.15091568 -0.40958449 -0.72354674 126 101 108
-0.1671754 -0.37507397 -0.74201012 55 37 43
-0.16666262 -0.37581375 -0.74081206 54 37 45
-0.16717812 -0.37689799 -0.74167168 58 40 52
-0.1661939 -0.37633568 -0.73985988 52 35 46
-0.16657391 -0.37499312 -0.74073589 52 35 42
-0.16698751 -0.37629136 -0.74137712 56 39 49
-0.16587272 -0.37571406 -0.73940426 50 34 43
-0.16583464 -0.37586886 -0.73933703 50 35 44
-0.16752695 -0.37885761 -0.74220574 57 41 52
-0.16678053 -0.37762523 -0.74086392 55 38 50
-0.1674155 -0.37842163 -0.74202186 57 41 52
-0.16757193 -0.37822619 -0.7423327 58 41 53
-0.16668539 -0.37916124 -0.7405808 53 37 50
-0.16708873 -0.3797425 -0.74131197 54 38 51
-0.16635026 -0.37934709 -0.73992825 53 36 49
-0.16663554 -0.37917921 -0.74048436 53 37 50
-0.16620569 -0.37937036 -0.73965049 53 36 49
-0.16575003 -0.37967783 -0.73895419 53 35 49
-0.16580532 -0.37707791 -0.73916948 52 36 48
-0.16564649 -0.37946779 -0.73883528 53 35 49
-0.16649759 -0.38164347 -0.7403816 52 34 48
-0.16656074 -0.38113904 -0.74032617 54 36 50
-0.167262 -0.38126853 -0.74171066 54 38 50
-0.16676609 -0.38144237 -0.74082422 53 36 49
-0.16727436 -0.38211665 -0.74203026 52 36 48
-0.16654958 -0.38396779 -0.74144244 47 29 42
-0.16634205 -0.38448295 -0.74139404 46 28 41
-0.16618997 -0.3839387 -0.74091566 47 29 42
-0.1656386 -0.38462684 -0.7404393 45 28 40
-0.16516362 -0.383955 -0.7394132 46 29 42
-0.16586095 -0.38321269 -0.74008918 48 30 44
-0.16595249 -0.38170859 -0.73950213 52 33 47
-0.16518475 -0.38255686 -0.73881179 50 32 46
-0.16622604 -0.38499337 -0.74135262 45 28 39
-0.16683687 -0.38702661 -0.74211681 44 29 38
-0.1664488 -0.38646573 -0.74153423 44 29 38
-0.16634357 -0.38774535 -0.74099666 43 29 37
-0.16663153 -0.38809535 -0.74150419 43 30 37
-0.16648099 -0.38665318 -0.74155384 44 29 38
-0.16587266 -0.38545701 -0.74074221 44 28 39
-0.16526188 -0.38847202 -0.73934883 43 29 37
-0.16480014 -0.38521868 -0.73921943 44 28 40
-0.16492142 -0.38784871 -0.73913676 43 28 38
-0.16486157 -0.38594735 -0.73923773 44 28 39
-0.1653468 -0.38653296 -0.73989791 44 28 39
-0.16714947 -0.38914105 -0.74237239 46 32 38
-0.16715115 -0.38989794 -0.74228257 50 35 40
-0.16702455 -0.38992122 -0.7420181 50 35 40
-0.16717279 -0.38970011 -0.74235165 49 34 40
-0.16663001 -0.39137506 -0.74105841 59 40 46
-0.16639476 -0.39161772 -0.74057209 60 40 48
-0.16602419 -0.39001814 -0.7399835 51 34 41
-0.16602829 -0.39176732 -0.73983496 62 41 49
-0.16620606 -0.39254305 -0.74011654 66 44 52
-0.16554479 -0.3917861 -0.73940551 64 44 52
-0.16531135 -0.39129901 -0.73924929 63 43 51
-0.16540658 -0.38974071 -0.73941928 51 35 43
-0.16496535 -0.39117122 -0.7389161 62 43 52
-0.16667233 -0.39286694 -0.74098134 66 44 51
-0.16675313 -0.39406767 -0.74092114 68 43 48
-0.16737901 -0.39391905 -0.74218446 67 43 47
-0.16648185 -0.39292738 -0.74059409 67 44 51
-0.16734999 -0.39522243 -0.74188858 69 42 45
-0.16679484 -0.39616445 -0.7410785 70 41 46
-0.16642517 -0.39490694 -0.74046844 69 42 49
-0.16606835 -0.39436653 -0.73991919 68 42 51
-0.16630921 -0.3932564 -0.74020308 67 43 51
-0.16554582 -0.39567265 -0.73951614 68 40 51
-0.16596647 -0.39499962 -0.73983806 68 42 51
-0.16589926 -0.3944262 -0.73974651 68 42 51
-0.16500503 -0.39516136 -0.7390213 66 40 53
-0.16528735 -0.39424661 -0.73921031 67 42 53
-0.16684197 -0.39894721 -0.74207985 69 46 54
-0.16628718 -0.39766547 -0.74079973 69 43 52
-0.16640143 -0.3979874 -0.74108487 69 44 53
-0.16665006 -0.3970184 -0.74108571 70 42 49
-0.16663112 -0.40029928 -0.74223626 68 48 59
-0.16601941 -0.39662811 -0.74002022 69 41 50
-0.16608745 -0.39729586 -0.74035025 69 42 52
-0.16422005 -0.3999829 -0.73918515 73 49 60
-0.1659687 -0.39968446 -0.74094898 68 47 59
-0.16535826 -0.39949289 -0.74023795 70 47 58
-0.16483869 -0.39993241 -0.73982692 71 49 60
-0.16590859 -0.39756918 -0.74020344 69 43 53
-0.16507143 -0.39676353 -0.7392112 68 40 52
-0.16521375 -0.39699373 -0.73937875 69 41 52
-0.16659151 -0.40257123 -0.7424261 65 49 58
-0.16674195 -0.40094918 -0.74251115 68 49 59
-0.16642053 -0.40350375 -0.74220222 64 50 59
-0.1661392 -0.40280813 -0.74151117 66 51 61
-0.16311185 -0.40415469 -0.73878276 92 72 73
-0.16360772 -0.40425584 -0.73919362 88 70 72
-0.16347522 -0.40290338 -0.73895818 86 65 69
-0.16306837 -0.40414467 -0.73873973 93 73 73
-0.16361624 -0.40111905 -0.73880011 78 55 64
-0.16384605 -0.40090871 -0.73900819 76 53 63
-0.16406059 -0.40162677 -0.73936039 79 57 65
-0.16651177 -0.40569884 -0.74256456 67 51 59
-0.16638993 -0.40642869 -0.74233717 70 52 61
-0.15327704 -0.36735663 -0.72287631 71 40 50
-0.15242362 -0.36755493 -0.72185338 79 50 63
-0.15173064 -0.36901811 -0.72107071 72 51 75
-0.15042564 -0.36908588 -0.71955806 81 62 103
-0.15041552 -0.36756876 -0.71951562 93 68 104
-0.15194531 -0.36894998 -0.72131836 71 49 70
-0.15039751 -0.36841807 -0.71951199 86 65 104
-0.15027781 -0.36878604 -0.71939135 85 65 105
-0.1527295 -0.36995479 -0.72226125 68 48 61
-0.15280016 -0.37014791 -0.72235018 69 49 61
-0.15251949 -0.36923108 -0.7219916 66 44 59
-0.15275709 -0.3714979 -0.72234875 76 60 74
-0.15174136 -0.36972117 -0.72110647 74 55 80
-0.15308982 -0.36940596 -0.72265959 63 41 48
-0.15288818 -0.37049615 -0.7224648 70 51 62
-0.15227497 -0.37198749 -0.72184193 80 65 85
-0.15204807 -0.37247613 -0.72168118 81 65 86
-0.15168892 -0.37288827 -0.72137499 81 65 89
-0.15080354 -0.36978886 -0.72003114 80 63 99
-0.15180719 -0.37132227 -0.72127116 80 65 90
-0.15034683 -0.36983594 -0.71957219 81 63 103
-0.15021297 -0.37150794 -0.71967113 84 64 102
-0.14986742 -0.3714 -0.71929342 87 65 105
-0.15201895 -0.37394354 -0.72185743 85 65 87
-0.15091757 -0.37333715 -0.72065359 83 64 95
-0.1528728 -0.37440079 -0.72278893 86 66 80
-0.15184636 -0.37493101 -0.72181875 89 65 89
-0.15245424 -0.3757754 -0.72255373 93 66 84
-0.15234078 -0.37531728 -0.72237492 91 66 85
-0.15062487 -0.37379101 -0.72039664 87 67 100
-0.15122834 -0.37538567 -0.72119379 95 74 98
-0.15127528 -0.3754774 -0.72125328 96 74 98
-0.15133953 -0.3763414 -0.72139162 102 82 101
-0.15052678 -0.37443268 -0.7203365 92 75 104
-0.15018414 -0.37663966 -0.72013038 112 103 118
-0.14995447 -0.37662312 -0.71987993 115 107 120
-0.14996046 -0.37683219 -0.71990252 116 109 121
-0.14957373 -0.37314776 -0.71922809 92 69 106
-0.14984375 -0.37435761 -0.71959132 99 84 111
-0.15078574 -0.37703857 -0.7208246 110 97 112
-0.15102477 -0.37751999 -0.72111726 109 94 110
-0.15207569 -0.37944409 -0.72239375 106 83 101
-0.15266995 -0.37824491 -0.72299391 100 71 88
-0.15239932 -0.37866852 -0.72271407 102 76 93
-0.15190338 -0.37973469 -0.72221935 107 86 104
-0.15121789 -0.38053274 -0.72154915 118 99 118
-0.1508978 -0.37793028 -0.7209993 111 97 113
-0.15055807 -0.37787524 -0.72063124 114 102 118
-0.15151842 -0.38003805 -0.72183138 113 93 111
-0.15031898 -0.3802537 -0.72056425 125 112 131
-0.14985938 -0.37880749 -0.71995443 122 109 128
-0.15033679 -0.37818199 -0.72041845 117 106 123
-0.14938094 -0.37731668 -0.7193132 124 119 128
-0.14929977 -0.37828514 -0.71930528 127 118 131
-0.15191779 -0.38265154 -0.72263074 96 74 93
-0.15151583 -0.3819257 -0.72207636 106 87 106
-0.15188017 -0.38163114 -0.72241604 105 83 102
-0.15220888 -0.38186333 -0.72280759 100 76 95
-0.15179434 -0.38471326 -0.72283894 78 58 76
-0.15163784 -0.3842901 -0.72260016 83 64 82
-0.15132251 -0.38363424 -0.72214651 92 74 92
-0.15057363 -0.38307822 -0.72120839 102 88 103
-0.15028392 -0.38225543 -0.72076905 113 100 117
-0.14992879 -0.38395458 -0.72062361 98 87 101
-0.14993361 -0.38434598 -0.72068316 94 83 96
-0.14957471 -0.38446191 -0.72031367 96 86 101
-0.14987116 -0.38096347 -0.72014505 129 114 135
-0.15183809 -0.38524941 -0.72295374 76 56 74
-0.15124789 -0.38751775 -0.7225436 75 56 72
-0.15123305 -0.3872028 -0.7224893 76 57 73
-0.15147442 -0.38678306 -0.72271711 75 55 72
-0.15130444 -0.38850087 -0.72272784 72 51 68
-0.15084338 -0.38694081 -0.72201312 77 60 74
-0.15043226 -0.38809788 -0.72168761 72 54 71
-0.14999759 -0.38787836 -0.72119796 76 56 74
-0.15021025 -0.3873516 -0.7213583 76 58 75
-0.15038307 -0.38598531 -0.72137386 80 66 78
-0.14987893 -0.38779712 -0.7210626 78 57 75
-0.15029652 -0.38644472 -0.72133857 79 63 77
-0.14972939 -0.38513485 -0.72057122 89 77 91
-0.1489232 -0.38529921 -0.71972692 97 85 103
-0.14849864 -0.38484672 -0.71921045 103 96 116
-0.15108022 -0.39113835 -0.72271562 96 55 93
-0.15125269 -0.38911554 -0.7227298 75 51 72
-0.15128292 -0.38886699 -0.72274178 73 50 70
-0.15066004 -0.39022255 -0.72214025 85 53 84
-0.15092383 -0.3920114 -0.72257292 103 56 101
-0.14879131 -0.39159903 -0.72015578 119 115 117
-0.14981626 -0.39223534 -0.72126156 110 76 109
-0.14908637 -0.39073807 -0.72042865 107 103 105
-0.14930566 -0.3911213 -0.720676 107 95 106
-0.15000904 -0.39107794 -0.72141397 97 67 96
-0.14833331 -0.38869795 -0.7195369 89 57 84
-0.14797743 -0.39169779 -0.71930194 130 133 126
-0.14829868 -0.38924792 -0.71952617 96 71 92
-0.14823769 -0.39066783 -0.71952856 115 107 111
-0.14881906 -0.38952342 -0.72008926 95 76 91
-0.15075794 -0.39329168 -0.72243935 117 71 118
-0.15092704 -0.39304951 -0.72264475 115 67 114
-0.1505423 -0.39399052 -0.72222769 125 85 129
-0.15040158 -0.39873087 -0.72284371 152 126 151
-0.14761868 -0.39953306 -0.72001338 125 76 124
-0.14918701 -0.40008184 -0.72181046 138 98 130
-0.14714025 -0.39851585 -0.71929413 127 83 128
-0.14793676 -0.39943662 -0.72033602 129 84 127
-0.14819756 -0.39895028 -0.72051865 135 96 132
-0.14725557 -0.39862406 -0.71943998 127 83 128
-0.14736605 -0.39736319 -0.71930504 136 105 138
-0.14711501 -0.39813101 -0.71918958 129 88 131
-0.14975673 -0.4039225 -0.72236919 154 119 138
-0.14982639 -0.4042066 -0.72242332 154 122 138
-0.15008663 -0.40421492 -0.72267932 155 126 138
-0.15001307 -0.40145621 -0.72273713 148 113 135
-0.14913227 -0.40284029 -0.72180575 150 105 138
-0.14927462 -0.40202713 -0.72198236 148 105 137
-0.14920828 -0.40202323 -0.72191703 148 104 137
-0.14751689 -0.40127102 -0.72011214 128 68 124
-0.14766252 -0.40183574 -0.72029161 135 75 130
-0.14843597 -0.4005565 -0.7210716 130 80 124
-0.14781411 -0.40154955 -0.72044307 134 76 128
-0.14921528 -0.40075064 -0.72191757 140 96 131
-0.1470813 -0.40133163 -0.71964616 124 60 122
-0.14669657 -0.40219474 -0.71926731 129 59 127
-0.14731976 -0.40054804 -0.71987092 119 58 117
-0.15044796 -0.4050051 -0.72303057 151 124 132
-0.14835919 -0.40682903 -0.72095746 159 138 131
-0.14972012 -0.40693793 -0.72227049 147 116 124
-0.15031077 -0.40537238 -0.72287458 150 122 131
-0.14954251 -0.4053987 -0.72213155 157 133 134
-0.14892249 -0.4065282 -0.72150826 156 132 130
-0.1492292 -0.40768188 -0.72178018 147 117 121
-0.14805363 -0.40748668 -0.72064811 158 136 128
-0.14919512 -0.40486717 -0.7217952 156 124 137
-0.1484279 -0.40482664 -0.72103935 155 112 138
-0.14769664 -0.4065443 -0.72031444 162 136 134
-0.1480366 -0.40503171 -0.72065324 155 110 138
-0.14708671 -0.40444621 -0.71971875 150 83 141
-0.14680274 -0.40557656 -0.71943605 155 103 138
-0.14832605 -0.40511549 -0.72093827 156 116 138
-0.14950402 -0.41053101 -0.72202718 128 110 113
-0.14931725 -0.40985611 -0.72182751 133 109 116
-0.14947732 -0.40852863 -0.72199875 140 107 117
-0.14948507 -0.40839604 -0.72201037 140 107 117
-0.14916061 -0.40821066 -0.72170258 144 113 118
-0.16467869 -0.37443972 -0.73790693 52 35 44
-0.16455357 -0.37480527 -0.73773587 53 36 45
-0.16467659 -0.37633809 -0.73780417 54 39 49
-0.16469881 -0.37664533 -0.7378149 54 39 50
-0.16364574 -0.37638021 -0.73655188 56 42 51
-0.16487207 -0.37366956 -0.73818207 51 33 41
-0.16473055 -0.37468198 -0.737957 52 35 44
-0.16419457 -0.37399116 -0.73723811 58 40 49
-0.16488785 -0.37326583 -0.73815924 54 35 44
-0.16317157 -0.38004762 -0.7360943 53 34 49
-0.16447884 -0.38053176 -0.73749942 53 34 49
-0.16236685 -0.38003114 -0.73526037 52 32 49
-0.16338819 -0.38027132 -0.73634297 52 33 49
-0.16245228 -0.38032007 -0.73538059 51 31 48
-0.16332649 -0.37891376 -0.73613071 56 39 52
-0.16460863 -0.37981504 -0.73755884 55 38 51
-0.16539897 -0.37811047 -0.7385906 53 37 50
-0.16347657 -0.37736055 -0.73629636 57 43 53
-0.16399451 -0.377226 -0.73693109 56 42 52
-0.16321906 -0.37780049 -0.73596239 58 44 54
-0.16551074 -0.3800281 -0.73863149 53 35 50
-0.163295 -0.37696484 -0.73609573 57 44 53
-0.16454102 -0.37850598 -0.73753065 55 39 51
-0.16494681 -0.38143522 -0.738199 52 33 48
-0.16479985 -0.3810086 -0.73791403 52 33 49
-0.16430829 -0.38172671 -0.73762965 50 31 47
-0.1640366 -0.38233876 -0.73753953 49 30 45
-0.16325586 -0.38234434 -0.73673397 48 28 44
-0.16479079 -0.38090321 -0.73787183 53 33 49
-0.16425255 -0.38132164 -0.73744571 51 31 47
-0.16350019 -0.38356251 -0.73725104 46 28 42
-0.16223794 -0.38413969 -0.73517489 45 29 41
-0.16397966 -0.38412008 -0.73801136 45 28 41
-0.16262351 -0.38198522 -0.73588145 48 28 45
-0.16223697 -0.38254791 -0.73523158 47 28 44
-0.16301619 -0.38318858 -0.73647678 47 28 43
-0.16197112 -0.38288015 -0.73482245 48 29 43
-0.16444446 -0.38707474 -0.7384913 43 29 39
-0.16375221 -0.38514 -0.73757631 44 29 40
-0.16450545 -0.38818437 -0.73846895 43 29 38
-0.16363321 -0.3854515 -0.7373485 44 29 40
-0.16342534 -0.38609159 -0.73693985 44 29 39
-0.16354868 -0.38661289 -0.73708349 44 29 39
-0.16335849 -0.38759568 -0.7367897 44 28 39
-0.16264576 -0.38736907 -0.73577017 45 28 40
-0.16315196 -0.38804841 -0.73650712 44 28 39
-0.16297449 -0.38845873 -0.73626482 44 27 39
-0.1625516 -0.38589391 -0.73559964 44 29 39
-0.16396601 -0.38792631 -0.73766202 43 29 38
-0.16208069 -0.38809997 -0.73499012 46 27 40
-0.16203153 -0.38499188 -0.73484439 45 30 40
-0.16320223 -0.38927639 -0.73657036 49 31 43
-0.16308279 -0.38902077 -0.7364105 47 29 41
-0.16416346 -0.38935113 -0.73793471 48 32 42
-0.16425568 -0.39127803 -0.73799008 64 43 53
-0.16427682 -0.39112094 -0.73802638 62 43 52
-0.16447057 -0.39210549 -0.73826325 70 48 58
-0.16352832 -0.39140514 -0.73695195 63 42 52
-0.1626624 -0.38962004 -0.73578918 52 32 45
-0.16289625 -0.39210099 -0.73602897 63 43 49
-0.16277176 -0.39038071 -0.7359162 55 36 46
-0.16274557 -0.39204136 -0.73581731 62 42 48
-0.16432698 -0.39230901 -0.73805183 70 49 58
-0.16441724 -0.39464334 -0.73836726 68 44 55
-0.16435257 -0.39284292 -0.73810345 71 49 58
-0.16404235 -0.3940163 -0.73777533 67 44 54
-0.1634125 -0.39352226 -0.73683423 65 43 51
-0.16465265 -0.3931956 -0.73856306 72 49 59
-0.16416122 -0.39338642 -0.73788381 69 47 56
-0.16300802 -0.3958284 -0.73677957 66 43 55
-0.16253993 -0.39555883 -0.73617196 66 44 56
-0.1621653 -0.39349067 -0.7351985 62 43 49
-0.16312371 -0.39614597 -0.73699576 67 43 56
-0.16324128 -0.39536452 -0.73692513 65 42 53
-0.16201718 -0.39494932 -0.73541391 66 45 55
-0.16143686 -0.39569712 -0.73495597 71 46 60
-0.16119407 -0.39621386 -0.73481804 73 47 62
-0.16338031 -0.39791811 -0.73775518 70 46 59
-0.16417634 -0.39674017 -0.73835891 66 40 54
-0.16219021 -0.39649811 -0.73601782 68 47 61
-0.16241126 -0.39706549 -0.73642021 69 48 61
-0.16227886 -0.39675802 -0.7361877 69 47 61
-0.16275524 -0.39892367 -0.73715532 75 52 63
-0.16262408 -0.39799076 -0.73687434 71 49 62
-0.16307199 -0.39925382 -0.73770005 74 51 62
-0.162283 -0.39970934 -0.73643219 82 60 68
-0.16140811 -0.39999622 -0.73538536 90 68 77
-0.16115846 -0.39967823 -0.73508531 90 69 78
-0.16167945 -0.39828363 -0.73556817 80 59 70
-0.1611924 -0.39867225 -0.73505014 85 63 74
-0.16111675 -0.39691705 -0.73483407 76 50 66
-0.16316484 -0.40274569 -0.73856175 86 65 69
-0.16293214 -0.4007588 -0.73764718 81 58 66
-0.16281484 -0.40308124 -0.7380749 90 70 72
-0.16292779 -0.40197352 -0.73796481 86 64 69
-0.16247764 -0.40222454 -0.73729986 90 68 72
-0.16218866 -0.40110341 -0.73653322 88 66 71
-0.16144714 -0.40230799 -0.73586625 91 65 75
-0.16195509 -0.40418926 -0.73718816 91 68 73
-0.16144009 -0.40357614 -0.73626143 92 66 76
-0.16195573 -0.40348086 -0.73696274 90 67 73
-0.16094893 -0.40100536 -0.73500729 94 71 81
-0.16141479 -0.40102586 -0.73552936 91 67 77
-0.16164148 -0.4005529 -0.73570043 90 67 75
-0.16126648 -0.40469715 -0.7362746 95 69 78
-0.16030249 -0.40564087 -0.73497552 103 74 86
-0.16037591 -0.40505567 -0.73503697 100 70 84
-0.1604894 -0.4051393 -0.73520416 100 71 84
-0.1566875 -0.36865747 -0.72745442 54 28 55
-0.15648675 -0.36874998 -0.72723275 52 26 53
-0.15651394 -0.36784548 -0.72714835 52 27 51
-0.15656613 -0.36738998 -0.72715098 52 29 50
-0.15691575 -0.36710921 -0.72751528 53 31 50
-0.15670276 -0.36622581 -0.72716141 52 32 48
-0.15680443 -0.37285087 -0.72762126 69 43 60
-0.15686406 -0.36937508 -0.72771978 58 34 62
-0.156325 -0.37136942 -0.72702259 61 32 55
-0.15646678 -0.36979139 -0.72724158 56 29 56
-0.15651655 -0.37182349 -0.72723103 65 36 58
-0.15835731 -0.37631634 -0.7297343 90 66 72
-0.15830313 -0.37474209 -0.72968549 82 62 71
-0.15835945 -0.37542272 -0.72974581 84 63 71
-0.1566972 -0.37643045 -0.72766078 100 75 84
-0.15700656 -0.37536207 -0.72805941 92 70 81
-0.15774798 -0.37438262 -0.72899902 84 65 75
-0.15800817 -0.37526193 -0.72931653 88 67 75
-0.15722449 -0.37483159 -0.72833323 88 67 78
-0.15687653 -0.37472925 -0.72784233 86 62 74
-0.15666763 -0.3736138 -0.72748113 74 48 63
-0.15645294 -0.37327451 -0.72716081 70 42 59
-0.15712596 -0.37426144 -0.72816008 82 60 72
-0.15897503 -0.37844339 -0.73070502 73 47 62
-0.15863954 -0.37952864 -0.73048031 79 53 72
-0.15854996 -0.38059545 -0.73055929 74 47 72
-0.15733868 -0.37889674 -0.72878104 88 62 74
-0.15639786 -0.37995836 -0.7277692 85 59 71
-0.15678445 -0.3797873 -0.72823054 84 58 72
-0.15792319 -0.37921917 -0.72957861 84 58 74
-0.15634479 -0.380018 -0.72771204 84 59 71
-0.15792935 -0.37800279 -0.72937715 92 66 76
-0.15577319 -0.37984097 -0.72696412 87 61 74
-0.15590627 -0.37996796 -0.72715151 86 60 72
-0.15597114 -0.37933818 -0.72713101 90 64 76
-0.15730417 -0.37729049 -0.72847134 98 73 80
-0.15657602 -0.37931845 -0.72788638 88 62 72
-0.15864129 -0.3815859 -0.73081827 74 48 70
-0.15836173 -0.38389689 -0.73085892 78 54 66
-0.15758052 -0.38401169 -0.72987294 76 55 67
-0.15794587 -0.38138038 -0.72995502 72 47 72
-0.15679313 -0.38388449 -0.72881007 74 56 68
-0.1563392 -0.38450959 -0.72830415 74 59 68
-0.15627547 -0.38438678 -0.72820091 74 59 68
-0.15718006 -0.38384902 -0.72931743 75 56 68
-0.15789251 -0.38146839 -0.72989774 72 48 72
-0.15531662 -0.38457924 -0.72696602 73 61 69
-0.15546674 -0.38377938 -0.72706747 74 60 69
-0.15629478 -0.3820383 -0.7279247 76 54 70
-0.15797679 -0.38088217 -0.72993141 72 46 72
-0.15665422 -0.38205752 -0.72838318 74 53 70
-0.15812334 -0.38589698 -0.73084301 75 53 65
-0.15694274 -0.38640329 -0.72933841 70 53 66
-0.15638638 -0.38506451 -0.72844142 74 59 67
-0.15775621 -0.3880232 -0.7306096 66 46 64
-0.15643629 -0.38580239 -0.72859567 71 56 67
-0.15650754 -0.38524461 -0.72862345 74 58 67
-0.15748881 -0.38572735 -0.72998136 74 54 65
-0.15638395 -0.3863118 -0.72858703 69 54 66
-0.15495782 -0.38802335 -0.7270177 69 42 66
-0.15585394 -0.38832235 -0.72820836 67 42 65
-0.15566224 -0.3864823 -0.72768682 70 52 67
-0.15544352 -0.38570219 -0.72728997 71 56 68
-0.15702079 -0.38785198 -0.72962958 66 47 65
-0.15506805 -0.38741371 -0.72706705 70 46 66
-0.15658629 -0.38697881 -0.72894287 68 51 66
-0.15636697 -0.39076182 -0.72900468 79 59 79
-0.15775676 -0.39110675 -0.73062003 73 46 68
-0.157243 -0.39080569 -0.73002911 75 51 72
-0.15593056 -0.39195117 -0.72845078 85 64 84
-0.15697092 -0.39243761 -0.72965175 82 54 76
-0.15780292 -0.39088356 -0.73068213 72 46 68
-0.15637207 -0.39159766 -0.7289806 82 60 80
-0.15635823 -0.38936076 -0.72894174 70 48 70
-0.15501392 -0.3913025 -0.72732466 85 65 85
-0.15676521 -0.38883054 -0.72943431 66 43 65
-0.15667863 -0.39008844 -0.72938955 74 55 75
-0.15605029 -0.38891312 -0.72852457 68 43 66
-0.15504046 -0.39153194 -0.72737062 86 67 87
-0.1569774 -0.39484888 -0.72982675 73 45 74
-0.15729007 -0.39471149 -0.73020053 73 46 72
-0.15717241 -0.39508191 -0.73009449 73 46 73
-0.15634266 -0.39602968 -0.72916579 71 46 78
-0.15677895 -0.39568922 -0.72967124 72 46 75
-0.15767546 -0.39327922 -0.73052418 76 45 70
-0.15754075 -0.39612639 -0.73066574 70 47 70
-0.15606736 -0.39407295 -0.72865474 78 50 82
-0.15567482 -0.39407572 -0.72819519 80 54 85
-0.15694429 -0.39336142 -0.72965026 78 48 76
-0.15727389 -0.39318839 -0.73002863 78 46 73
-0.15563765 -0.39445844 -0.72816867 78 51 84
-0.15567078 -0.39392269 -0.72818363 81 55 85
-0.15628514 -0.39343005 -0.72888136 81 54 81
-0.15538484 -0.3998279 -0.72831571 117 106 109
-0.15729122 -0.39818737 -0.73061073 83 60 79
-0.15606537 -0.39873371 -0.72906077 102 88 96
-0.15718949 -0.39930585 -0.73063874 90 65 84
-0.15571517 -0.39966342 -0.72873086 112 98 104
-0.15594098 -0.3985087 -0.72886252 102 90 97
-0.15661503 -0.39978555 -0.72994506 100 79 93
-0.15654823 -0.39670476 -0.72948653 73 51 78
-0.15537618 -0.39701968 -0.72805202 80 57 89
-0.15637046 -0.39710936 -0.72929448 80 60 83
-0.15517771 -0.39691335 -0.72779763 78 55 89
-0.15667993 -0.39719146 -0.72968507 81 62 81
-0.15483162 -0.39866209 -0.72749263 107 93 106
-0.15573284 -0.39793763 -0.7285611 94 78 94
-0.15721826 -0.4005838 -0.73083156 97 69 87
-0.16792478 -0.37660488 -0.74302846 59 41 51
-0.16934873 -0.37633717 -0.74515647 55 36 43
-0.16850567 -0.37549916 -0.74406964 55 36 44
-0.16771959 -0.37521455 -0.74298877 56 37 43
-0.17031054 -0.38064232 -0.7461372 70 52 64
-0.170083 -0.37858066 -0.74597651 61 43 53
-0.16934863 -0.38049394 -0.74458331 63 46 59
-0.16851231 -0.38078427 -0.74349087 59 44 56
-0.16913638 -0.37899089 -0.74456966 57 40 50
-0.16893244 -0.37892848 -0.74432558 56 38 49
-0.16978516 -0.37909329 -0.7453624 61 43 54
-0.16802238 -0.37701407 -0.74310941 59 41 52
-0.16909003 -0.37833947 -0.74460453 55 38 47
-0.16837275 -0.3794409 -0.74350011 56 39 50
-0.16833459 -0.37976086 -0.74342823 55 39 50
-0.16818476 -0.37835205 -0.74327976 57 40 51
-0.16854572 -0.37898657 -0.7437759 56 39 49
-0.17010011 -0.38242558 -0.74617505 60 43 55
-0.1702321 -0.38171205 -0.7462216 65 47 60
-0.1688433 -0.38094115 -0.74392021 61 45 57
-0.16965203 -0.38439593 -0.74613404 46 30 41
-0.16880323 -0.38169748 -0.74413383 56 41 53
-0.16945463 -0.38317791 -0.74546307 52 36 47
-0.16902547 -0.38241467 -0.74466127 54 38 50
-0.16722442 -0.38426429 -0.74265712 48 30 42
-0.16762137 -0.38349244 -0.74302036 49 32 44
-0.16874515 -0.38307518 -0.74450707 49 34 45
-0.16773136 -0.38150069 -0.74265981 54 39 51
-0.1674376 -0.38451388 -0.74302441 47 29 41
-0.16788156 -0.38383287 -0.74347794 48 31 43
-0.16938978 -0.38656619 -0.74596852 44 29 38
-0.16808662 -0.38811684 -0.74396682 43 30 37
-0.16958912 -0.38754895 -0.74642676 43 29 37
-0.16801408 -0.38823339 -0.74385917 43 30 37
-0.16878882 -0.3868655 -0.74499363 44 29 38
-0.16773246 -0.38821489 -0.74338251 44 30 37
-0.16889708 -0.38581282 -0.74510652 44 29 39
-0.16847897 -0.38587207 -0.74450999 45 29 39
-0.16721715 -0.38836744 -0.74258852 44 30 37
-0.16963106 -0.38483882 -0.74619925 45 29 39
-0.16892359 -0.38583127 -0.74514318 44 29 39
-0.16754116 -0.38518 -0.7432152 46 29 40
-0.16801944 -0.39247796 -0.74333322 63 41 47
-0.16945347 -0.39042345 -0.74573642 49 32 39
-0.16870663 -0.39154744 -0.74447018 56 37 43
-0.16891135 -0.39024261 -0.74516135 51 34 41
-0.16838381 -0.39085484 -0.74431241 55 37 44
-0.16837354 -0.39016113 -0.74436969 51 35 41
-0.16727737 -0.38900891 -0.74263912 45 32 38
-0.1677445 -0.39182749 -0.74314272 61 42 47
-0.16766337 -0.38961849 -0.74322808 49 34 40
-0.16814515 -0.39053202 -0.74394768 54 36 43
-0.16746645 -0.39248881 -0.74260795 65 44 49
-0.16881573 -0.39321083 -0.74425596 61 37 42
-0.16826898 -0.39274383 -0.74360764 62 40 45
-0.16790541 -0.39861372 -0.7437405 72 44 47
-0.16766459 -0.40015632 -0.74402267 72 47 54
-0.16772383 -0.39776137 -0.74300814 71 43 46
-0.16729665 -0.39928195 -0.74293852 70 46 53
-0.16752692 -0.39944747 -0.74343807 71 46 52
-0.16778165 -0.39943564 -0.74389917 72 46 51
-0.16732371 -0.40335518 -0.74383628 66 48 54
-0.16779873 -0.40238628 -0.74460149 70 47 52
-0.16862668 -0.40157497 -0.7460134 73 45 49
-0.1684854 -0.40167248 -0.74576885 73 45 49
-0.16723755 -0.40355629 -0.74369973 66 48 55
-0.16699067 -0.40312541 -0.74320716 66 49 56
-0.1675301 -0.40048623 -0.74389708 71 48 55
-0.16817799 -0.40108472 -0.74515176 73 47 51
-0.16718334 -0.40234011 -0.74347138 68 48 56
-0.16761988 -0.40206352 -0.74423987 70 48 53
-0.16682984 -0.40355217 -0.74296075 65 49 57
-0.16691017 -0.40517601 -0.74324375 66 48 57
-0.16731121 -0.40594348 -0.74401939 69 47 57
-0.16738747 -0.40466267 -0.74406147 64 46 55
-0.16659674 -0.40499753 -0.74266875 65 50 58
-0.16716488 -0.40651408 -0.74379921 71 48 58
-0.16655822 -0.40578234 -0.74265766 67 50 59
-0.14965162 -0.36808777 -0.71869689 97 76 112
-0.14879677 -0.37434766 -0.71844488 116 97 119
-0.14936006 -0.37383443 -0.71904284 100 80 112
-0.14897932 -0.37470448 -0.71867591 114 98 119
-0.14842376 -0.37433979 -0.71802413 123 103 122
-0.14896822 -0.37458694 -0.71865505 114 97 119
-0.14917552 -0.37445343 -0.71887904 109 91 116
-0.14804824 -0.38625127 -0.71889192 99 80 105
-0.14808023 -0.38592824 -0.71888244 100 83 107
-0.14775059 -0.38597575 -0.71850157 100 79 105
-0.14750263 -0.38841248 -0.7185477 106 72 102
-0.14787437 -0.38978755 -0.71909696 108 87 103
-0.14735886 -0.38891199 -0.71841776 117 85 113
-0.14690624 -0.38947758 -0.7178942 140 115 137
-0.14661647 -0.3913185 -0.7178095 162 160 158
-0.14685321 -0.3902764 -0.71791035 149 134 146
-0.14670126 -0.39879236 -0.71888983 128 78 128
-0.14658776 -0.4002184 -0.71904659 112 47 113
-0.14623411 -0.40341917 -0.71882933 142 71 138
-0.1459848 -0.40096885 -0.71847278 118 58 120
-0.14626591 -0.40364581 -0.71887147 144 72 140
-0.14642715 -0.40155274 -0.71895808 121 52 120
-0.14528021 -0.40261081 -0.7178005 141 88 142
-0.14484091 -0.40268791 -0.71734428 145 99 148
-0.14523487 -0.40238014 -0.71774411 139 87 141
-0.14520644 -0.40110672 -0.71766919 132 83 133
-0.14561282 -0.4011021 -0.71809065 125 70 126
-0.14643309 -0.40494886 -0.71906835 151 84 141
-0.14637357 -0.40630922 -0.71900088 158 112 137
-0.14575624 -0.4046146 -0.71835166 152 85 148
-0.16060472 -0.3768796 -0.73260152 65 45 54
-0.16110004 -0.3769334 -0.73327857 62 45 54
-0.16209513 -0.37753424 -0.73469311 57 44 54
-0.16167028 -0.37743554 -0.73410517 59 44 54
-0.16172384 -0.37883818 -0.73433334 56 37 51
-0.16044548 -0.37859461 -0.73258001 61 36 49
-0.16115104 -0.37722957 -0.73338115 61 44 53
-0.16190587 -0.37983048 -0.73468935 53 32 50
-0.16167666 -0.37938556 -0.73433042 55 34 50
-0.16143972 -0.3776437 -0.73381698 59 42 53
-0.15941921 -0.3781608 -0.73120773 68 42 55
-0.15982126 -0.3792434 -0.73189896 65 39 56
-0.1592855 -0.37872142 -0.73113489 69 43 58
-0.15924874 -0.37922686 -0.73117483 69 43 61
-0.15953702 -0.38083363 -0.73181224 67 41 66
-0.15949379 -0.3795453 -0.73153794 67 41 60
-0.16137332 -0.38009816 -0.73400033 54 30 48
-0.16057262 -0.38283494 -0.73334748 60 38 53
-0.16105376 -0.38359079 -0.73383021 55 36 48
-0.16029039 -0.38422012 -0.73301482 61 42 52
-0.16162774 -0.38197315 -0.73447418 52 30 47
-0.16182096 -0.38176742 -0.73468179 50 29 46
-0.16070741 -0.38370228 -0.73346496 58 38 50
-0.16188461 -0.38303503 -0.73471409 48 30 43
-0.15952262 -0.383048 -0.73217535 69 46 59
-0.16040893 -0.3818725 -0.73308963 62 38 56
-0.16015464 -0.38201782 -0.73279428 64 40 58
-0.16119809 -0.38136831 -0.73399705 56 32 51
-0.15969472 -0.38181379 -0.7321797 67 42 62
-0.15993848 -0.38116536 -0.73237509 65 39 62
-0.15831648 -0.38701242 -0.73119068 70 48 64
-0.15898837 -0.38638717 -0.73175138 70 48 60
-0.15950097 -0.38658455 -0.73225993 67 45 57
-0.15977314 -0.38692084 -0.73255765 64 43 55
-0.15954848 -0.38843951 -0.7325269 59 38 56
-0.15842608 -0.38866985 -0.73149276 63 42 62
-0.15856183 -0.38545498 -0.7312367 76 53 63
-0.16124599 -0.38650748 -0.73404282 53 34 45
-0.1616893 -0.38798457 -0.73454314 49 30 43
-0.15986952 -0.38616183 -0.73259467 65 44 54
-0.16053364 -0.38582346 -0.73328084 59 40 50
-0.16112579 -0.38645706 -0.73391581 54 35 46
-0.1597936 -0.3862713 -0.73251802 66 44 55
-0.16024627 -0.38550055 -0.73297226 61 42 51
-0.16161233 -0.38670883 -0.73443091 49 31 43
-0.15814191 -0.38828599 -0.73115426 65 44 64
-0.15995252 -0.39040866 -0.73289198 62 41 55
-0.16082649 -0.38900769 -0.73375505 53 33 48
-0.16065456 -0.39004686 -0.73356545 58 37 50
-0.15946546 -0.38951588 -0.73245436 61 40 57
-0.16059923 -0.38997996 -0.73351485 58 37 51
-0.16118595 -0.39066133 -0.73405224 57 37 48
-0.16039534 -0.39071733 -0.73330289 61 40 53
-0.16056034 -0.39256197 -0.73338026 67 41 54
-0.16052939 -0.39114064 -0.73341721 62 41 53
-0.15906005 -0.39178091 -0.73196501 71 43 62
-0.1595009 -0.39155963 -0.73240209 68 42 59
-0.15903232 -0.39137217 -0.73195744 69 43 62
-0.15941854 -0.39056572 -0.73236918 65 42 59
-0.15867306 -0.39182186 -0.7315886 73 43 65
-0.16168909 -0.39242727 -0.73447895 61 40 47
-0.15798908 -0.38895026 -0.73098511 64 43 64
-0.1596165 -0.39278108 -0.7325117 72 43 61
-0.15883684 -0.39323732 -0.73185974 76 45 67
-0.16098583 -0.39309293 -0.7339071 66 42 53
-0.16006184 -0.39365157 -0.73313856 72 44 61
-0.16006067 -0.39280814 -0.73294765 70 42 58
-0.15970926 -0.39409131 -0.73289627 75 45 64
-0.15861066 -0.39269975 -0.73151994 76 44 66
-0.15939298 -0.39447001 -0.73264545 76 46 66
-0.15872338 -0.39613801 -0.73209721 73 47 65
-0.15955555 -0.39521557 -0.73291433 75 47 66
-0.15979278 -0.39533231 -0.73319215 75 47 65
-0.16048177 -0.39639321 -0.73408401 74 47 64
-0.15886964 -0.39417997 -0.7320289 76 46 67
-0.15783413 -0.39550576 -0.73096359 71 47 68
-0.1600844 -0.39667508 -0.7336666 74 49 65
-0.16044901 -0.39891633 -0.73423702 87 64 76
-0.1588652 -0.39657444 -0.73230249 73 48 65
-0.15970235 -0.3986074 -0.73338348 85 62 75
-0.15935007 -0.39715829 -0.73288494 76 52 68
-0.15909831 -0.39838666 -0.73272449 82 59 74
-0.15851 -0.39740348 -0.73199207 76 53 70
-0.15987198 -0.39989793 -0.73371506 91 68 81
-0.1588431 -0.39996764 -0.73265803 88 64 81
-0.15887816 -0.39937755 -0.73262048 85 62 78
-0.1581966 -0.39774194 -0.73170853 77 53 71
-0.15796524 -0.39785701 -0.73143846 79 54 72
-0.15790655 -0.39701384 -0.73124897 74 50 69
-0.16017257 -0.40058532 -0.73411918 94 71 83
-0.15909488 -0.40066487 -0.7330156 90 67 83
-0.1600641 -0.40253422 -0.73431849 95 67 83
-0.15917087 -0.40196198 -0.7333017 92 64 83
-0.15982229 -0.40093157 -0.73381174 93 69 83
-0.15883659 -0.40093306 -0.73279095 90 65 83
-0.15898873 -0.40215397 -0.73310536 92 64 83
-0.15872042 -0.40324852 -0.73274863 99 69 87
-0.15845093 -0.40094829 -0.73238164 89 64 83
-0.15898567 -0.40255457 -0.73310226 94 65 84
-0.15948436 -0.40307072 -0.73377174 94 64 84
-0.15798208 -0.40219977 -0.73176086 98 72 88
-0.15795271 -0.40161851 -0.73172057 95 70 87
-0.1576229 -0.40071282 -0.73132873 94 67 86
-0.15811811 -0.40052143 -0.73194116 89 64 83
-0.15998735 -0.40457368 -0.73446798 99 67 85
-0.17076872 -0.38026309 -0.74728131 68 49 60
-0.17124282 -0.37970051 -0.74847174 63 43 51
-0.17141241 -0.38046253 -0.74859804 66 45 52
-0.17106725 -0.37980711 -0.74806255 65 45 54
-0.17096786 -0.37865996 -0.74811941 60 41 48
-0.17045766 -0.37788746 -0.74697071 57 38 45
-0.17073007 -0.38003749 -0.74726188 67 49 59
-0.17052329 -0.38457066 -0.74744892 50 32 42
-0.17016447 -0.38439259 -0.74684298 49 32 42
-0.17020346 -0.38346994 -0.74668068 55 37 49
-0.17073399 -0.38190106 -0.74712503 68 48 60
-0.17076029 -0.38344559 -0.74753881 59 40 50
-0.17081636 -0.38173628 -0.74721307 70 50 61
-0.17022115 -0.38302323 -0.74660027 57 40 52
-0.17118594 -0.38142118 -0.74796319 69 48 57
-0.17119397 -0.3820588 -0.74795032 69 48 58
-0.17052925 -0.38573959 -0.74792451 49 31 40
-0.17064479 -0.3872067 -0.74854016 49 31 39
-0.17063901 -0.38793859 -0.74861884 49 31 39
-0.17027812 -0.38692078 -0.74768174 46 30 39
-0.17006285 -0.38644376 -0.7471391 45 30 38
-0.1698304 -0.38685101 -0.74672586 43 29 38
-0.17063947 -0.38889685 -0.74862832 49 31 38
-0.17000109 -0.38887459 -0.74720436 44 29 37
-0.17021988 -0.38890105 -0.74768543 46 30 37
0 0 0 1 0 0 0 1 0 0 0 1 0 0 0 0 0 836 1 0 0
