ply
format ascii 1.0
comment PCL generated
element vertex 996
property float x
property float y
property float z
property uchar red
property uchar green
property uchar blue
element camera 0
property float view_px
property float view_py
property float view_pz
property float x_axisx
property float x_axisy
property float x_axisz
property float y_axisx
property float y_axisy
property float y_axisz
property float z_axisx
property float z_axisy
property float z_axisz
property float focal
property float scalex
property float scaley
property float centerx
property float centery
property int viewportx
property int viewporty
property float k1
property float k2
end_header
-0.13358323 -0.36701736 -0.70233428 155 136 146
-0.13056238 -0.36738259 -0.69976127 151 132 141
-0.13061094 -0.36639056 -0.69974619 149 131 136
-0.13151959 -0.37285233 -0.70107418 164 142 163
-0.13352013 -0.37298644 -0.70289445 161 139 156
-0.13387011 -0.37171882 -0.70303541 160 138 156
-0.13248953 -0.37273526 -0.70193166 162 140 160
-0.13246721 -0.37173524 -0.70177412 162 140 161
-0.13447988 -0.37074903 -0.70345128 158 137 155
-0.13101476 -0.37061906 -0.70036775 159 139 157
-0.13298875 -0.36955366 -0.70197713 158 137 156
-0.13158524 -0.37082753 -0.70089132 160 139 158
-0.13285562 -0.37099901 -0.70202404 161 139 161
-0.13103497 -0.36960068 -0.70027024 157 138 153
-0.13086179 -0.36959875 -0.70011824 157 138 153
-0.13276495 -0.36970767 -0.70179844 158 138 156
-0.13107648 -0.37067041 -0.70042765 160 139 157
-0.13005272 -0.37268654 -0.69986594 165 142 162
-0.13067412 -0.37288272 -0.70034999 165 142 164
-0.13053842 -0.36941537 -0.69985896 156 136 150
-0.13387363 -0.37438804 -0.70344537 173 153 173
-0.13383865 -0.37354553 -0.703273 165 144 161
-0.13214377 -0.37322775 -0.7016933 165 143 163
-0.13315111 -0.3741625 -0.70275688 172 152 172
-0.13274235 -0.37452427 -0.7024492 176 157 179
-0.13241321 -0.37453404 -0.7021544 177 157 180
-0.1313711 -0.37685576 -0.7016601 202 188 209
-0.13091002 -0.37537596 -0.70098281 189 171 192
-0.13190326 -0.37577698 -0.7019245 190 173 196
-0.13342765 -0.37689885 -0.70346373 197 183 208
-0.1321502 -0.37587124 -0.70215756 190 174 197
-0.1297363 -0.37625521 -0.70022595 194 180 195
-0.13068557 -0.37372845 -0.70049721 172 151 172
-0.13027622 -0.37551922 -0.70051038 188 172 190
-0.13071109 -0.37416923 -0.70059896 176 156 178
-0.12961367 -0.37480763 -0.69987291 180 163 179
-0.12905672 -0.37605214 -0.69966573 190 177 190
-0.1328162 -0.37860894 -0.70317203 202 190 208
-0.13323867 -0.3781513 -0.70347673 200 188 208
-0.13191745 -0.37780502 -0.70227456 203 190 209
-0.13157244 -0.37738115 -0.70191395 203 190 210
-0.13170886 -0.37756789 -0.70205921 203 190 209
-0.13221879 -0.37984842 -0.7028293 206 196 208
-0.13097699 -0.37865773 -0.70160669 206 197 209
-0.13255292 -0.38036615 -0.70319045 206 197 207
-0.13122025 -0.38022813 -0.70206428 207 202 207
-0.13052398 -0.37822536 -0.70117551 205 195 209
-0.12942554 -0.37902352 -0.70044351 203 195 208
-0.13049579 -0.37787268 -0.70109594 205 193 209
-0.13061535 -0.37807491 -0.70122272 205 194 209
-0.12892875 -0.38063443 -0.70031625 204 201 206
-0.12891319 -0.37831658 -0.69993085 200 192 203
-0.12958999 -0.37705332 -0.70025736 200 189 203
-0.12899244 -0.37723222 -0.69981992 199 189 200
-0.13123339 -0.38165206 -0.70230263 205 200 202
-0.13257949 -0.3809233 -0.70330292 207 198 206
-0.13117003 -0.38163781 -0.70224792 205 200 202
-0.13231944 -0.38104618 -0.70310682 206 199 205
-0.1309163 -0.3824999 -0.70217103 203 200 198
-0.13143496 -0.38396925 -0.70283163 196 190 190
-0.13049212 -0.38401917 -0.70205736 198 194 192
-0.13063695 -0.3844384 -0.70224196 197 194 190
-0.12822671 -0.38424516 -0.70022511 196 178 198
-0.12781319 -0.3847551 -0.69996357 195 174 196
-0.12765129 -0.38448834 -0.69978857 196 173 198
-0.12948328 -0.38262776 -0.70100921 202 191 202
-0.12813096 -0.38102204 -0.69974631 202 199 205
-0.12882499 -0.38169888 -0.7003727 202 195 204
-0.12892893 -0.38250256 -0.70055115 201 190 203
-0.12979729 -0.38192302 -0.70116287 204 196 204
-0.12804441 -0.38231277 -0.69983399 200 189 203
-0.1319582 -0.38531387 -0.70346063 193 182 186
-0.13143153 -0.38528693 -0.70301872 194 188 187
-0.13150972 -0.38485584 -0.70302922 194 187 186
-0.13101652 -0.38861793 -0.70306766 202 190 189
-0.1274289 -0.38677251 -0.69992942 191 164 196
-0.1280002 -0.38479912 -0.70012403 195 175 196
-0.12892598 -0.38506991 -0.70092511 194 180 193
-0.12846096 -0.38615513 -0.70069373 192 173 193
-0.12743595 -0.38759905 -0.70005542 189 162 195
-0.12810525 -0.38686064 -0.70050156 191 168 194
-0.12849075 -0.38727102 -0.70087743 191 171 193
-0.13007355 -0.388405 -0.7022751 200 184 192
-0.12880178 -0.38770133 -0.7011764 193 173 193
-0.12896626 -0.38772395 -0.70131052 194 175 193
-0.13062377 -0.38784292 -0.70264888 201 190 190
-0.12803878 -0.38825482 -0.70063168 191 166 195
-0.13132694 -0.38934478 -0.70342296 200 185 190
-0.12711644 -0.39152807 -0.70021987 196 176 200
-0.12749958 -0.39187559 -0.70056432 198 179 200
-0.12866376 -0.39160556 -0.70148349 199 178 200
-0.12886146 -0.39073956 -0.70156085 197 172 200
-0.12881364 -0.39218876 -0.70166111 201 183 201
-0.12860201 -0.391664 -0.70143896 199 179 200
-0.12860423 -0.39080235 -0.70135802 196 172 200
-0.12981069 -0.3898398 -0.70222342 200 181 196
-0.12942554 -0.38924637 -0.70185113 198 178 194
-0.12830862 -0.3887462 -0.70090425 193 168 195
-0.13056497 -0.39199448 -0.70306063 204 185 201
-0.12944807 -0.38979256 -0.70192856 198 177 196
-0.12927309 -0.39001667 -0.70181316 198 176 197
-0.12646195 -0.39254355 -0.69984335 201 187 203
-0.12694205 -0.38981596 -0.69991523 191 164 198
-0.12999727 -0.39489269 -0.70288432 210 197 208
-0.12945408 -0.39489177 -0.70245665 207 193 205
-0.13014066 -0.3956373 -0.70306265 214 204 213
-0.13059355 -0.39526972 -0.70338678 215 205 214
-0.1299447 -0.39584294 -0.70292652 213 203 212
-0.12968931 -0.39587411 -0.70272821 212 202 211
-0.12714931 -0.39603743 -0.70073706 201 184 198
-0.12781067 -0.39467207 -0.7011202 201 184 199
-0.13065892 -0.39260855 -0.70320004 205 187 202
-0.12763348 -0.39578006 -0.70110112 201 184 198
-0.1271524 -0.3951256 -0.70063686 200 184 199
-0.12794994 -0.39441887 -0.70120466 201 185 200
-0.12970655 -0.39340943 -0.70251703 204 186 201
-0.12649953 -0.39475855 -0.70008695 199 183 200
-0.12681641 -0.39333448 -0.70016879 199 183 200
-0.1261892 -0.39340937 -0.69973105 201 187 203
-0.12788187 -0.39653063 -0.70136017 205 191 203
-0.12991308 -0.39736485 -0.70297718 211 202 212
-0.12965606 -0.39796078 -0.70278782 207 196 209
-0.13017467 -0.39675352 -0.70316976 216 208 216
-0.1304187 -0.39998472 -0.70343214 201 189 206
-0.12956516 -0.39703345 -0.70269608 211 201 211
-0.12996046 -0.39825073 -0.70303375 207 197 209
-0.12820974 -0.39995456 -0.70166761 204 192 198
-0.12698062 -0.39735341 -0.70065856 202 186 197
-0.1274018 -0.39955112 -0.70101702 206 193 196
-0.12883168 -0.39929965 -0.70215899 202 188 201
-0.12771793 -0.3988184 -0.70126289 203 189 198
-0.12915219 -0.39918897 -0.70241439 200 187 202
-0.12904878 -0.40030661 -0.70234251 203 191 201
-0.12683491 -0.39966336 -0.70057416 206 192 193
-0.12611529 -0.39930138 -0.70005423 197 176 183
-0.12666027 -0.40036997 -0.70045573 205 190 189
-0.1259903 -0.39793351 -0.69993174 197 177 189
-0.12570421 -0.39653599 -0.69967479 199 182 200
-0.12925185 -0.40192321 -0.70258027 203 194 199
-0.13013968 -0.40244403 -0.70331609 201 192 202
-0.12846327 -0.40196884 -0.70195132 205 196 196
-0.12793522 -0.40061051 -0.70146275 206 194 197
-0.12880163 -0.4007819 -0.70216453 204 193 199
-0.12840402 -0.40197384 -0.70190418 205 196 196
-0.12894918 -0.40345949 -0.70243067 199 188 195
-0.12848748 -0.40383241 -0.70210201 194 177 191
-0.12736796 -0.4034768 -0.7012127 190 166 186
-0.12702256 -0.40378112 -0.70096874 186 158 183
-0.1279901 -0.40198615 -0.70158285 203 192 194
-0.12663963 -0.40335509 -0.70063865 187 161 183
-0.12652194 -0.40248364 -0.70048249 192 171 185
-0.12662783 -0.4032653 -0.7006228 187 162 183
-0.12609573 -0.40050074 -0.70005578 198 179 181
-0.12656437 -0.40080094 -0.7004056 202 187 189
-0.12867448 -0.40580502 -0.70237386 192 176 190
-0.1282042 -0.40491289 -0.70195591 189 169 187
-0.1300094 -0.40586218 -0.70340669 199 194 197
-0.12990458 -0.40555164 -0.70330662 198 192 197
-0.13010189 -0.40522033 -0.70343822 199 194 198
-0.12885483 -0.40543315 -0.70248985 193 178 191
-0.12827262 -0.40638056 -0.70207542 190 172 186
-0.12938927 -0.40806034 -0.70302546 197 190 191
-0.12772955 -0.40531614 -0.7016142 187 163 185
-0.12742859 -0.40511879 -0.70135725 185 159 182
-0.1259526 -0.40479437 -0.70018041 178 150 176
-0.12643839 -0.40512645 -0.70056719 182 154 176
-0.12657148 -0.40509969 -0.70067078 183 154 177
-0.12939095 -0.40888369 -0.70300466 193 181 186
-0.12882467 -0.40955254 -0.70249861 188 168 175
-0.12893899 -0.40825573 -0.70263797 195 185 186
-0.12914044 -0.4097876 -0.70276135 188 167 176
-0.12968203 -0.40896925 -0.70325106 194 183 188
-0.12878099 -0.41047186 -0.70243198 183 155 167
-0.13007578 -0.41827878 -0.70323896 150 113 116
-0.13002466 -0.41660452 -0.70322102 137 93 116
-0.13001065 -0.41607705 -0.70321703 133 87 116
-0.12948839 -0.41719484 -0.70278233 148 114 123
-0.13037902 -0.41622132 -0.70351076 130 79 112
-0.12960184 -0.42109212 -0.70279688 144 121 113
-0.13044165 -0.42126852 -0.70348799 147 119 108
-0.13053779 -0.42480215 -0.70350975 133 110 99
-0.14591922 -0.35715756 -0.71430069 128 94 128
-0.14666992 -0.36115426 -0.71518242 125 102 123
-0.1454452 -0.35956857 -0.7138713 134 104 130
-0.14401442 -0.36034575 -0.71234566 141 116 129
-0.14565542 -0.35938504 -0.71409535 133 102 131
-0.14383148 -0.36101964 -0.71215206 142 120 127
-0.14446163 -0.3600601 -0.71282238 139 112 129
-0.1461045 -0.36073124 -0.71457827 130 105 127
-0.14417952 -0.36104134 -0.71252376 140 118 127
-0.14558621 -0.35826239 -0.71400338 133 99 133
-0.14557636 -0.35838917 -0.71400273 133 99 133
-0.14341858 -0.36056268 -0.71168071 145 124 127
-0.14408335 -0.35959184 -0.71237046 142 118 128
-0.14343461 -0.3597891 -0.7116335 147 128 126
-0.14340748 -0.36065882 -0.711676 144 124 127
-0.14530797 -0.36352247 -0.71383017 136 117 132
-0.14536203 -0.36277294 -0.71385735 134 113 130
-0.14428373 -0.36396846 -0.71276587 139 118 133
-0.14420329 -0.36514851 -0.71272796 142 125 137
-0.14519389 -0.36304799 -0.7136907 135 114 131
-0.14430429 -0.36376357 -0.71277934 138 117 132
-0.14310296 -0.3651816 -0.71156675 144 124 136
-0.14403301 -0.3618696 -0.71239525 140 120 128
-0.14338514 -0.361653 -0.71169257 144 124 127
-0.14360812 -0.36330914 -0.71201396 142 122 131
-0.14387946 -0.361698 -0.7122227 141 121 127
-0.1432565 -0.36395523 -0.71167105 143 123 133
-0.1435708 -0.36216128 -0.71191639 143 123 128
-0.14515293 -0.36527908 -0.7137382 142 126 138
-0.14614674 -0.36623937 -0.71486348 145 128 138
-0.14582491 -0.36817333 -0.71467519 154 132 137
-0.14441369 -0.36540344 -0.71296698 143 126 137
-0.14640665 -0.36535653 -0.71506888 140 127 138
-0.14401096 -0.36629128 -0.71261108 148 127 137
-0.14567469 -0.36810273 -0.71451086 154 132 137
-0.14328864 -0.36782578 -0.71191126 157 140 148
-0.14399458 -0.36834466 -0.71270561 159 140 147
-0.14578606 -0.36891195 -0.71468294 158 135 139
-0.14405949 -0.3672691 -0.71272087 153 133 141
-0.1451226 -0.36845309 -0.71393782 157 135 141
-0.14513388 -0.36794165 -0.71392375 154 132 138
-0.14352126 -0.36811176 -0.71217895 158 141 149
-0.1443121 -0.3726618 -0.71329069 157 130 139
-0.14443724 -0.37188882 -0.71339917 158 132 141
-0.14341655 -0.37180239 -0.71225178 161 138 147
-0.14430507 -0.37134814 -0.71322876 159 134 144
-0.14460476 -0.37244853 -0.71360993 157 129 139
-0.14387657 -0.3724449 -0.71279377 159 133 142
-0.1436128 -0.37204525 -0.71248168 160 136 145
-0.14469336 -0.37063262 -0.71361029 159 135 144
-0.14429367 -0.37050509 -0.71316677 160 138 146
-0.14485908 -0.37081453 -0.71380317 158 134 142
-0.14445406 -0.37083396 -0.71336412 159 136 145
-0.1457703 -0.37174484 -0.71485877 155 125 134
-0.14590979 -0.36942092 -0.7148487 159 135 139
-0.14527902 -0.37160674 -0.71431494 156 128 138
-0.1442441 -0.3743211 -0.71337634 163 144 152
-0.14509459 -0.37342784 -0.71422696 157 128 138
-0.14369948 -0.37341422 -0.71266145 160 136 145
-0.14327997 -0.37385428 -0.71224183 163 144 152
-0.14435454 -0.3751049 -0.71359038 166 153 160
-0.1456504 -0.3751168 -0.71504438 162 146 154
-0.14560685 -0.37538239 -0.71502614 164 150 157
-0.14350797 -0.37598109 -0.71284777 171 156 170
-0.14277889 -0.37650567 -0.71217906 175 156 177
-0.14292681 -0.37491119 -0.71205342 168 148 162
-0.14349566 -0.37621826 -0.71287656 172 157 173
-0.14387971 -0.37553161 -0.71315676 169 155 165
-0.14273642 -0.37647992 -0.71213025 175 156 177
-0.14241393 -0.37679356 -0.7118575 177 157 180
-0.14247642 -0.37591857 -0.71176571 173 152 172
-0.14490613 -0.37972233 -0.71479493 155 139 166
-0.1436909 -0.37720379 -0.71323812 173 159 178
-0.14385782 -0.37711897 -0.71340257 174 161 178
-0.14422989 -0.37907067 -0.71401453 161 143 170
-0.14260702 -0.37697867 -0.71208119 177 157 181
-0.14390147 -0.37711605 -0.71344781 173 161 177
-0.14339259 -0.37990078 -0.71313924 161 143 168
-0.1434184 -0.38055086 -0.71320659 158 141 165
-0.14394353 -0.38032195 -0.71378464 156 138 165
-0.14299577 -0.3781445 -0.71258879 170 151 176
-0.1426937 -0.37818214 -0.71225071 172 153 176
-0.1419719 -0.38008496 -0.71164966 166 149 168
-0.14245102 -0.37857807 -0.71202165 171 152 174
-0.14183053 -0.37879306 -0.71142954 172 153 173
-0.14174028 -0.37886727 -0.71134508 172 153 173
-0.14412178 -0.38147342 -0.71408367 148 129 155
-0.14419989 -0.38244545 -0.71427709 141 117 143
-0.14473221 -0.38091728 -0.71471107 149 132 161
-0.14354922 -0.38112596 -0.71340102 154 136 160
-0.14428794 -0.38271934 -0.71440595 138 113 140
-0.14387798 -0.38392934 -0.71414995 134 105 128
-0.14397947 -0.38457009 -0.71437639 130 98 121
-0.14298342 -0.38335356 -0.71316981 146 120 139
-0.14334589 -0.38221708 -0.71329242 147 125 147
-0.14274171 -0.38179913 -0.71262467 155 135 155
-0.14141148 -0.38467443 -0.71189404 146 114 132
-0.14166585 -0.38378552 -0.71196634 150 121 139
-0.14241366 -0.38324529 -0.71259445 151 126 142
-0.14102517 -0.38385507 -0.71135414 151 121 140
-0.14134873 -0.38275725 -0.71145672 155 131 149
-0.14369808 -0.38579109 -0.71427232 138 108 129
-0.14411297 -0.38501421 -0.71457589 129 97 121
-0.1435613 -0.38581839 -0.71414351 139 110 130
-0.144061 -0.38527295 -0.71455812 131 100 123
-0.14463814 -0.38485956 -0.71506411 123 89 116
-0.14277549 -0.38791898 -0.71356559 122 94 122
-0.14372325 -0.38769689 -0.71452487 142 117 140
-0.14327012 -0.38808545 -0.71409315 130 104 131
-0.1432977 -0.38802266 -0.71411562 131 105 132
-0.14209637 -0.3869631 -0.71281171 131 103 127
-0.14155927 -0.38826093 -0.71242398 126 99 130
-0.14247011 -0.38826513 -0.71329153 116 89 119
-0.14235871 -0.38816962 -0.71317637 118 91 121
-0.14232753 -0.38696986 -0.71303242 129 100 124
-0.14081906 -0.3852801 -0.71138752 145 113 134
-0.14144963 -0.38499051 -0.71197546 145 113 131
-0.14202055 -0.38545683 -0.71259063 143 113 131
-0.14262907 -0.38880923 -0.71350747 113 85 117
-0.14404286 -0.38986313 -0.71513605 141 114 143
-0.14379433 -0.38929242 -0.71478897 136 110 139
-0.14297967 -0.39016742 -0.71408796 121 91 124
-0.14281555 -0.39051598 -0.7140004 123 92 124
-0.14170897 -0.39173922 -0.71311337 147 117 139
-0.14144562 -0.3915585 -0.71280819 150 123 142
-0.14203769 -0.39220431 -0.7135393 144 112 137
-0.14165334 -0.39001682 -0.71273291 137 111 134
-0.14214246 -0.39238134 -0.71368045 143 110 136
-0.14243524 -0.38914734 -0.71337515 117 90 120
-0.14033104 -0.39121258 -0.71163064 165 142 156
-0.14085631 -0.3897073 -0.71193117 142 117 142
-0.14126334 -0.39051688 -0.71242601 147 122 141
-0.140228 -0.39012426 -0.71138823 153 129 152
-0.14302145 -0.3932569 -0.71464032 144 111 139
-0.14290012 -0.39306679 -0.71451014 142 108 137
-0.14292344 -0.3950471 -0.71469969 167 139 157
-0.14189537 -0.39545503 -0.71371138 176 154 166
-0.14151871 -0.39605537 -0.71338606 185 165 174
-0.1408249 -0.39618576 -0.71271294 187 168 178
-0.14244087 -0.39506331 -0.71421874 170 146 160
-0.14213258 -0.39484081 -0.71389848 168 142 158
-0.14076787 -0.39532501 -0.71259177 175 153 168
-0.14131361 -0.39344609 -0.71296149 159 130 151
-0.14031903 -0.39404789 -0.7120049 176 153 166
-0.14153121 -0.39291877 -0.71312612 155 125 146
-0.14026082 -0.39281917 -0.71180624 178 154 163
-0.1407593 -0.39343998 -0.71238983 169 143 158
-0.14308855 -0.39846882 -0.71521217 180 158 168
-0.142805 -0.40033725 -0.71514893 177 161 166
-0.14147563 -0.39856479 -0.71358693 188 170 178
-0.1418059 -0.39916393 -0.71399242 186 169 175
-0.14167136 -0.3995977 -0.71390682 185 169 175
-0.13963458 -0.40010235 -0.71189946 189 169 185
-0.14030699 -0.39974719 -0.71253997 188 169 182
-0.14072983 -0.40026829 -0.71303028 186 169 179
-0.14128691 -0.39973101 -0.71353239 186 169 177
-0.14099972 -0.39749032 -0.71299803 190 172 181
-0.13951607 -0.39700615 -0.71149415 192 174 186
-0.14082968 -0.39681017 -0.71276951 191 173 182
-0.14227468 -0.39677018 -0.71418822 190 171 177
-0.14090389 -0.39732531 -0.7128889 191 172 181
-0.14102776 -0.3981303 -0.71308321 190 170 181
-0.14273891 -0.40177813 -0.71513051 178 163 174
-0.14250812 -0.40139255 -0.71487707 181 168 174
-0.14216317 -0.40337437 -0.71457571 184 169 184
-0.14240187 -0.40247801 -0.71479857 182 167 179
-0.14246605 -0.40310276 -0.7148847 181 166 182
-0.14193055 -0.40181205 -0.71428502 186 173 178
-0.14125657 -0.40394819 -0.71364379 191 176 189
-0.1393356 -0.40417904 -0.71163923 207 194 195
-0.14113162 -0.40166789 -0.71345335 191 178 180
-0.14026237 -0.40057695 -0.71257049 188 170 182
-0.13975754 -0.40274149 -0.71205997 200 185 189
-0.14115569 -0.40188205 -0.71347797 192 179 180
-0.14004709 -0.40085351 -0.71235228 190 172 183
-0.14072977 -0.40229848 -0.71304613 195 182 183
-0.14115259 -0.40115914 -0.71347427 188 174 179
-0.14263789 -0.4071444 -0.71498525 158 121 160
-0.1402766 -0.40784207 -0.71241534 173 120 179
-0.14039309 -0.40775225 -0.71254438 173 121 179
-0.1413354 -0.40637094 -0.71361536 175 138 181
-0.14097099 -0.40690643 -0.71320117 174 131 180
-0.14099556 -0.40708634 -0.71322012 173 128 178
-0.14188014 -0.40585262 -0.71422291 174 143 180
-0.13940035 -0.40585756 -0.71160811 195 163 192
-0.14003415 -0.4052141 -0.71231407 195 169 191
-0.14005755 -0.40550485 -0.71231943 192 164 191
-0.14094831 -0.40524766 -0.71326905 187 160 189
-0.13977729 -0.40744013 -0.71189886 180 129 187
-0.13931808 -0.40543154 -0.71154994 199 172 193
-0.13935244 -0.40765136 -0.71144009 182 129 188
-0.14201134 -0.41171029 -0.71428037 132 96 111
-0.14214797 -0.40894201 -0.71441734 149 106 145
-0.1423464 -0.40986139 -0.71463394 141 101 132
-0.14013484 -0.41132033 -0.71226144 148 113 136
-0.1419152 -0.40988794 -0.71417046 144 104 136
-0.14147541 -0.41194957 -0.713705 134 100 114
-0.14154859 -0.41062889 -0.71377897 142 104 130
-0.13933045 -0.4092299 -0.71138686 170 118 172
-0.1401979 -0.41058215 -0.71232629 152 114 145
-0.14036012 -0.40976775 -0.71249723 157 113 154
-0.14101399 -0.40880001 -0.71319664 159 111 160
-0.14099872 -0.40933585 -0.71318251 155 111 153
-0.14054117 -0.41010717 -0.71269357 153 113 147
-0.14271791 -0.41597602 -0.71480817 137 103 103
-0.14273898 -0.41354102 -0.71496552 130 95 102
-0.1412067 -0.41597649 -0.71333164 134 103 102
-0.14253815 -0.41230014 -0.71484125 126 91 101
-0.14181176 -0.41473204 -0.71399367 132 99 102
-0.14108595 -0.41499531 -0.71326876 131 100 101
-0.14052401 -0.41564491 -0.71268237 132 102 101
-0.14219573 -0.41480353 -0.7143653 133 99 102
-0.1405022 -0.41241628 -0.71266794 138 106 119
-0.13960548 -0.41348639 -0.71173424 139 109 118
-0.13935341 -0.41352272 -0.71146423 141 111 121
-0.14064266 -0.41291335 -0.71283305 135 103 113
-0.1394078 -0.41462371 -0.71155393 135 106 110
-0.13938911 -0.41567782 -0.71156371 130 103 100
-0.14007828 -0.41431293 -0.71226597 132 102 106
-0.14309302 -0.41692591 -0.71522564 135 100 96
-0.14116628 -0.41987517 -0.71349978 128 87 80
-0.14198227 -0.4167223 -0.7141307 136 100 102
-0.14157985 -0.41975817 -0.71389347 128 87 78
-0.14244848 -0.41616499 -0.7145533 137 103 103
-0.14131695 -0.41818148 -0.71356076 133 94 94
-0.14215969 -0.41764674 -0.71434826 133 96 92
-0.14131011 -0.41915643 -0.71360278 130 90 86
-0.1393066 -0.41749215 -0.71156108 131 97 99
-0.13895895 -0.41929248 -0.71133143 131 89 97
-0.14132144 -0.41694146 -0.71349847 135 99 101
-0.13945849 -0.41703892 -0.71168184 131 99 99
-0.13920788 -0.41704631 -0.71143711 130 99 99
-0.13919051 -0.41667646 -0.71139741 130 101 99
-0.14296892 -0.4218908 -0.71515626 131 97 83
-0.14264762 -0.4208532 -0.71487361 128 92 76
-0.14122806 -0.42151296 -0.71343112 145 118 98
-0.14237577 -0.42095575 -0.71459097 131 96 79
-0.14224993 -0.42071918 -0.7144863 131 96 79
-0.14088227 -0.42089012 -0.71314818 139 106 93
-0.14106457 -0.42164141 -0.71326262 147 120 100
-0.14034422 -0.42079893 -0.71263587 139 104 96
-0.15548727 -0.36246961 -0.72531551 56 37 44
-0.15575853 -0.36299866 -0.72569674 55 36 45
-0.15506035 -0.36279514 -0.72479463 54 35 39
-0.15555893 -0.36369118 -0.72549325 54 35 42
-0.15473054 -0.36466938 -0.72458947 62 31 44
-0.1544992 -0.36431736 -0.72427201 62 31 43
-0.1549231 -0.36407185 -0.72476095 59 32 42
-0.15381131 -0.36469072 -0.72348011 73 37 52
-0.15386955 -0.36333272 -0.72340876 68 38 47
-0.1536658 -0.3636896 -0.72320515 72 39 51
-0.15430717 -0.36586055 -0.72414023 64 27 43
-0.15431815 -0.36586821 -0.7241565 64 27 43
-0.15409786 -0.36583424 -0.72387701 67 31 45
-0.15391655 -0.36591339 -0.72365785 69 33 48
-0.15085365 -0.39737558 -0.72307211 159 135 164
-0.13112186 -0.36097991 -0.69957274 112 79 95
-0.12928218 -0.36448824 -0.69844866 136 111 110
-0.12989712 -0.36255419 -0.69869536 120 88 95
-0.13031249 -0.36340874 -0.69917279 128 102 108
-0.12836422 -0.36404863 -0.69760197 131 100 97
-0.12906823 -0.36413792 -0.69821572 133 105 104
-0.12958167 -0.36344644 -0.69855452 127 98 102
-0.12776883 -0.36328954 -0.69701582 125 96 94
-0.12836048 -0.36259535 -0.69742376 120 91 93
-0.12896603 -0.36229444 -0.69788891 117 88 92
-0.12760602 -0.36230287 -0.69676661 117 91 92
-0.12797566 -0.36206868 -0.69704473 115 89 92
-0.12730651 -0.36388621 -0.69670331 129 100 95
-0.12987059 -0.36143875 -0.69853657 111 81 91
-0.12638354 -0.36497149 -0.69613606 135 104 96
-0.12685841 -0.36499313 -0.6964733 137 106 96
-0.13016294 -0.36726698 -0.69943064 149 129 136
-0.12827207 -0.36546466 -0.69770777 142 115 110
-0.129081 -0.36695564 -0.69848841 147 123 125
-0.12958306 -0.36676005 -0.69890511 147 125 128
-0.12884298 -0.36667714 -0.69826841 146 121 121
-0.12981912 -0.36559305 -0.69903594 144 124 124
-0.1272752 -0.36736181 -0.69708586 148 120 117
-0.12758227 -0.36636081 -0.69719803 144 115 109
-0.12758486 -0.36834341 -0.69744968 151 126 127
-0.1283313 -0.36832049 -0.69802588 151 127 130
-0.12956531 -0.36845979 -0.6990006 152 129 137
-0.12690733 -0.36803913 -0.69688869 150 123 121
-0.12682419 -0.36706716 -0.69670719 146 118 112
-0.12623957 -0.36886579 -0.69651771 148 127 127
-0.12586947 -0.36589471 -0.69588524 136 108 101
-0.12599429 -0.36682031 -0.69608682 139 115 109
-0.12863383 -0.37110531 -0.69859284 161 136 148
-0.12823868 -0.36974099 -0.69812727 156 133 140
-0.12955062 -0.36920527 -0.69908249 155 133 143
-0.12742387 -0.36951569 -0.69746894 156 131 135
-0.12838908 -0.37118736 -0.69841254 161 136 147
-0.12804309 -0.36988604 -0.69799244 157 133 139
-0.12924701 -0.37278622 -0.69925934 166 142 160
-0.12790219 -0.37300313 -0.69820744 169 144 157
-0.12782331 -0.37088874 -0.69793117 160 136 144
-0.12850884 -0.37257066 -0.69864821 166 142 156
-0.12653412 -0.37199527 -0.69706023 166 142 147
-0.12659815 -0.37181273 -0.6970858 165 141 146
-0.12667331 -0.37251762 -0.69720852 168 144 151
-0.12670176 -0.36932433 -0.69690269 154 130 131
-0.12782688 -0.37405071 -0.69833082 177 156 167
-0.12861547 -0.37606367 -0.69931972 191 178 188
-0.12834375 -0.37359229 -0.69866174 173 150 164
-0.12727797 -0.37357304 -0.69780731 174 151 161
-0.12857527 -0.37423536 -0.69896132 177 157 171
-0.12812749 -0.37557793 -0.69884288 188 173 182
-0.12706172 -0.37682739 -0.69812006 201 191 191
-0.12711164 -0.3744339 -0.69779998 181 162 168
-0.12723349 -0.37602353 -0.69814521 194 181 184
-0.12620187 -0.37561086 -0.69734257 180 161 170
-0.12569755 -0.37647414 -0.69713783 180 162 172
-0.12546344 -0.37489676 -0.69674289 163 138 154
-0.12498135 -0.37600341 -0.69658971 165 142 158
-0.12677331 -0.37423253 -0.69751406 178 156 164
-0.1263423 -0.37639865 -0.69755548 189 174 179
-0.12474792 -0.37511376 -0.69629228 159 134 151
-0.12436387 -0.37423956 -0.69587952 163 141 149
-0.12473507 -0.37445822 -0.6961717 163 139 150
-0.12649934 -0.3733348 -0.69719154 169 144 154
-0.12542729 -0.37367016 -0.69651264 167 144 151
-0.12780333 -0.37958279 -0.69923371 201 197 201
-0.12860979 -0.37737089 -0.69953722 198 189 198
-0.12846997 -0.37834996 -0.69958878 199 192 200
-0.12746067 -0.38031602 -0.69908404 201 196 203
-0.12701571 -0.37975815 -0.69861782 200 193 200
-0.12364083 -0.37719688 -0.69587708 155 128 152
-0.12420577 -0.37785181 -0.69634897 168 143 161
-0.1238803 -0.37940839 -0.69636577 176 146 161
-0.1249821 -0.37868798 -0.69699252 187 163 173
-0.1254652 -0.37802365 -0.69721448 189 169 177
-0.1236603 -0.37855428 -0.69608939 166 136 156
-0.12479555 -0.38001719 -0.69710022 187 162 174
-0.12485396 -0.37943235 -0.69703269 188 163 173
-0.1267893 -0.38030788 -0.6985538 199 190 200
-0.12444641 -0.38077214 -0.69699526 184 157 172
-0.12472463 -0.3796106 -0.69697499 187 161 172
-0.12540269 -0.37854698 -0.69725353 192 171 177
-0.12645148 -0.37942111 -0.69815207 198 185 193
-0.12295239 -0.37971637 -0.69579464 166 130 152
-0.12741658 -0.38216546 -0.69931245 198 187 202
-0.1271629 -0.38089195 -0.69894624 200 194 204
-0.12708654 -0.38268709 -0.69910711 197 182 201
-0.12376005 -0.38315299 -0.6969046 196 174 181
-0.12323607 -0.38124585 -0.69622087 178 143 160
-0.12396078 -0.38453379 -0.69728488 209 199 196
-0.1244178 -0.38298857 -0.69729745 190 163 179
-0.12521999 -0.38347867 -0.69790208 190 162 184
-0.12432555 -0.3824653 -0.6971429 185 153 173
-0.12489788 -0.38180956 -0.69744486 185 157 177
-0.12514743 -0.38139182 -0.69756883 188 164 180
-0.12460501 -0.3816517 -0.69721991 184 154 173
-0.12414575 -0.38130817 -0.69685537 182 150 168
-0.12647341 -0.38169521 -0.69853687 195 180 196
-0.12671755 -0.38139215 -0.69867104 197 186 200
-0.12532626 -0.38202932 -0.6977725 188 162 182
-0.12274422 -0.38140753 -0.69593287 178 144 159
-0.1273009 -0.38502544 -0.69957876 194 169 197
-0.12694198 -0.38639686 -0.69947487 191 162 197
-0.12607111 -0.38714293 -0.69896376 199 175 204
-0.12610348 -0.38855654 -0.69919264 197 170 203
-0.12597688 -0.38595563 -0.6987235 202 181 205
-0.12510134 -0.38846707 -0.69846141 208 189 212
-0.12572514 -0.38814208 -0.69886118 202 179 206
-0.12546188 -0.38642654 -0.69842297 207 189 209
-0.12377764 -0.38563403 -0.69727147 216 208 205
-0.12517044 -0.38653591 -0.69823092 210 194 212
-0.12390449 -0.3876 -0.69749343 222 213 220
-0.12368074 -0.3865889 -0.69727743 220 212 212
-0.12456262 -0.38569731 -0.69778043 211 199 205
-0.12334002 -0.38768899 -0.69713706 225 220 221
-0.12188526 -0.38823581 -0.69626397 215 209 212
-0.12243176 -0.3873612 -0.69654202 219 214 211
-0.12209617 -0.38695982 -0.69630426 214 208 205
-0.12129126 -0.388116 -0.6958853 208 200 204
-0.1237298 -0.38891461 -0.69753242 223 215 223
-0.12622291 -0.38932842 -0.69936019 196 171 202
-0.12538315 -0.39148802 -0.6989727 209 198 210
-0.12440592 -0.38876551 -0.69800216 216 202 217
-0.12465765 -0.39035806 -0.69834059 215 205 216
-0.12596282 -0.38929948 -0.69917089 199 176 205
-0.12611397 -0.39242899 -0.69958985 202 189 204
-0.12453515 -0.39143977 -0.69834322 214 204 214
-0.12456129 -0.3922551 -0.69842774 211 200 211
-0.12467775 -0.3913641 -0.69844288 213 204 214
-0.12419307 -0.39243546 -0.69816917 212 201 212
-0.12316809 -0.38980025 -0.69719887 226 220 224
-0.1223827 -0.39231619 -0.69685644 212 201 211
-0.12173033 -0.39171278 -0.69636273 209 196 208
-0.12231766 -0.39254931 -0.69683069 211 199 210
-0.12241842 -0.39129555 -0.69679934 216 206 215
-0.12177555 -0.38908729 -0.69624478 215 207 214
-0.12281206 -0.38889828 -0.69688243 227 222 226
-0.12201594 -0.3898555 -0.69642788 217 208 216
-0.12565508 -0.39481309 -0.69947642 202 187 203
-0.12498683 -0.39417991 -0.69892097 205 192 206
-0.12545489 -0.39385098 -0.69923675 204 190 205
-0.12463453 -0.39341095 -0.69858688 208 196 209
-0.12475905 -0.39499357 -0.69882935 205 191 206
-0.12370874 -0.39544421 -0.69797647 197 180 200
-0.12485596 -0.39562723 -0.69894224 202 187 203
-0.12533782 -0.39608636 -0.69936019 201 185 202
-0.12336025 -0.3942081 -0.69764525 205 191 206
-0.12291573 -0.39572659 -0.69735026 192 174 195
-0.12160549 -0.39261848 -0.69634974 205 190 205
-0.1429316 -0.35899988 -0.71100295 154 141 126
-0.14279641 -0.36118644 -0.71103978 146 128 127
-0.14180717 -0.36108238 -0.71000236 146 129 127
-0.14140256 -0.35982531 -0.70947659 151 137 127
-0.14126828 -0.35989293 -0.70934319 151 137 127
-0.14081673 -0.36069795 -0.70894343 147 130 127
-0.14221539 -0.36018077 -0.71034896 150 135 128
-0.14047512 -0.36047849 -0.7085709 147 132 126
-0.14078681 -0.35934678 -0.70880371 153 140 127
-0.14003812 -0.35951376 -0.70806211 149 136 128
-0.14287089 -0.3635585 -0.71124065 145 126 132
-0.14267668 -0.36469111 -0.71110588 146 127 137
-0.1418259 -0.36376148 -0.71016026 146 129 135
-0.140232 -0.36516565 -0.70854735 145 132 140
-0.14079668 -0.36399671 -0.70908111 145 131 136
-0.14201899 -0.36257237 -0.71029848 146 129 131
-0.14073817 -0.36510798 -0.70908135 146 131 140
-0.1418127 -0.36337972 -0.71012479 146 129 134
-0.14241941 -0.36501515 -0.71086037 147 128 139
-0.14100973 -0.36286363 -0.70924938 145 130 132
-0.1396051 -0.36234653 -0.70777613 143 127 130
-0.13988076 -0.36216989 -0.70805573 143 127 129
-0.14136934 -0.36175242 -0.709584 145 127 128
-0.1397703 -0.36416355 -0.70800954 144 132 137
-0.14098997 -0.3616153 -0.7091862 144 127 128
-0.14262289 -0.36538252 -0.71109116 148 128 140
-0.14235796 -0.36680698 -0.71087563 155 137 148
-0.14121202 -0.36752617 -0.70968568 158 142 153
-0.1404275 -0.36781532 -0.70886201 159 143 155
-0.13943648 -0.36890525 -0.7078535 164 150 161
-0.14198691 -0.36622873 -0.71045464 152 134 145
-0.14181764 -0.36873898 -0.71038467 164 149 159
-0.14155537 -0.36711937 -0.71003377 156 139 150
-0.13949981 -0.3664197 -0.70782119 151 139 147
-0.14168671 -0.36580041 -0.71011752 150 132 143
-0.14116721 -0.36638725 -0.70958948 152 135 146
-0.14017381 -0.36751044 -0.70857972 157 142 153
-0.13971741 -0.36587569 -0.70803058 148 136 144
-0.14090894 -0.36570093 -0.70928818 148 133 143
-0.14030541 -0.36625132 -0.70866948 151 137 146
-0.14265388 -0.37000123 -0.71132338 165 149 157
-0.13937171 -0.36933172 -0.70782185 164 151 161
-0.1399267 -0.36956123 -0.70844603 165 150 160
-0.13919523 -0.37026599 -0.70776612 163 147 156
-0.1411202 -0.36951998 -0.70971256 165 150 159
-0.14219721 -0.36926803 -0.71082503 166 151 160
-0.13917218 -0.37207094 -0.70800656 161 139 146
-0.1393092 -0.37148899 -0.70806307 162 142 149
-0.14136587 -0.37099031 -0.71012235 163 144 152
-0.14143778 -0.37068775 -0.71017975 164 145 153
-0.14208086 -0.36992073 -0.71076649 165 148 157
-0.14254372 -0.37062025 -0.711236 165 147 155
-0.14081533 -0.37129974 -0.70960695 163 143 150
-0.14115173 -0.37159491 -0.70994014 163 142 149
-0.14065495 -0.37286186 -0.70951325 161 137 144
-0.14172633 -0.3728959 -0.71054125 161 138 146
-0.14045423 -0.37372622 -0.70944357 163 140 150
-0.14078833 -0.37334615 -0.70969939 162 138 147
-0.14103283 -0.37532124 -0.7102679 171 149 165
-0.14099199 -0.37525219 -0.71021712 170 148 164
-0.1403923 -0.37443537 -0.70950425 167 143 156
-0.14176011 -0.37529486 -0.71096027 171 149 166
-0.14213771 -0.37442234 -0.71117443 167 145 159
-0.1417681 -0.37389052 -0.71073025 165 142 153
-0.13962822 -0.37630671 -0.70890898 174 158 173
-0.14001018 -0.37514624 -0.70921922 169 148 162
-0.13887076 -0.37412697 -0.7079221 164 143 151
-0.13906747 -0.37606353 -0.70829207 173 158 170
-0.14091344 -0.37684727 -0.71032155 177 160 179
-0.13941365 -0.37655547 -0.70870131 175 161 175
-0.13856901 -0.37551972 -0.70773894 171 154 165
-0.14128855 -0.37919775 -0.7108891 170 153 171
-0.1399872 -0.37830636 -0.70944083 173 159 173
-0.13962275 -0.37706667 -0.70896482 177 163 178
-0.14134099 -0.37725827 -0.71080697 177 159 180
-0.14106613 -0.37983763 -0.71069789 168 152 168
-0.13984616 -0.3773897 -0.70922559 176 162 177
-0.13918237 -0.37777418 -0.70855618 175 163 176
-0.14088002 -0.38016492 -0.71054101 169 153 169
-0.13891478 -0.38074332 -0.70871526 191 182 199
-0.13957074 -0.38038361 -0.70930117 182 171 188
-0.13880245 -0.37944004 -0.70842242 186 177 192
-0.13849011 -0.37930608 -0.70812672 188 179 194
-0.1386154 -0.37953624 -0.70826262 188 179 195
-0.13793729 -0.3782962 -0.70752203 186 177 191
-0.14057441 -0.3828617 -0.71072644 161 138 156
-0.13907187 -0.38104206 -0.70891917 188 178 196
-0.14027591 -0.38103789 -0.71008694 176 163 180
-0.14080887 -0.38390973 -0.71115494 152 123 142
-0.14022717 -0.38132605 -0.71009493 175 160 178
-0.13870957 -0.38315722 -0.70890343 178 160 185
-0.1389178 -0.38141015 -0.70883697 187 176 195
-0.13900185 -0.3822248 -0.70905411 181 166 187
-0.1387434 -0.38371065 -0.70902699 174 153 180
-0.13780315 -0.38288039 -0.70810819 184 170 191
-0.13866407 -0.38102999 -0.7085169 192 184 202
-0.13861282 -0.38126469 -0.70851254 191 181 201
-0.13829367 -0.3825742 -0.70846111 184 169 191
-0.13737215 -0.38154233 -0.70753473 196 190 202
-0.13741563 -0.38174021 -0.70760298 194 187 201
-0.13812116 -0.38107792 -0.70807707 195 188 204
-0.13992615 -0.38598338 -0.71055609 150 122 150
-0.14053892 -0.38580564 -0.71116459 145 115 138
-0.13964738 -0.38627008 -0.71030366 152 125 155
-0.13993439 -0.38552299 -0.71050996 152 123 149
-0.13987297 -0.38762784 -0.71070111 145 119 152
-0.13874558 -0.38847119 -0.70980978 154 129 156
-0.13930605 -0.38731429 -0.71012962 152 127 157
-0.13783464 -0.38778847 -0.70888531 165 143 163
-0.13740927 -0.38666657 -0.70832032 173 151 169
-0.13732958 -0.38759163 -0.7084043 170 149 165
-0.13861583 -0.38502651 -0.70911676 167 142 172
-0.13672768 -0.38809058 -0.70795363 174 155 165
-0.13744453 -0.38605583 -0.70827323 173 151 172
-0.13791707 -0.38525274 -0.70856321 171 148 173
-0.13684496 -0.38659975 -0.70784771 175 156 171
-0.13657753 -0.38747042 -0.70773411 176 158 169
-0.13970849 -0.38935915 -0.71081269 151 126 152
-0.1399778 -0.3902604 -0.71117419 158 134 155
-0.13923794 -0.39031255 -0.7105034 167 143 160
-0.13900104 -0.39153534 -0.71038067 178 158 165
-0.13877946 -0.39169067 -0.7101655 179 161 165
-0.13726568 -0.39157623 -0.70886678 180 155 169
-0.13758154 -0.39156953 -0.70913053 179 156 168
-0.13661191 -0.39155751 -0.70831788 180 152 171
-0.13664758 -0.39129612 -0.70832366 178 150 170
-0.13757072 -0.39219946 -0.70917952 184 162 170
-0.13786568 -0.39221898 -0.70942813 184 164 169
-0.13606438 -0.39095029 -0.70776761 181 155 171
-0.13687414 -0.38995785 -0.7083531 173 148 165
-0.13594747 -0.39006859 -0.7075457 181 159 169
-0.13621952 -0.38909057 -0.70765603 177 158 166
-0.13691382 -0.39066312 -0.70848286 173 146 167
-0.13929191 -0.39540583 -0.71109891 191 174 181
-0.13934949 -0.39449912 -0.71105564 189 171 177
-0.13892363 -0.39357653 -0.7105099 188 171 172
-0.13918588 -0.39570692 -0.7110256 191 175 183
-0.13641435 -0.39578304 -0.70842761 201 189 197
-0.13590282 -0.39599481 -0.70797873 204 192 201
-0.13803746 -0.39332932 -0.70963788 190 175 175
-0.13786431 -0.39387399 -0.70954275 192 177 179
-0.13777371 -0.39560544 -0.70966667 195 181 189
-0.13817038 -0.39527997 -0.70999539 193 178 185
-0.13572426 -0.39297262 -0.70768517 191 164 180
-0.13606858 -0.3926087 -0.70795852 189 161 176
-0.13676219 -0.39281413 -0.70854735 189 166 175
-0.13540472 -0.39627632 -0.70755225 206 195 205
-0.1353371 -0.39457682 -0.70742649 199 178 193
-0.13569753 -0.39322606 -0.70767313 192 166 182
-0.13905267 -0.40011075 -0.71131712 191 169 187
-0.13871914 -0.39744216 -0.71073866 192 175 188
-0.13749924 -0.39830703 -0.70963132 193 175 191
-0.13719468 -0.40035424 -0.70951861 192 171 192
-0.13687368 -0.39925769 -0.70910996 193 174 193
-0.13697948 -0.39873606 -0.70916599 193 175 192
-0.13820852 -0.39890265 -0.71037149 192 173 190
-0.13558169 -0.40003869 -0.70792794 193 174 195
-0.13821581 -0.3975102 -0.71025455 192 176 190
-0.1364512 -0.39797679 -0.70862103 197 181 196
-0.13551076 -0.39876634 -0.70778883 198 181 199
-0.13569485 -0.39873612 -0.70795798 197 181 198
-0.13551807 -0.39707097 -0.70771027 204 191 204
-0.1355045 -0.39830986 -0.70776004 199 184 200
-0.13587455 -0.39667073 -0.70802069 204 192 203
-0.1389764 -0.40231135 -0.7112664 200 182 192
-0.13873608 -0.40254986 -0.71102256 202 186 194
-0.13767602 -0.40239489 -0.70999426 203 185 197
-0.138668 -0.40328398 -0.7109558 206 193 195
-0.13737026 -0.40397882 -0.70970219 211 198 201
-0.13688813 -0.40414712 -0.70923632 212 200 203
-0.13548487 -0.40408185 -0.70787889 213 199 208
-0.13623054 -0.40323812 -0.70859814 208 192 203
-0.13864532 -0.40353552 -0.7109344 208 195 196
-0.13791713 -0.4009324 -0.71022379 195 173 193
-0.13635786 -0.40240085 -0.70871872 204 186 201
-0.13538633 -0.40383098 -0.70778292 212 197 207
-0.13511053 -0.40350381 -0.70751452 210 195 207
-0.13573341 -0.40330136 -0.70811713 209 193 205
-0.13580845 -0.40166646 -0.70818377 200 182 199
-0.13743511 -0.40052009 -0.7097553 193 171 192
-0.13895106 -0.40517867 -0.7111876 203 181 195
-0.1387344 -0.40599552 -0.71090353 198 168 195
-0.13748007 -0.4062427 -0.70976359 197 174 197
-0.13826439 -0.40712452 -0.71039224 189 151 195
-0.13757136 -0.40627259 -0.70984221 197 173 197
-0.1378298 -0.40678543 -0.71003282 192 161 196
-0.13790268 -0.40746555 -0.71004701 187 148 195
-0.13713047 -0.40780908 -0.70933849 185 148 196
-0.13697977 -0.40684667 -0.70927638 193 167 197
-0.1355311 -0.40446562 -0.70792472 213 199 207
-0.13549829 -0.40737966 -0.7079038 190 167 198
-0.13541813 -0.40674064 -0.70782393 195 174 201
-0.1357757 -0.40476099 -0.70816243 210 196 206
-0.13512324 -0.40685686 -0.70753914 194 172 201
-0.13591665 -0.40542811 -0.70830125 205 188 203
-0.13535689 -0.40700817 -0.70776564 193 171 200
-0.1392498 -0.40894017 -0.71129876 173 119 177
-0.13924424 -0.41201386 -0.71130663 149 117 136
-0.13836142 -0.40925109 -0.71042001 172 123 179
-0.13516691 -0.41179925 -0.70770597 159 121 157
-0.13811854 -0.40952086 -0.71021467 171 123 176
-0.13716534 -0.41034371 -0.70940572 166 122 169
-0.13862687 -0.41037005 -0.71066356 162 117 159
-0.13824409 -0.41192779 -0.7103554 150 110 137
-0.13572782 -0.41186276 -0.70818949 157 119 153
-0.13575701 -0.40844437 -0.70810336 181 149 194
-0.13518915 -0.41013494 -0.70766419 170 137 176
-0.13585663 -0.40877685 -0.70820391 179 145 190
-0.1372364 -0.40840471 -0.70941055 180 137 193
-0.13568027 -0.41052383 -0.70811319 167 129 171
-0.13657998 -0.40957841 -0.70887375 173 131 181
-0.13660662 -0.41021767 -0.70892119 169 125 173
-0.13877806 -0.41251695 -0.71084481 146 108 128
-0.13886166 -0.41223711 -0.71092236 147 110 131
-0.13890837 -0.41515121 -0.71104681 134 105 107
-0.13792747 -0.41546965 -0.71014798 133 103 106
-0.13849097 -0.41407335 -0.71061516 139 105 116
-0.13821529 -0.41599217 -0.71041852 130 103 102
-0.13603932 -0.41486183 -0.7084462 135 98 110
-0.13838325 -0.41567689 -0.71056038 132 104 104
-0.13864921 -0.41300526 -0.71072882 144 107 125
-0.13849743 -0.41531751 -0.71065307 133 105 107
-0.13494608 -0.41420069 -0.70750773 142 106 126
-0.13633414 -0.41367507 -0.70870519 142 105 124
-0.13586545 -0.41216233 -0.7083109 154 117 148
-0.13787633 -0.41285634 -0.71003699 144 105 126
-0.13496096 -0.41237032 -0.70753145 155 118 150
-0.13506968 -0.41319993 -0.70762002 149 112 138
-0.13505161 -0.41273066 -0.70760727 152 115 145
-0.13903433 -0.41794121 -0.71132195 130 95 98
-0.13868366 -0.41887581 -0.71102476 131 91 99
-0.1371458 -0.41873872 -0.70956516 136 102 104
-0.13623443 -0.41974446 -0.70877129 140 104 106
-0.1374703 -0.41723016 -0.709773 135 107 104
-0.13734531 -0.41867971 -0.70974946 136 101 103
-0.13809319 -0.41738629 -0.71037042 133 102 102
-0.13678007 -0.41898432 -0.70923632 138 103 105
-0.13816792 -0.41859454 -0.71051943 133 96 101
-0.13631189 -0.41756871 -0.70874357 136 105 105
-0.13534908 -0.41776213 -0.70788682 136 103 106
-0.13664015 -0.41790897 -0.70904201 137 108 106
-0.13540716 -0.41859558 -0.70795161 140 108 107
-0.13523102 -0.41776267 -0.70778137 136 103 106
-0.13669845 -0.41607559 -0.70906556 130 99 102
-0.13655008 -0.41785011 -0.70896065 137 107 106
-0.13647361 -0.42246768 -0.70882726 142 102 110
-0.13774185 -0.4210211 -0.71012574 136 94 103
-0.13775387 -0.42173386 -0.71008152 145 109 111
-0.13665959 -0.42220598 -0.70902151 140 100 108
-0.13718773 -0.42273852 -0.70947391 151 120 119
-0.13676561 -0.4229342 -0.70906395 150 117 118
-0.13664654 -0.42180422 -0.70903832 139 98 107
-0.13507834 -0.42281643 -0.70748824 145 108 113
-0.1361547 -0.42151123 -0.70859534 141 102 108
-0.13622676 -0.42140937 -0.70867044 140 101 108
-0.13737498 -0.42000955 -0.70985198 136 95 102
-0.13810791 -0.42043793 -0.7105127 134 90 100
-0.13838281 -0.42010051 -0.71079576 133 88 99
-0.13711008 -0.42639345 -0.70907331 169 147 131
-0.13538174 -0.42503545 -0.70758885 153 119 117
-0.13558148 -0.42482248 -0.70779532 154 121 118
-0.13530096 -0.42586264 -0.70743686 155 122 116
-0.13665019 -0.42560542 -0.70872223 166 144 127
-0.1360812 -0.42498103 -0.7082479 159 131 122
-0.13547458 -0.42584345 -0.70760101 156 125 117
-0.15205084 -0.35634443 -0.72083855 62 34 46
-0.15262949 -0.35855454 -0.72156286 62 31 44
-0.15273593 -0.35841194 -0.72164977 62 32 44
-0.15322199 -0.36029404 -0.72240305 62 32 44
-0.15265864 -0.35925257 -0.72169042 61 30 44
-0.15315226 -0.36024278 -0.7223258 62 32 44
-0.15215278 -0.36058271 -0.72126478 61 29 43
-0.15281516 -0.36109182 -0.72202766 62 32 43
-0.1514764 -0.36271325 -0.72066665 68 32 49
-0.15316021 -0.36354497 -0.72262233 73 38 53
-0.15218619 -0.36329517 -0.72151178 71 35 52
-0.15212111 -0.36231038 -0.72135091 66 33 48
-0.15270109 -0.36305302 -0.72206533 70 35 51
-0.15240043 -0.36196917 -0.72163242 65 33 46
-0.15242961 -0.36289588 -0.72174799 69 35 50
-0.15147746 -0.36285487 -0.7206732 70 33 51
-0.15058658 -0.36481726 -0.71966231 105 69 97
-0.15041351 -0.36223415 -0.71938246 72 38 58
-0.15178481 -0.36410326 -0.72107619 83 46 67
-0.15196477 -0.36447233 -0.72130197 86 48 70
-0.15081768 -0.36468881 -0.71993524 101 65 91
-0.15038696 -0.36336333 -0.71938318 88 53 76
-0.15097156 -0.36541876 -0.72013324 106 69 96
-0.15160459 -0.36547545 -0.7208904 99 62 86
-0.15184994 -0.36545071 -0.72118419 96 59 83
-0.15263847 -0.36552727 -0.72212726 88 50 70
-0.15059264 -0.3661325 -0.71969211 104 71 101
-0.14879076 -0.38265523 -0.71921885 119 108 130
-0.15060146 -0.39596897 -0.72254181 153 128 163
-0.14969933 -0.39588109 -0.72155327 146 121 155
-0.14868532 -0.39588279 -0.72046679 141 114 146
-0.14906156 -0.39446682 -0.72069269 123 86 125
-0.14925948 -0.39437193 -0.72089291 123 85 125
-0.1496681 -0.39595771 -0.72152942 147 122 156
-0.1488793 -0.39462885 -0.72051764 124 88 126
-0.14853135 -0.39318115 -0.71999121 131 118 129
-0.14818607 -0.39449158 -0.71977204 133 114 134
-0.1475822 -0.39502746 -0.71919578 141 130 142
-0.14805402 -0.39396161 -0.71957493 136 126 136
-0.14782277 -0.3933728 -0.71926701 141 143 139
-0.1498642 -0.39655086 -0.7218191 155 135 166
-0.14924906 -0.39653882 -0.72115737 152 131 161
-0.15022697 -0.3966777 -0.72223377 157 136 168
-0.14922304 -0.39763001 -0.72135216 149 124 150
-0.14832008 -0.39674586 -0.72020406 146 123 151
-0.14924806 -0.39781895 -0.72141749 148 123 149
-0.14693733 -0.40794477 -0.71955949 165 148 130
-0.14806761 -0.41193223 -0.72059095 132 126 120
-0.14856015 -0.4116483 -0.72108638 130 121 117
-0.14747165 -0.41130477 -0.71997672 141 127 126
-0.14791773 -0.41105869 -0.72042567 138 123 123
-0.14788282 -0.41182199 -0.72040176 134 126 121
-0.14794977 -0.40935668 -0.72049659 148 127 124
-0.14692615 -0.41088998 -0.71945947 148 137 128
-0.14775608 -0.4089627 -0.72032166 152 131 125
-0.14777923 -0.40928394 -0.72033399 150 130 124
-0.14693859 -0.41288388 -0.7194646 142 132 124
-0.14677854 -0.41338739 -0.71929371 145 132 121
-0.14709261 -0.41288754 -0.71962917 140 131 124
-0.12440794 -0.36762014 -0.69508165 129 110 111
-0.12530273 -0.3664363 -0.69555575 133 109 104
-0.12466241 -0.36665645 -0.69514132 128 105 104
-0.12541008 -0.3670471 -0.69570279 136 114 110
-0.12491668 -0.36741054 -0.69540668 133 113 111
-0.12463838 -0.3688322 -0.69537497 135 120 121
-0.1237129 -0.36870563 -0.69468659 127 110 114
-0.12421423 -0.36922917 -0.69510615 134 118 121
-0.12438601 -0.36957264 -0.69527286 138 123 125
-0.12162791 -0.37275371 -0.69381732 148 127 129
-0.12176863 -0.37172589 -0.69376647 137 116 120
-0.12336403 -0.37523127 -0.69536722 158 137 150
-0.12407144 -0.37391746 -0.69562501 165 145 149
-0.12328088 -0.37543273 -0.69534481 157 136 150
-0.12206518 -0.37636614 -0.69470292 139 111 135
-0.12231431 -0.37451929 -0.69455457 150 128 138
-0.1228937 -0.37564364 -0.69512254 150 126 144
-0.12220984 -0.37573379 -0.69469053 141 113 134
-0.12285965 -0.37659606 -0.69526041 143 116 142
-0.12318145 -0.37770337 -0.69564474 152 122 148
-0.12281727 -0.37894714 -0.69559318 159 126 150
-0.12191027 -0.38076234 -0.69529092 171 135 152
-0.12274898 -0.37858546 -0.69549668 156 124 148
-0.12018143 -0.38066882 -0.69419008 162 133 144
-0.12146142 -0.3799645 -0.69489086 162 131 147
-0.12196758 -0.38044459 -0.69528002 168 134 151
-0.12218587 -0.37889162 -0.69518787 156 125 147
-0.11916482 -0.37799862 -0.6930896 141 122 130
-0.12075844 -0.37846747 -0.69420952 148 123 139
-0.11950126 -0.37734768 -0.69319761 137 120 129
-0.11999704 -0.37848192 -0.69371527 146 124 136
-0.12031211 -0.37883514 -0.69398135 149 125 138
-0.11797944 -0.37949207 -0.69263971 141 116 123
-0.11824262 -0.37880257 -0.69267797 139 116 123
-0.11818948 -0.38062769 -0.69295901 151 123 129
-0.11909363 -0.37969172 -0.69333595 151 129 136
-0.11893866 -0.37909308 -0.69314134 146 125 132
-0.12229358 -0.38156629 -0.6956712 178 145 160
-0.12159678 -0.38117838 -0.6951645 173 140 154
-0.12110087 -0.38183948 -0.69496953 175 147 157
-0.1202977 -0.39014834 -0.69536364 199 186 197
-0.12065062 -0.38975081 -0.69557017 202 190 201
-0.12086555 -0.38962787 -0.69570118 204 192 203
-0.13920607 -0.35618183 -0.70700967 146 134 119
-0.13875309 -0.35623825 -0.70649725 146 133 120
-0.13849883 -0.35736153 -0.70629239 151 140 133
-0.13928531 -0.35997668 -0.70732141 146 131 129
-0.13899206 -0.35944226 -0.70695353 147 133 130
-0.13695504 -0.35954368 -0.70494169 147 127 123
-0.13635123 -0.36101198 -0.70445907 144 119 117
-0.13741156 -0.36109933 -0.70549488 146 122 120
-0.13811629 -0.35821646 -0.70597553 151 136 131
-0.13865541 -0.35848334 -0.70651788 151 137 131
-0.13812642 -0.36123729 -0.70619881 147 124 122
-0.13724756 -0.36011103 -0.70526582 147 126 123
-0.13570687 -0.35768408 -0.70366609 132 129 119
-0.1369056 -0.35859382 -0.70484567 144 130 124
-0.13705297 -0.35748029 -0.70492977 141 135 126
-0.13646062 -0.35845622 -0.70441771 140 129 122
-0.13637228 -0.35888359 -0.70435536 141 127 121
-0.13646194 -0.35895047 -0.70444351 142 127 122
-0.13901077 -0.36139864 -0.70710999 145 125 125
-0.13910972 -0.36179823 -0.70723325 144 126 127
-0.13877054 -0.36491933 -0.70698035 145 134 140
-0.13797663 -0.36421546 -0.70620143 149 134 137
-0.13636267 -0.36381271 -0.70468837 156 137 136
-0.13816689 -0.36242804 -0.70630884 149 129 129
-0.13545421 -0.36507034 -0.70389402 159 142 143
-0.13744228 -0.3637425 -0.70568734 151 134 135
-0.13729431 -0.36353245 -0.70554197 152 134 134
-0.13752244 -0.36388728 -0.70576733 151 135 136
-0.13641298 -0.36141011 -0.70454788 144 119 117
-0.13740407 -0.36190408 -0.70554918 148 126 124
-0.13729781 -0.36204392 -0.70545703 149 126 125
-0.13547456 -0.36380216 -0.70382518 154 134 133
-0.13766342 -0.36191797 -0.70580214 149 127 125
-0.13584214 -0.36321315 -0.70413566 152 131 130
-0.13882379 -0.36632168 -0.70709395 151 140 147
-0.13880302 -0.36847517 -0.70715535 161 150 159
-0.13690946 -0.36849147 -0.70541161 158 143 157
-0.13525005 -0.36883464 -0.70391822 157 137 156
-0.13862024 -0.36909026 -0.70698804 164 153 162
-0.13860022 -0.36591852 -0.70684725 149 138 145
-0.13755552 -0.36865389 -0.7060045 160 146 158
-0.13779005 -0.3672978 -0.70616502 154 141 151
