ply
format ascii 1.0
comment PCL generated
element vertex 775
property float x
property float y
property float z
property uchar red
property uchar green
property uchar blue
element camera 1
property float view_px
property float view_py
property float view_pz
property float x_axisx
property float x_axisy
property float x_axisz
property float y_axisx
property float y_axisy
property float y_axisz
property float z_axisx
property float z_axisy
property float z_axisz
property float focal
property float scalex
property float scaley
property float centerx
property float centery
property int viewportx
property int viewporty
property float k1
property float k2
end_header
0.2969583 -0.19504324 -0.87033278 52 44 54
0.29744542 -0.19434708 -0.87110013 53 47 57
0.29690301 -0.19538569 -0.87018919 51 43 54
0.29739156 -0.19512364 -0.87086529 53 45 57
0.29703149 -0.19554068 -0.87031901 52 43 54
0.29858509 -0.19998227 -0.87142503 52 45 64
0.29820117 -0.1988325 -0.87117416 51 43 62
0.29830697 -0.19894539 -0.87127769 51 44 63
0.29840982 -0.19994766 -0.87122798 51 44 63
0.30100811 -0.18008365 -0.87914991 56 52 69
0.30094752 -0.18522812 -0.87837017 61 58 72
0.30028847 -0.18516923 -0.87724632 57 52 67
0.30003905 -0.18425889 -0.87694478 56 48 65
0.30124101 -0.18503718 -0.87890089 62 60 73
0.30082572 -0.18247466 -0.87854475 58 53 69
0.3009316 -0.18235369 -0.87874347 59 54 70
0.30075496 -0.18910742 -0.87728047 66 65 73
0.30138212 -0.18739519 -0.87871784 66 66 75
0.30162939 -0.18918623 -0.87882251 71 71 77
0.30150989 -0.18767664 -0.8788926 68 67 76
0.30097228 -0.18734062 -0.87799835 64 63 73
0.30084699 -0.18840361 -0.87757617 65 64 73
0.30125079 -0.18575385 -0.87880194 63 62 74
0.30051875 -0.18610062 -0.87746972 59 56 69
0.29996619 -0.18680713 -0.87636799 58 53 67
0.29961509 -0.18654391 -0.87582177 56 49 64
0.30045834 -0.18692997 -0.87718689 60 58 70
0.30172858 -0.19154827 -0.87870085 72 72 78
0.30192202 -0.19128507 -0.87908232 74 74 79
0.3017641 -0.19228923 -0.87867993 73 73 79
0.30128509 -0.1919513 -0.8778494 69 68 75
0.3003493 -0.19276172 -0.87605757 61 58 68
0.300827 -0.1929671 -0.87690091 65 63 72
0.30124903 -0.18961169 -0.87807441 69 69 75
0.30039921 -0.18964432 -0.87655711 64 63 71
0.30008721 -0.19250272 -0.87562388 60 56 67
0.30048341 -0.18954439 -0.87672025 65 64 71
0.29991943 -0.19176184 -0.87542301 59 56 66
0.30041826 -0.19148721 -0.87634748 63 60 69
0.30206162 -0.19479169 -0.87883019 74 73 82
0.30137962 -0.19592169 -0.87742049 69 64 76
0.30204213 -0.19723246 -0.87833023 69 65 84
0.30137938 -0.19655892 -0.87729847 68 62 76
0.30217725 -0.19517513 -0.87895954 73 72 84
0.30167571 -0.19496372 -0.87812173 72 69 78
0.3002176 -0.19530013 -0.87543672 61 54 66
0.30183008 -0.19339311 -0.87867093 74 74 80
0.30021873 -0.19438909 -0.87558562 60 55 67
0.30107287 -0.19415925 -0.87717295 68 65 73
0.30071461 -0.19382587 -0.87657642 64 61 71
0.3007462 -0.19386508 -0.87662756 65 62 71
0.30265591 -0.19943324 -0.87882727 76 74 93
0.30160356 -0.20004027 -0.87698621 69 64 80
0.30257887 -0.19745301 -0.87921792 72 70 89
0.30197927 -0.2001913 -0.8775481 72 68 85
0.30165368 -0.20090087 -0.87684309 71 66 81
0.30106345 -0.19835109 -0.87640464 65 58 74
0.30187973 -0.19852017 -0.87780166 69 65 82
0.30071679 -0.19906028 -0.87566322 64 56 70
0.30095214 -0.19902872 -0.87608123 65 58 72
0.30125353 -0.19757925 -0.87688369 66 59 76
0.30128244 -0.19776434 -0.87689918 66 60 76
0.30275708 -0.20036472 -0.87877077 78 76 94
0.3025181 -0.20260978 -0.87809819 77 75 90
0.30228707 -0.20166449 -0.87776631 76 73 89
0.3010706 -0.20169169 -0.87581921 66 60 73
0.30270433 -0.20319043 -0.87837297 77 77 91
0.30232123 -0.20350549 -0.87774748 74 73 85
0.30153206 -0.2037178 -0.8765223 69 66 76
0.30138874 -0.2044149 -0.87630796 69 65 74
0.30109632 -0.20178927 -0.87585646 66 60 73
0.30101526 -0.20502925 -0.87574512 68 63 70
0.30174246 -0.20323844 -0.87683886 70 67 79
0.30282512 -0.20445639 -0.8786068 75 76 88
0.30277723 -0.20447056 -0.87848669 75 76 88
0.30179781 -0.2066216 -0.87722772 64 61 69
0.30246902 -0.20656398 -0.87823182 67 67 76
0.30134186 -0.20562024 -0.87634426 67 63 70
0.30213463 -0.20599696 -0.87761629 68 67 76
0.30212998 -0.20605648 -0.87762082 68 67 76
0.30123413 -0.20667659 -0.87619311 64 59 66
0.30712816 -0.16507854 -0.89595401 60 68 79
0.30694726 -0.16473815 -0.89497244 58 66 78
0.30749163 -0.16921903 -0.89600182 60 67 82
0.30756712 -0.16807929 -0.89702386 61 68 86
0.30750471 -0.16869858 -0.89620894 60 68 83
0.3075189 -0.16925538 -0.8963294 60 67 83
0.30765277 -0.16756703 -0.89811063 61 68 89
0.30720052 -0.16753614 -0.8951394 59 66 77
0.30720958 -0.16648906 -0.89579761 59 67 79
0.30725047 -0.16798535 -0.89515966 59 66 78
0.30748844 -0.16647579 -0.89737231 60 69 87
0.30730587 -0.16847052 -0.89518964 59 66 78
0.30752125 -0.16717136 -0.8971535 60 69 87
0.30767611 -0.17372914 -0.89531022 70 70 90
0.30768317 -0.1735952 -0.89551216 69 69 89
0.30782366 -0.17282794 -0.89817607 59 59 77
0.30782628 -0.17366944 -0.89761806 60 59 76
0.30779839 -0.17138028 -0.89882338 59 60 80
0.30767539 -0.1710795 -0.89727783 64 66 87
0.30750462 -0.17027852 -0.89582068 61 66 82
0.30763376 -0.17339151 -0.89499915 70 71 90
0.3075079 -0.16993321 -0.89612532 60 66 81
0.30770186 -0.16992666 -0.89848322 61 64 86
0.30765405 -0.17132948 -0.89682728 65 67 87
0.30751663 -0.17675751 -0.89669561 65 66 78
0.30749822 -0.17653583 -0.89751917 58 58 70
0.3074013 -0.17744181 -0.89650482 65 65 77
0.30764455 -0.17538413 -0.89849246 53 51 64
0.30770904 -0.17519042 -0.89811182 57 56 70
0.30775404 -0.17505701 -0.8978411 60 60 74
0.30775216 -0.17447989 -0.8968733 64 64 80
0.30768347 -0.17426434 -0.8956762 69 69 87
0.3078208 -0.17402823 -0.89757133 60 60 76
0.30781755 -0.17419383 -0.89764571 60 60 76
0.30764544 -0.17607088 -0.89644933 68 70 84
0.30793819 -0.18159565 -0.89824599 70 70 78
0.30773616 -0.18106198 -0.89603704 75 75 87
0.30740595 -0.17900302 -0.8981511 54 51 61
0.30777344 -0.18127504 -0.89589274 77 77 89
0.30774751 -0.18119177 -0.89568043 77 77 90
0.30737236 -0.17876545 -0.89739013 57 55 66
0.30737624 -0.17843625 -0.89694023 61 60 71
0.3072595 -0.17793964 -0.89793557 52 48 59
0.30719829 -0.17773958 -0.89853001 46 42 52
0.30753163 -0.17988642 -0.89656675 66 64 77
0.30719513 -0.17783405 -0.89868718 45 40 50
0.30755618 -0.18457234 -0.89813769 67 67 77
0.30753708 -0.18471123 -0.89818418 67 67 77
0.30784553 -0.18250383 -0.89809322 69 68 77
0.30742612 -0.18537755 -0.89588547 71 70 84
0.30767176 -0.18370064 -0.89729023 70 69 79
0.30758345 -0.18421045 -0.89604563 72 70 84
0.30776134 -0.18234837 -0.89560735 78 78 91
0.30748048 -0.18490916 -0.89535272 73 71 86
0.30787495 -0.18223581 -0.89801502 70 69 78
0.30787107 -0.18216576 -0.89774859 71 70 79
0.30754051 -0.18434662 -0.89536881 74 73 87
0.30627751 -0.18899362 -0.89825654 57 50 66
0.30648163 -0.18858439 -0.89790052 60 54 69
0.30644453 -0.18913358 -0.89712107 61 55 69
0.30664214 -0.18801917 -0.89805567 61 56 70
0.30681643 -0.18877631 -0.89604324 66 62 74
0.30685177 -0.18899924 -0.89551032 67 64 75
0.30720943 -0.18645878 -0.89823437 65 64 75
0.3073355 -0.18600835 -0.89615321 70 69 82
0.30706903 -0.18780459 -0.89643097 67 65 76
0.30725199 -0.18653631 -0.89555812 70 68 82
0.30715787 -0.18713436 -0.89494491 70 68 82
0.3072705 -0.18644457 -0.8961848 69 68 80
0.30650863 -0.19178186 -0.89537477 66 64 75
0.3060548 -0.18945713 -0.89862061 54 47 63
0.30628756 -0.19037367 -0.89705509 60 55 69
0.30642569 -0.19160691 -0.8958779 64 61 73
0.30636251 -0.18973364 -0.8968876 61 55 69
0.30623481 -0.19027288 -0.89878201 57 47 67
0.30646297 -0.19253059 -0.89623994 65 61 75
0.3064521 -0.19212571 -0.89688975 64 57 74
0.30693096 -0.1930016 -0.8986572 68 52 82
0.30647486 -0.19558948 -0.89585978 66 65 76
0.30629379 -0.19631772 -0.89657927 63 62 73
0.30647379 -0.19691534 -0.89634228 65 64 76
0.30649403 -0.19722116 -0.89640188 66 64 77
0.30626136 -0.19499066 -0.89616168 63 62 72
0.30565745 -0.19693486 -0.89881593 54 49 61
0.30663988 -0.19368511 -0.89695442 68 59 79
0.3062903 -0.19460526 -0.89685899 63 59 73
0.30593318 -0.19566968 -0.89728403 59 56 66
0.30625188 -0.19443874 -0.89617884 64 62 73
0.30664417 -0.19398528 -0.89795023 67 55 80
0.30694243 -0.19725549 -0.89552283 70 69 81
0.30652443 -0.19742988 -0.89632416 66 64 77
0.30645308 -0.19735384 -0.89651191 65 63 76
0.30584127 -0.19871232 -0.89790797 54 51 60
0.30560786 -0.19751315 -0.89862329 53 49 59
0.30660892 -0.20109254 -0.89505899 67 64 81
0.30633572 -0.19930591 -0.89640415 61 59 72
0.30658749 -0.19878626 -0.89578009 66 65 79
0.30613247 -0.201051 -0.89653128 57 54 67
0.30634528 -0.20001793 -0.8961724 62 59 73
0.30580083 -0.2010957 -0.89753526 51 47 57
0.30688199 -0.19931725 -0.89504987 70 68 83
0.30665052 -0.19798151 -0.89582878 68 66 80
0.30452433 -0.17513753 -0.88686377 58 61 79
0.30442199 -0.17566398 -0.88656688 59 62 80
0.30335557 -0.17702368 -0.88402516 58 62 83
0.30410451 -0.17598182 -0.88582182 58 61 81
0.30467051 -0.17611425 -0.88705671 61 63 81
0.30469543 -0.17728844 -0.88695484 65 66 83
0.30344748 -0.17535502 -0.88436842 55 58 81
0.30358288 -0.17601673 -0.88464391 56 60 81
0.30318773 -0.17731036 -0.88361454 58 62 84
0.30342957 -0.17607813 -0.88427532 56 60 82
0.30359066 -0.18112709 -0.88378727 67 63 85
0.30459544 -0.18045679 -0.88640791 68 64 82
0.30414239 -0.18091707 -0.88521475 67 63 83
0.30381423 -0.18133007 -0.88434476 67 63 84
0.30469292 -0.17901723 -0.88676214 67 66 83
0.30387992 -0.17919637 -0.88480061 65 65 84
0.30374914 -0.18023731 -0.88430488 66 64 85
0.30443186 -0.17847453 -0.8861652 66 66 84
0.30369645 -0.1800846 -0.88421851 65 64 85
0.30378154 -0.17802981 -0.8848142 62 65 84
0.30451667 -0.17782488 -0.8864817 65 67 84
0.30444387 -0.18355227 -0.88578236 70 64 82
0.30460724 -0.18323386 -0.8862043 70 64 81
0.30408326 -0.18437558 -0.88483441 70 64 82
0.30458727 -0.18454903 -0.88597596 71 67 81
0.30483204 -0.18326882 -0.88671941 70 65 81
0.30448323 -0.18504564 -0.88566655 71 67 82
0.3042413 -0.18327618 -0.8853392 69 63 82
0.30388376 -0.18386807 -0.88439649 69 63 83
0.30348593 -0.18322387 -0.88340825 68 63 84
0.30354643 -0.18434377 -0.88351095 69 63 84
0.30417237 -0.18320815 -0.88516593 69 63 82
0.30491716 -0.18883158 -0.88588405 75 75 84
0.30469689 -0.18823475 -0.88551575 75 74 83
0.30484119 -0.18756381 -0.88599163 74 74 82
0.30467319 -0.18760486 -0.8856011 74 73 82
0.30513507 -0.18627836 -0.88694304 74 72 81
0.30447698 -0.18873574 -0.88490564 75 74 83
0.30446193 -0.1864695 -0.88535714 73 70 81
0.30424878 -0.186351 -0.88488871 72 69 82
0.30432642 -0.18691342 -0.88495207 73 71 81
0.3039189 -0.18644586 -0.88410634 72 67 82
0.30435959 -0.18605264 -0.8852067 72 69 82
0.30381054 -0.18657649 -0.8838287 71 67 82
0.30512622 -0.19241254 -0.88614553 75 73 84
0.30485058 -0.19180149 -0.88546079 73 72 83
0.30542359 -0.19060227 -0.8868795 76 76 86
0.3053686 -0.19188187 -0.88674557 76 75 85
0.30505177 -0.19295806 -0.88596189 75 73 84
0.30502218 -0.19070801 -0.88588423 74 74 84
0.30418867 -0.19230792 -0.88385677 70 70 80
0.3039844 -0.19084181 -0.88351393 73 72 81
0.30529737 -0.18964055 -0.88659483 76 76 86
0.30463317 -0.19094816 -0.88497847 73 73 83
0.30474278 -0.18953657 -0.88534397 75 75 84
0.30499914 -0.19060929 -0.88583755 74 74 84
0.3048287 -0.19606037 -0.88498908 73 70 83
0.30499741 -0.19709685 -0.8850311 75 71 84
0.30546302 -0.19430445 -0.88674128 77 74 86
0.30493316 -0.19663085 -0.88503522 74 71 84
0.30576432 -0.19624233 -0.88679188 81 76 89
0.30572748 -0.19541965 -0.88695091 80 76 88
0.30406106 -0.19616227 -0.88322103 68 66 79
0.30426028 -0.19534715 -0.88379788 69 68 80
0.3042779 -0.1940185 -0.88397646 70 69 80
0.30418614 -0.19458738 -0.88369113 69 68 79
0.30440015 -0.19602728 -0.88407564 70 68 80
0.3046962 -0.19459768 -0.88495505 72 70 82
0.30591878 -0.19819197 -0.88666356 83 79 91
0.30504474 -0.20010255 -0.88460994 74 71 83
0.30585706 -0.20094782 -0.88612163 84 85 93
0.3053447 -0.19993681 -0.8852405 77 75 86
0.30455598 -0.20100644 -0.88348645 69 67 79
0.30518326 -0.20059335 -0.88481516 76 75 85
0.30505583 -0.19805317 -0.88496774 75 71 84
0.30489689 -0.19768059 -0.88471502 74 71 83
0.30446494 -0.19851807 -0.88371921 70 67 80
0.3043023 -0.19966686 -0.88320518 68 66 78
0.3059184 -0.19734979 -0.88679457 82 77 90
0.30545446 -0.19789696 -0.88578385 78 74 87
0.30579287 -0.20461768 -0.88665468 77 77 86
0.30506459 -0.20468985 -0.88475585 70 65 79
0.3058981 -0.20496953 -0.88703936 78 78 86
0.30539209 -0.20315935 -0.88515359 77 73 85
0.30587858 -0.20343299 -0.88651991 81 81 89
0.30590117 -0.20336074 -0.88655752 81 81 89
0.30631673 -0.20124128 -0.88701552 90 92 98
0.30520341 -0.20270914 -0.88476586 75 72 84
0.30505505 -0.2036667 -0.88446492 72 67 81
0.30451158 -0.20450063 -0.88336658 65 57 74
0.30584455 -0.20191212 -0.88606131 84 83 92
0.30455977 -0.20378926 -0.88346493 66 60 76
0.30563721 -0.20638025 -0.88621533 72 70 79
0.3057512 -0.20659375 -0.8865639 71 70 78
0.30556798 -0.20795725 -0.88595331 65 62 72
0.30565348 -0.20721135 -0.88624156 68 66 76
0.30543792 -0.20779222 -0.88555348 66 61 72
0.30553705 -0.20639144 -0.8859033 72 68 79
0.30506912 -0.20607595 -0.88470882 68 62 76
0.30489826 -0.20555478 -0.88435072 67 61 75
0.30555114 -0.2090553 -0.88586414 61 58 67
0.30579165 -0.20927304 -0.88659251 61 60 67
0.3062602 -0.21733941 -0.88656306 62 60 69
0.30648732 -0.22770815 -0.88610691 61 60 73
0.30742669 -0.16893573 -0.89968133 64 66 86
0.30738762 -0.17328852 -0.90268886 60 57 63
0.30749613 -0.17021742 -0.89986563 61 62 81
0.3070645 -0.17166591 -0.90250176 60 57 66
0.3075861 -0.17235363 -0.90126199 61 59 71
0.30699927 -0.17070241 -0.90195644 60 58 70
0.30773741 -0.17208458 -0.89971918 59 59 75
0.307776 -0.17368637 -0.90006685 57 55 67
0.30777761 -0.17373113 -0.90007174 57 55 67
0.30765221 -0.17288537 -0.90087909 59 57 69
0.30758265 -0.1729825 -0.90157849 60 58 67
0.30662921 -0.17767636 -0.90229684 70 69 72
0.3072677 -0.1758147 -0.90118241 55 51 58
0.3070713 -0.17697522 -0.90066701 55 52 59
0.30682442 -0.17676158 -0.90258551 69 68 71
0.30691329 -0.17755599 -0.90079391 58 55 61
0.30713621 -0.17614627 -0.90152061 59 56 61
0.30734265 -0.17512676 -0.90175498 57 53 59
0.30764088 -0.17433235 -0.90050572 56 53 63
0.30733174 -0.17659803 -0.8993836 48 43 53
0.30766836 -0.17472443 -0.8995477 53 51 63
0.3075453 -0.1749026 -0.90039098 54 51 60
0.30789569 -0.17383109 -0.89899516 55 54 68
0.30748758 -0.17575392 -0.89941788 50 47 58
0.30660757 -0.17806193 -0.90262437 73 72 75
0.3066664 -0.17892393 -0.9026863 74 73 77
0.30704483 -0.17852411 -0.90004528 53 49 58
0.30672172 -0.17861861 -0.90203899 68 66 71
0.30698046 -0.17841034 -0.90037042 55 52 60
0.30686879 -0.18137978 -0.90265369 74 72 80
0.30762795 -0.18003111 -0.89888543 58 56 64
0.3073031 -0.18105167 -0.90078932 68 66 74
0.30724919 -0.18133727 -0.90118992 70 68 77
0.30785435 -0.18135159 -0.89903778 67 66 73
0.30704197 -0.1815148 -0.90205979 73 71 79
0.30714449 -0.1851857 -0.90020323 66 65 75
0.30726403 -0.18546075 -0.89956492 65 65 75
0.30693099 -0.18218356 -0.90229684 73 71 81
0.30692625 -0.1831762 -0.90193832 71 69 78
0.3067311 -0.1838319 -0.90255028 68 65 75
0.30688727 -0.18341906 -0.90201783 70 68 77
0.3075057 -0.18475845 -0.8989343 66 67 75
0.30756405 -0.18191871 -0.90014696 70 69 77
0.3078194 -0.18210497 -0.89914125 69 68 75
0.30749118 -0.18276648 -0.89998305 69 69 77
0.30733138 -0.18424878 -0.89981228 68 68 77
0.30657023 -0.1862426 -0.90142691 61 57 70
0.30656007 -0.18635267 -0.90129381 61 57 70
0.3063519 -0.18707576 -0.90115678 59 54 67
0.30608815 -0.18814337 -0.90247321 61 51 65
0.30602342 -0.18913999 -0.89991105 56 47 63
0.30603051 -0.18926342 -0.89926797 54 46 63
0.30636913 -0.18673173 -0.90201718 61 55 68
0.30595392 -0.18917376 -0.90127671 58 48 63
0.30671328 -0.18689439 -0.8996709 61 57 71
0.30720678 -0.18581899 -0.89932215 64 64 74
0.30668423 -0.18574058 -0.90172476 62 59 72
0.29882506 -0.18835127 -0.87393045 57 48 66
0.29872724 -0.18922548 -0.873649 58 50 66
0.29928848 -0.18728463 -0.87508249 56 48 64
0.29934731 -0.18898046 -0.87480068 59 54 67
0.29888189 -0.18826887 -0.87407607 57 48 66
0.29843119 -0.18946014 -0.87328893 56 48 64
0.29880285 -0.19019027 -0.87354445 58 52 67
0.29832274 -0.19025975 -0.87297976 55 48 63
0.29845646 -0.19305652 -0.87249672 55 52 64
0.29848525 -0.19281042 -0.87257808 55 52 64
0.29917732 -0.19214506 -0.87377977 58 56 67
0.29961449 -0.19053581 -0.87497163 60 57 67
0.29975227 -0.19285594 -0.87489778 58 55 66
0.29961574 -0.19036523 -0.87500131 60 58 67
0.29924488 -0.19097985 -0.87415141 59 56 67
0.29909432 -0.19201787 -0.87363601 58 56 67
0.29955521 -0.18965787 -0.87502438 60 57 67
0.29879552 -0.19695601 -0.8721298 53 44 64
0.29860157 -0.19504809 -0.87227648 54 49 64
0.29875109 -0.1937028 -0.87269098 56 53 66
0.29821891 -0.19563533 -0.87175292 53 46 61
0.30003002 -0.19512364 -0.87507796 59 53 66
0.29982901 -0.1966057 -0.87436813 59 50 65
0.299456 -0.19654156 -0.87358439 56 48 65
0.29968855 -0.19540752 -0.87429547 57 50 65
0.29993838 -0.19525091 -0.87485832 59 52 65
0.29951906 -0.19470067 -0.87406719 56 51 65
0.29983199 -0.19378197 -0.87490922 58 53 65
0.29905474 -0.19502112 -0.87301308 55 50 65
0.29864433 -0.19866194 -0.87169659 52 44 64
0.30004352 -0.2010349 -0.87394154 60 53 68
0.3001788 -0.20027839 -0.87437183 61 53 68
0.30065557 -0.20059232 -0.87524909 64 56 70
0.2999438 -0.2005275 -0.87385285 59 52 68
0.2999692 -0.20033912 -0.87394357 59 52 68
0.29999977 -0.19877835 -0.87433904 60 51 67
0.29939783 -0.19838786 -0.87314975 56 47 65
0.29887462 -0.19927141 -0.87189686 52 45 65
0.29926863 -0.19935849 -0.87272424 55 47 65
0.29913938 -0.19809705 -0.87264311 54 46 65
0.29918393 -0.19744399 -0.87283909 55 46 64
0.29984477 -0.20333537 -0.87352204 57 48 65
0.30017433 -0.20460694 -0.87418294 61 53 65
0.30036867 -0.20408486 -0.87456685 62 55 66
0.30050191 -0.20420943 -0.87483227 64 57 67
0.29989779 -0.20381135 -0.87362963 57 49 64
0.3005029 -0.20122419 -0.87482226 63 56 70
0.29999807 -0.20227341 -0.87382346 58 50 67
0.29983988 -0.2016845 -0.87350935 58 51 67
0.29928809 -0.20238772 -0.87241709 53 46 64
0.29952133 -0.20164968 -0.87287819 56 49 66
0.30053946 -0.20522618 -0.87488502 65 58 66
0.30070427 -0.20541058 -0.87519377 66 60 67
0.30069911 -0.2066129 -0.87507498 65 57 65
0.3054392 -0.16196592 -0.89090073 61 70 79
0.3052077 -0.16064344 -0.89062166 60 65 80
0.30505598 -0.16014376 -0.89035887 60 63 80
0.30544686 -0.16273826 -0.890809 60 69 78
0.30564889 -0.16457625 -0.89095867 61 68 80
0.30557379 -0.16655703 -0.89047641 59 64 79
0.30579668 -0.16673291 -0.89091259 61 68 82
0.30560905 -0.16759501 -0.89034718 59 67 81
0.30579251 -0.16984373 -0.89029324 61 73 87
0.30562586 -0.16873208 -0.89015949 60 69 83
0.30595362 -0.16965625 -0.8906703 63 75 88
0.30627355 -0.17174637 -0.89086592 67 78 93
0.30547988 -0.17334336 -0.88898969 62 68 86
0.30587086 -0.17262881 -0.889898 64 73 89
0.30583948 -0.17364825 -0.88961279 65 72 90
0.3058832 -0.17359963 -0.88970751 65 72 90
0.30548769 -0.1731602 -0.88904512 62 68 86
0.30580255 -0.16992214 -0.89029914 62 73 87
0.30661467 -0.17539273 -0.89099348 73 80 98
0.30618817 -0.17748369 -0.89001542 73 77 94
0.30636415 -0.17754829 -0.89037728 74 78 95
0.3052589 -0.17675775 -0.88812125 68 71 87
0.30566251 -0.17627913 -0.88897985 69 73 90
0.30649558 -0.17477974 -0.89077508 72 79 97
0.30595654 -0.17638582 -0.88958466 71 75 92
0.30502152 -0.17696829 -0.88763851 66 69 85
0.30590439 -0.17469235 -0.88959754 68 74 91
0.30595812 -0.1738812 -0.88979477 66 73 91
0.30559719 -0.17403708 -0.88908368 64 69 87
0.30587542 -0.17460889 -0.88955158 68 73 91
0.30584887 -0.1743416 -0.88953155 67 72 90
0.30495667 -0.17779794 -0.88744181 67 69 85
0.30574763 -0.17914744 -0.88889986 72 74 90
0.30561677 -0.17900796 -0.88864738 71 74 89
0.30632037 -0.1797282 -0.89000911 75 78 94
0.30619243 -0.17798786 -0.88997859 73 77 94
0.30630061 -0.17919336 -0.89004034 75 78 94
0.3054423 -0.18043396 -0.88820046 71 70 86
0.30556864 -0.17942633 -0.88849533 71 73 88
0.30582276 -0.18063828 -0.88891327 73 74 89
0.30506542 -0.17940015 -0.88753915 69 68 84
0.30500719 -0.17998238 -0.88739687 68 66 83
0.30668706 -0.18084502 -0.89063054 77 81 96
0.30641624 -0.18339983 -0.88990551 79 79 91
0.306025 -0.18357714 -0.88915271 77 75 88
0.306279 -0.18366459 -0.88963187 79 78 90
0.30609459 -0.1819112 -0.88936359 75 76 90
0.30584112 -0.18200025 -0.88887703 74 73 88
0.30516466 -0.18490328 -0.88724649 73 71 81
0.30554983 -0.18390094 -0.88817102 75 71 84
0.3061884 -0.1849754 -0.88936329 80 78 88
0.30608013 -0.1844134 -0.88920844 79 76 87
0.30553585 -0.18309881 -0.88824171 74 70 84
0.30672851 -0.18501827 -0.89046597 82 82 91
0.30683574 -0.18192281 -0.89085042 76 82 94
0.3064661 -0.18856341 -0.88972515 84 84 92
0.30652452 -0.18641417 -0.88994884 83 82 90
0.30640081 -0.18664847 -0.88968074 82 82 90
0.30632797 -0.18734615 -0.88949633 82 82 90
0.3055647 -0.18722554 -0.88779986 77 76 85
0.30597463 -0.1889932 -0.88842165 80 80 89
0.30565414 -0.18699791 -0.88809139 78 76 85
0.30596602 -0.18939152 -0.88829798 80 80 89
0.30694738 -0.18897815 -0.89099294 83 83 90
0.30672902 -0.18782111 -0.89033937 84 84 92
0.30675805 -0.18605636 -0.89049447 83 83 91
0.30627224 -0.1908965 -0.8891837 80 80 91
0.30578974 -0.19028628 -0.88788009 77 77 88
0.30577081 -0.18971057 -0.88779026 78 78 88
0.30663344 -0.18964924 -0.89003998 85 85 93
0.30567545 -0.19021693 -0.88756216 77 77 87
0.30597636 -0.19267622 -0.88842487 78 77 89
0.30564699 -0.19030073 -0.88748127 77 77 87
0.30654106 -0.19328143 -0.89003503 78 79 92
0.30617249 -0.19199893 -0.88898212 78 78 90
0.30677533 -0.19269095 -0.89070296 79 79 91
0.30665559 -0.19117793 -0.89021218 82 83 93
0.30644402 -0.19604746 -0.88867223 82 78 93
0.30635163 -0.1956515 -0.88856906 81 78 92
0.30648991 -0.19408782 -0.88959497 79 79 92
0.30649349 -0.19620703 -0.88874871 82 78 94
0.30653489 -0.1947857 -0.88944107 80 79 93
0.30629674 -0.19658768 -0.88803291 82 78 93
0.30608568 -0.19712172 -0.88721246 83 78 92
0.30698454 -0.1963338 -0.89049244 77 73 92
0.30705616 -0.19618887 -0.89083987 76 72 91
0.30676413 -0.19547679 -0.88988841 80 78 93
0.30690837 -0.19675811 -0.89002639 79 74 93
0.30676964 -0.19363207 -0.89062995 78 78 92
0.30625764 -0.19849923 -0.88752311 85 83 94
0.30627477 -0.19750623 -0.88767046 84 79 93
0.30633965 -0.20047823 -0.88723749 89 90 97
0.30623797 -0.19846945 -0.88745689 85 83 94
0.30679655 -0.20102218 -0.88923717 85 87 95
0.30708098 -0.20021765 -0.89077914 78 77 89
0.307015 -0.19985563 -0.89034557 80 79 91
0.30694619 -0.20047374 -0.8900311 81 82 92
0.30701089 -0.197869 -0.89020842 78 74 93
0.30673704 -0.19908415 -0.88895732 84 83 96
0.30665156 -0.20052134 -0.88846207 87 89 98
0.30640435 -0.20158914 -0.8873359 89 91 98
0.30662471 -0.20407879 -0.88857126 82 86 92
0.30628616 -0.20303357 -0.88741869 85 87 93
0.30643231 -0.20407279 -0.88801569 82 85 91
0.30715147 -0.20361371 -0.89063448 75 77 85
0.30700946 -0.20324267 -0.89028144 77 79 87
0.3072342 -0.20434824 -0.89072496 74 76 83
0.30665961 -0.20257726 -0.8886025 85 88 95
0.30682278 -0.20181493 -0.88947469 83 85 93
0.30685756 -0.20211054 -0.88970631 82 83 91
0.30611581 -0.20566431 -0.88763571 75 76 84
0.30663827 -0.20550819 -0.88878894 78 81 87
0.30620843 -0.20713051 -0.88794911 69 69 77
0.30645412 -0.2087556 -0.88864774 62 62 71
0.30647135 -0.20883726 -0.88869762 62 62 71
0.30726007 -0.2059828 -0.89078069 69 70 78
0.30717969 -0.20774458 -0.89090186 62 61 72
0.30673113 -0.20750128 -0.88930821 67 68 77
0.3067995 -0.20707178 -0.88946676 69 70 78
0.30712467 -0.20569851 -0.89030075 71 73 81
0.30692461 -0.2051363 -0.88962048 76 79 86
0.30653939 -0.2096784 -0.88890743 60 58 69
0.30643395 -0.20912236 -0.88858145 61 61 70
0.3060326 -0.21033868 -0.88732761 58 57 67
0.30677769 -0.20934936 -0.88971633 60 57 69
0.30673859 -0.20984618 -0.88957751 59 56 68
0.30666313 -0.20964137 -0.88929683 60 58 69
0.30642211 -0.21659537 -0.88723063 61 59 70
0.30660436 -0.21760215 -0.88806009 61 59 69
0.30682179 -0.21957624 -0.88895738 61 58 69
0.30682454 -0.21923661 -0.88909793 60 56 68
0.30681664 -0.2197286 -0.8888675 61 58 69
0.30667171 -0.21884952 -0.88813651 63 61 71
0.30688095 -0.22219563 -0.88861477 63 61 71
0.30687398 -0.22200216 -0.88861173 63 61 71
0.30703381 -0.22339085 -0.88940144 62 60 70
0.30695921 -0.22281361 -0.8890065 62 58 69
0.3071427 -0.2236879 -0.89009309 61 59 69
0.3069371 -0.2231876 -0.88877439 63 60 71
0.30661657 -0.22773592 -0.89071113 57 54 65
0.30678684 -0.22740912 -0.8899712 58 56 67
0.30692056 -0.22686052 -0.88991642 59 57 68
0.30686593 -0.22655727 -0.89091605 59 57 66
0.30714595 -0.22542717 -0.89076626 60 59 69
0.30720019 -0.22520986 -0.89013928 61 61 71
0.30725512 -0.22501649 -0.89057058 60 60 70
0.30710617 -0.22632049 -0.8891964 60 59 71
0.30680606 -0.17315097 -0.90464211 63 62 69
0.30686149 -0.17245601 -0.90387636 62 60 68
0.30735856 -0.17323063 -0.90274686 60 57 63
0.30706206 -0.17291343 -0.90353918 62 59 66
0.30724445 -0.17397812 -0.90351391 62 59 65
0.30664203 -0.17633224 -0.9036622 70 70 74
0.30709934 -0.17450935 -0.90358001 64 62 67
0.30691326 -0.17397721 -0.90468985 64 63 69
0.30195248 -0.17558724 -0.88133764 52 54 75
0.30266711 -0.17721111 -0.88238502 58 61 85
0.30272695 -0.17706461 -0.88249558 58 61 85
0.30207428 -0.17671297 -0.88143539 55 57 78
0.30187225 -0.17943244 -0.88057625 59 58 78
0.30226487 -0.17941989 -0.88126999 61 61 82
0.30230007 -0.18061374 -0.88107896 63 62 83
0.30194211 -0.17971648 -0.88063908 60 59 79
0.30252618 -0.17798029 -0.88203502 59 61 84
0.30155426 -0.18062845 -0.87993938 60 57 75
0.30123627 -0.18040814 -0.87947977 58 55 71
0.30122453 -0.17950919 -0.87955081 56 54 71
0.3016977 -0.1800862 -0.88020998 59 57 76
0.30309504 -0.18161698 -0.88251632 67 64 87
0.3030794 -0.17918541 -0.88301253 62 63 85
0.30275238 -0.17951562 -0.88212246 63 64 87
0.30174643 -0.18292736 -0.88003993 63 60 77
0.30182922 -0.18311793 -0.88015187 64 61 78
0.30215845 -0.18264419 -0.88068342 65 63 82
0.30158353 -0.18478608 -0.87951958 63 62 76
0.30264005 -0.18550186 -0.88119912 69 68 87
0.30160576 -0.18278649 -0.87982994 62 59 76
0.30312756 -0.18331143 -0.88247728 68 65 86
0.30305201 -0.18374637 -0.8822608 68 66 86
0.30279982 -0.18320534 -0.88167679 68 66 88
0.30276448 -0.18299851 -0.88160455 68 66 88
0.30201134 -0.18700767 -0.87988031 70 70 80
0.3019962 -0.18648303 -0.87994641 68 68 80
0.30266958 -0.1878491 -0.88084072 75 75 86
0.30232456 -0.1867882 -0.88044554 71 71 83
0.30244616 -0.18853569 -0.88034493 76 76 83
0.30197752 -0.18824151 -0.87960356 72 72 79
0.30316865 -0.18778612 -0.88206023 75 72 84
0.30342355 -0.18817763 -0.88258445 74 72 83
0.30368644 -0.18879345 -0.88307995 74 73 82
0.30310911 -0.18733358 -0.88201207 74 71 84
0.30329436 -0.18624181 -0.88268328 71 66 84
0.30280524 -0.18883596 -0.88096154 78 78 85
0.30221179 -0.19026309 -0.87967956 75 76 81
0.30253741 -0.1913223 -0.88009387 77 79 85
0.30205807 -0.19011128 -0.87943923 74 75 80
0.30353093 -0.19251761 -0.88225067 72 73 82
0.30349916 -0.19094574 -0.88231468 75 76 83
0.30374414 -0.19247384 -0.88279253 71 71 80
0.30328771 -0.1928758 -0.88160425 73 75 84
0.3035363 -0.19178426 -0.88233143 73 74 82
0.30282438 -0.19140193 -0.88063198 78 80 86
0.30301514 -0.19095878 -0.88114411 77 79 85
0.30275726 -0.19226612 -0.88036007 77 80 87
0.30287698 -0.19248058 -0.88061768 77 80 87
0.30252308 -0.19336374 -0.87983721 76 79 86
0.30390552 -0.19503871 -0.8829264 68 67 79
0.30394927 -0.19701827 -0.88282561 68 66 80
0.30368569 -0.19560218 -0.88226962 69 67 81
0.30397058 -0.19680375 -0.88290703 68 66 79
0.30384821 -0.1948584 -0.88279146 69 67 80
0.30361506 -0.19421987 -0.88224232 70 69 81
0.30301169 -0.19371311 -0.88080454 74 77 86
0.30284026 -0.19445373 -0.88024873 74 76 87
0.30346525 -0.19423358 -0.8818621 71 70 82
0.30330056 -0.19733818 -0.88102466 70 68 85
0.30333558 -0.19899751 -0.88069016 73 71 88
0.30306479 -0.19919448 -0.87990552 74 72 90
0.30316982 -0.20045456 -0.87986779 76 74 91
0.30315515 -0.19794556 -0.88047022 72 70 88
0.30327299 -0.19782501 -0.88082051 71 69 86
0.30432394 -0.20050688 -0.8830691 68 66 78
0.30378395 -0.1997945 -0.88173091 71 69 84
0.30395132 -0.19868349 -0.88245845 69 67 81
0.30416059 -0.19995527 -0.88274318 69 67 80
0.30309805 -0.20111135 -0.87950933 77 75 93
0.30411303 -0.20403281 -0.88225949 66 62 76
0.30323219 -0.2049794 -0.87963706 70 70 83
0.30416819 -0.20243987 -0.88242722 68 65 78
0.30406481 -0.20463391 -0.88211465 66 60 76
0.30419365 -0.20224577 -0.88250345 68 66 78
0.30426329 -0.20164885 -0.88271284 68 66 78
0.30338523 -0.20425078 -0.88009584 70 70 82
0.30364999 -0.20187624 -0.88098818 72 70 85
0.30363789 -0.20274021 -0.8808983 71 70 83
0.3032138 -0.20316057 -0.87968862 73 72 87
0.30338022 -0.20609049 -0.88032466 65 63 76
0.30532613 -0.16007553 -0.89103895 61 65 81
0.30536076 -0.15994385 -0.89117569 61 65 82
0.30602089 -0.16079681 -0.89289945 60 66 85
0.30540782 -0.16013183 -0.89126527 61 65 82
0.30578443 -0.16244173 -0.8917948 61 70 80
0.30630338 -0.1634821 -0.89312786 60 69 82
0.30627096 -0.16254261 -0.89321089 60 69 84
0.30619273 -0.16240825 -0.89300561 60 69 83
0.30648121 -0.16428022 -0.89350069 60 69 82
0.30572098 -0.1648214 -0.89110005 61 68 80
0.30584258 -0.16572173 -0.89127392 60 67 80
0.30567443 -0.16292489 -0.89137232 61 70 79
0.30573246 -0.16339479 -0.89144647 61 70 79
0.30683997 -0.16600399 -0.89434391 58 67 77
0.30671135 -0.1646612 -0.89413565 59 67 81
0.30598903 -0.16665526 -0.89144254 61 69 82
0.30658042 -0.16847365 -0.89263761 63 75 86
0.30618268 -0.16745102 -0.89176708 62 71 84
0.3063024 -0.16783887 -0.89200234 62 72 85
0.30623183 -0.16938782 -0.89138579 64 77 89
0.30601799 -0.16844942 -0.89105004 63 74 87
0.30682132 -0.1684808 -0.89344698 62 73 84
0.3071456 -0.16779946 -0.89477581 59 67 77
0.30691779 -0.16862543 -0.89372158 61 72 83
0.30673644 -0.16796584 -0.89332718 61 73 84
0.30632505 -0.17011848 -0.89144212 65 79 91
0.30642402 -0.17078108 -0.89150482 66 79 92
0.30744919 -0.17351231 -0.89423293 71 73 92
0.30712265 -0.17216663 -0.89333749 66 73 88
0.30728754 -0.17360191 -0.89361244 71 74 93
0.30719039 -0.17143187 -0.89376104 64 71 85
0.30701855 -0.17333874 -0.89267665 70 76 93
0.30669665 -0.17173955 -0.89197868 67 78 93
0.30676574 -0.17245962 -0.8919943 68 77 93
0.30695596 -0.17184649 -0.89281976 66 74 89
0.30671608 -0.17077404 -0.892335 66 78 91
0.30687362 -0.17402981 -0.89201099 72 78 96
0.30670857 -0.17542791 -0.89130533 73 79 97
0.30691087 -0.17477497 -0.8920992 72 77 96
0.30674702 -0.17612579 -0.89140284 73 79 97
0.30735114 -0.17500278 -0.8937189 72 74 93
0.30708084 -0.17705248 -0.89287609 75 78 95
0.30705166 -0.17740482 -0.89281809 75 79 95
0.30716419 -0.17611875 -0.89305961 74 76 94
0.30731401 -0.17648105 -0.89388674 75 77 94
0.30702078 -0.17696041 -0.89255744 74 78 95
0.30688462 -0.17706074 -0.89191043 74 77 95
0.30739513 -0.1791141 -0.8941074 78 82 94
0.30744773 -0.18133891 -0.89348656 80 83 96
0.30723742 -0.18033776 -0.89296025 77 82 95
0.30717474 -0.18036696 -0.8926788 77 82 94
0.30722025 -0.1795276 -0.89319509 77 82 94
0.3068949 -0.17844553 -0.89191675 75 80 95
0.3067691 -0.17864555 -0.89123774 75 79 96
0.30697823 -0.17990513 -0.89190036 76 81 95
0.30690256 -0.17974141 -0.89157516 75 80 95
0.30671954 -0.17795126 -0.89119661 75 79 96
0.30729234 -0.17802656 -0.89399964 77 81 94
0.30728617 -0.1852788 -0.8936879 76 75 88
0.30758524 -0.18286452 -0.89408755 82 82 95
0.30715695 -0.18473922 -0.89201277 82 81 91
0.30742598 -0.1851811 -0.89485335 74 72 88
0.30741212 -0.18422453 -0.89382076 79 78 91
0.3071318 -0.1817639 -0.89199978 77 82 95
0.30722082 -0.18413021 -0.89222968 82 82 92
0.30738461 -0.18317389 -0.89299899 82 83 94
0.30735964 -0.18252033 -0.89293396 81 82 95
0.30719465 -0.1831301 -0.89218205 80 82 93
0.30725172 -0.18187103 -0.89251053 79 82 95
0.30735049 -0.18587406 -0.89480275 73 71 86
0.30718932 -0.187273 -0.89349186 76 75 87
0.30721092 -0.18698314 -0.89408505 74 72 86
0.30685106 -0.1892015 -0.89485508 68 65 76
0.30693382 -0.18887866 -0.89391232 72 70 81
0.30719191 -0.18693744 -0.89311653 77 76 88
0.30711353 -0.1870161 -0.89241248 79 78 89
0.30696154 -0.18654028 -0.89103693 83 82 90
0.30712402 -0.18584013 -0.89248806 79 78 88
0.30720598 -0.18662159 -0.89323795 77 76 88
0.30710244 -0.1869875 -0.89231217 80 79 89
0.30655935 -0.19333126 -0.89412934 69 70 81
0.30673182 -0.19248371 -0.89292938 72 72 84
0.30671692 -0.1928436 -0.8928076 72 73 85
0.30681416 -0.19245096 -0.89218301 74 74 86
0.3067579 -0.19021474 -0.89469361 68 66 77
0.30686319 -0.19173847 -0.89189821 76 76 87
0.30686551 -0.19151673 -0.89198971 76 76 87
0.30689391 -0.19057316 -0.89187384 78 78 87
0.30684 -0.18975224 -0.89392114 71 69 79
0.30688202 -0.18988474 -0.89267945 76 75 84
0.30684045 -0.19182621 -0.89245856 73 73 85
0.30662403 -0.19393143 -0.89462829 69 70 80
0.30674103 -0.19426364 -0.89411914 71 71 82
0.3066878 -0.19374801 -0.89355034 71 72 84
0.30690244 -0.19386093 -0.89159793 76 77 89
0.30689755 -0.19420718 -0.89239013 74 75 88
0.30673137 -0.19378698 -0.89318538 72 73 85
0.30718195 -0.1970939 -0.89120549 74 70 90
0.30710796 -0.19575663 -0.89283311 74 74 87
0.30718231 -0.19703709 -0.89141065 74 70 90
0.30714887 -0.19671723 -0.89118552 75 71 90
0.30715227 -0.19673613 -0.89125448 75 71 90
0.30707225 -0.195318 -0.89292109 75 75 87
0.3069202 -0.20097722 -0.89285743 74 73 86
0.30726367 -0.19778512 -0.89442647 73 73 84
0.30702457 -0.19895485 -0.89484113 71 70 84
0.30715221 -0.19872655 -0.89405245 73 73 84
0.30697784 -0.19997159 -0.89379358 73 71 85
0.3072215 -0.19819118 -0.89302886 74 73 86
0.30719307 -0.19741532 -0.89119673 75 70 90
0.30722833 -0.19806887 -0.8931815 74 73 86
0.30721804 -0.19780168 -0.89253056 74 72 87
0.30721506 -0.19870782 -0.89325696 75 75 85
0.30718237 -0.19918753 -0.89242655 76 75 86
0.30682248 -0.20212364 -0.89401799 69 67 83
0.30678964 -0.2029867 -0.89441061 68 65 79
0.30694586 -0.203339 -0.89347374 69 68 80
0.30698317 -0.20461759 -0.8934992 68 66 77
0.30708691 -0.20487565 -0.89288211 69 68 77
0.30690208 -0.20234802 -0.89348131 70 69 83
0.30690426 -0.20217651 -0.8933537 71 69 83
0.30698347 -0.20177153 -0.89240545 74 73 85
0.30715808 -0.20248875 -0.89133334 75 76 85
0.30710658 -0.20213102 -0.89155698 75 75 85
0.30655906 -0.20647946 -0.89458561 61 57 70
0.30660829 -0.20734771 -0.89381456 60 56 69
0.30689168 -0.20793536 -0.89249617 59 56 69
0.30691811 -0.20743148 -0.89276171 60 57 69
0.3070825 -0.20564874 -0.89271569 67 65 75
0.306981 -0.20621976 -0.89313471 64 61 72
0.30718538 -0.20532621 -0.8921845 69 68 77
0.30698499 -0.20669626 -0.8929109 63 59 71
0.30700862 -0.20512441 -0.89341146 68 65 75
0.3063809 -0.22391571 -0.89284593 60 57 66
0.30685657 -0.22453362 -0.89204603 62 61 69
0.30700967 -0.22426482 -0.89167833 61 60 69
0.30662447 -0.22499758 -0.89237547 63 60 68
0.30643889 -0.22667816 -0.89181799 59 55 64
0.30686557 -0.2250004 -0.89181995 62 60 68
0.30671951 -0.22598326 -0.89163232 60 58 67
0 0 0 1 0 0 0 1 0 0 0 1 0 0 0 0 0 775 1 0 0
