ply
format ascii 1.0
comment PCL generated
element vertex 708
property float x
property float y
property float z
property uchar red
property uchar green
property uchar blue
element camera 1
property float view_px
property float view_py
property float view_pz
property float x_axisx
property float x_axisy
property float x_axisz
property float y_axisx
property float y_axisy
property float y_axisz
property float z_axisx
property float z_axisy
property float z_axisz
property float focal
property float scalex
property float scaley
property float centerx
property float centery
property int viewportx
property int viewporty
property float k1
property float k2
end_header
-0.14695245 -0.11470841 -0.74020535 193 194 215
-0.147011 -0.11423677 -0.7396273 202 204 223
-0.14681102 -0.11353555 -0.73867851 215 218 235
-0.14525393 -0.1150168 -0.74014544 173 171 195
-0.14424925 -0.11522362 -0.74022388 161 155 177
-0.14527296 -0.11432555 -0.7392652 186 186 208
-0.14411724 -0.11461554 -0.73935807 167 165 190
-0.14303213 -0.11445384 -0.73889422 157 155 182
-0.14628492 -0.11441704 -0.73962247 196 196 217
-0.13983992 -0.11520072 -0.73945117 131 117 135
-0.14249568 -0.11514644 -0.73975337 144 136 157
-0.14230432 -0.11482704 -0.73927844 147 140 164
-0.13824092 -0.11521099 -0.73923057 126 109 127
-0.14885272 -0.11581694 -0.74234426 184 183 201
-0.14803855 -0.11538431 -0.74146193 184 185 205
-0.14764743 -0.11550718 -0.74149162 184 183 203
-0.14792068 -0.1155421 -0.74163592 184 183 203
-0.14326805 -0.11737855 -0.74243397 179 163 168
-0.14517085 -0.11633358 -0.74171817 181 172 187
-0.1464531 -0.11651664 -0.74244845 183 172 190
-0.14645104 -0.11574493 -0.74139291 183 178 199
-0.14346489 -0.11602204 -0.74094313 164 154 169
-0.14276062 -0.1155979 -0.74032766 150 141 159
-0.14404668 -0.11560114 -0.74060082 164 156 175
-0.14423297 -0.1162573 -0.74136364 175 165 179
-0.14574221 -0.11557326 -0.74092567 181 176 196
-0.13953495 -0.11862893 -0.74232477 180 160 154
-0.14056808 -0.11756723 -0.74159771 169 152 155
-0.14240657 -0.11601745 -0.74067843 154 142 157
-0.14142746 -0.11695773 -0.7412948 163 149 156
-0.14036658 -0.11774611 -0.74170846 171 153 154
-0.13940188 -0.11664011 -0.74058378 150 133 140
-0.14025107 -0.11747432 -0.74138427 167 150 153
-0.14041285 -0.1163536 -0.74049366 151 136 146
-0.13917218 -0.1179811 -0.74164444 170 150 148
-0.14077975 -0.11525327 -0.7396487 136 123 141
-0.14051023 -0.11642502 -0.7405656 152 137 148
-0.14130388 -0.11614089 -0.74044663 152 139 152
-0.13783816 -0.11866751 -0.74189931 177 154 149
-0.13747525 -0.1182944 -0.741539 171 149 148
-0.13854143 -0.11907542 -0.74242663 184 161 152
-0.13627149 -0.11856884 -0.74116391 167 142 141
-0.13520925 -0.11867805 -0.7407608 163 135 136
-0.13832858 -0.1190309 -0.74230981 183 159 151
-0.13580686 -0.11886285 -0.74112111 168 140 138
-0.13704449 -0.11702658 -0.74053115 154 135 144
-0.1368553 -0.11631739 -0.73992234 144 125 140
-0.13788164 -0.11526854 -0.73923385 127 110 128
-0.13864808 -0.1159823 -0.73994017 137 119 130
-0.13850607 -0.11764516 -0.74127263 163 142 142
-0.1384595 -0.11812391 -0.74165535 170 149 146
-0.1383999 -0.11598817 -0.73990464 137 119 131
-0.13419902 -0.11675043 -0.73930305 143 122 138
-0.13413084 -0.11834217 -0.7401399 157 131 134
-0.13331591 -0.11890575 -0.74013025 163 135 133
-0.13427283 -0.1181028 -0.74006504 155 129 135
-0.1328962 -0.11824974 -0.73961198 157 132 135
-0.13411601 -0.11736771 -0.73960567 148 125 136
-0.13374643 -0.11735592 -0.73945624 149 126 136
-0.13937242 -0.1226716 -0.74254102 174 147 138
-0.13550664 -0.12125235 -0.74081022 163 134 128
-0.13603744 -0.12179074 -0.74098241 164 136 129
-0.13538213 -0.12063586 -0.74085957 164 135 130
-0.1355156 -0.12093168 -0.74087352 164 135 129
-0.13546395 -0.12148178 -0.7407465 162 134 127
-0.13814206 -0.12156635 -0.74202567 174 148 139
-0.13667735 -0.12045802 -0.74150825 170 142 137
-0.13727711 -0.12001792 -0.74181694 175 149 142
-0.13666925 -0.1200093 -0.74155331 172 144 138
-0.13628986 -0.12016702 -0.74137115 169 141 136
-0.1355107 -0.11933356 -0.74112225 168 139 135
-0.13470733 -0.12010329 -0.74062014 163 133 129
-0.13390474 -0.12019884 -0.74029201 163 134 129
-0.13227934 -0.11960468 -0.73977178 165 137 131
-0.1393352 -0.12328617 -0.74239022 172 146 136
-0.13967498 -0.12489005 -0.74197721 170 141 131
-0.13990785 -0.12674576 -0.74138892 163 127 120
-0.13927166 -0.12559526 -0.74145699 164 129 123
-0.13915487 -0.12679093 -0.74091697 157 116 114
-0.13909303 -0.12374698 -0.74207509 171 144 134
-0.13908531 -0.12665538 -0.74092823 157 116 114
-0.137254 -0.12632023 -0.74009943 150 111 108
-0.13747379 -0.12533157 -0.74058777 156 118 114
-0.13858618 -0.12358053 -0.74184269 169 140 131
-0.13782416 -0.12323837 -0.74158847 167 140 130
-0.14272386 -0.13039182 -0.74157929 185 161 149
-0.14291285 -0.12866107 -0.74241132 185 162 147
-0.14169724 -0.12736619 -0.74220693 177 149 135
-0.14100724 -0.12723194 -0.74184918 171 140 129
-0.14164092 -0.12977423 -0.74117911 177 148 139
-0.14102376 -0.12814096 -0.74148089 172 140 131
-0.1405164 -0.12804754 -0.74121577 168 133 126
-0.14102486 -0.12875238 -0.74123037 172 140 132
-0.14140864 -0.1284207 -0.74159628 175 145 135
-0.14131527 -0.13077272 -0.74061704 179 154 138
-0.14008932 -0.130279 -0.7401132 172 143 126
-0.14160968 -0.13083246 -0.74076009 180 156 141
-0.14090322 -0.12932622 -0.74092704 171 139 132
-0.13797536 -0.12713854 -0.7401486 150 109 107
-0.13671754 -0.12762801 -0.73934489 147 112 104
-0.13700993 -0.12715268 -0.73966587 146 109 104
-0.1365256 -0.12705019 -0.73946428 144 108 103
-0.14373961 -0.13125564 -0.74190134 187 164 156
-0.14436397 -0.13232993 -0.74193281 190 168 163
-0.14473167 -0.13146722 -0.74246353 188 168 161
-0.14625177 -0.13427827 -0.74247301 196 176 178
-0.14268234 -0.13132651 -0.74120671 185 162 152
-0.14348663 -0.13401897 -0.74083036 191 173 167
-0.14380363 -0.13435847 -0.74091721 192 175 169
-0.14315377 -0.13250941 -0.74111491 188 167 159
-0.14385866 -0.13266525 -0.74150318 189 168 162
-0.14310119 -0.13218577 -0.74118763 187 166 157
-0.13900504 -0.13189195 -0.73897523 169 143 120
-0.14201577 -0.13473888 -0.7397331 186 170 160
-0.13940834 -0.13198836 -0.73915958 172 147 125
-0.14062577 -0.1340135 -0.73921233 177 157 142
-0.14043878 -0.13276215 -0.73947716 178 157 139
-0.14063318 -0.13287561 -0.73954648 179 159 141
-0.140735 -0.13280031 -0.73962623 180 159 142
-0.14102556 -0.13115828 -0.7403245 179 154 137
-0.1423517 -0.13187928 -0.74083447 185 164 152
-0.1419858 -0.13385466 -0.73998529 187 170 158
-0.14085864 -0.13089001 -0.74031812 178 152 134
-0.14026301 -0.13219905 -0.73955703 177 155 135
-0.14713874 -0.13734941 -0.74217886 190 176 185
-0.1467481 -0.13586198 -0.74232793 194 177 182
-0.14730364 -0.13681784 -0.74244136 190 175 183
-0.14287268 -0.13538426 -0.74004102 189 175 168
-0.1426118 -0.1353983 -0.73988301 188 173 165
-0.14302517 -0.13614234 -0.73994184 187 172 167
-0.14558959 -0.13524888 -0.74176139 194 177 178
-0.14557846 -0.13724032 -0.74119568 191 180 186
-0.14440076 -0.13516493 -0.74104446 193 177 175
-0.14513355 -0.13507269 -0.74152678 194 177 176
-0.14464328 -0.13581111 -0.74101418 192 178 178
-0.14637598 -0.13774008 -0.74155223 192 181 190
-0.14621355 -0.13744602 -0.74153352 192 181 188
-0.14243929 -0.13608141 -0.73962015 184 168 161
-0.14229476 -0.13487244 -0.73984551 188 173 164
-0.1407648 -0.13494602 -0.73902225 176 156 144
-0.14197017 -0.13551779 -0.73951417 183 166 157
-0.14772783 -0.13871703 -0.74220181 185 174 187
-0.14901906 -0.14152938 -0.74242353 154 132 151
-0.14895549 -0.14072661 -0.7425698 162 142 159
-0.15001605 -0.14431372 -0.74253398 139 114 122
-0.15980813 -0.12074242 -0.75464666 186 165 173
-0.15833116 -0.12205438 -0.7550332 188 162 176
-0.15870039 -0.12181656 -0.75501049 187 162 174
-0.15818016 -0.12154312 -0.75453544 190 166 180
-0.15818092 -0.12148146 -0.75448555 191 166 181
-0.15892927 -0.12648983 -0.75590807 178 155 165
-0.15949729 -0.12650311 -0.75647271 179 156 165
-0.16057503 -0.12691873 -0.7574755 179 157 165
-0.15877305 -0.12588489 -0.75585824 180 156 166
-0.15839083 -0.12477543 -0.75567132 182 156 167
-0.15905745 -0.1267556 -0.75598943 178 155 165
-0.15806484 -0.12476045 -0.75536364 181 156 167
-0.15808746 -0.12568626 -0.75522137 179 155 166
-0.15734746 -0.12488868 -0.75472814 180 157 168
-0.15646692 -0.12316484 -0.75432205 183 160 172
-0.15748188 -0.12458672 -0.75489688 181 157 169
-0.16242222 -0.12976094 -0.75802654 191 166 172
-0.15858489 -0.12856399 -0.75469792 180 159 168
-0.16093527 -0.13004908 -0.75636441 189 164 173
-0.15976283 -0.13037589 -0.75501984 186 164 172
-0.16083534 -0.1296659 -0.75644916 188 163 172
-0.16015606 -0.13077347 -0.75522476 188 165 173
-0.15926446 -0.1287293 -0.75531423 182 159 169
-0.15967093 -0.1308423 -0.7547006 187 165 173
-0.16154921 -0.13021588 -0.75690347 191 165 174
-0.16066939 -0.12927559 -0.75646865 187 162 171
-0.15997171 -0.12845221 -0.7561605 183 159 169
-0.15925911 -0.12715907 -0.75605893 178 156 165
-0.16127485 -0.12859735 -0.7573927 185 161 169
-0.16018 -0.12713851 -0.75698775 179 157 165
-0.15986161 -0.12769367 -0.75640821 181 158 167
-0.16172987 -0.12897468 -0.75766814 187 162 170
-0.16323678 -0.13206045 -0.75793713 189 168 176
-0.16361269 -0.13245258 -0.75820053 187 169 177
-0.16270772 -0.13248321 -0.75708306 189 170 179
-0.16286384 -0.13319041 -0.75692111 189 172 181
-0.16243681 -0.13293262 -0.75652415 192 174 182
-0.16262794 -0.13278614 -0.75683302 190 172 181
-0.16330296 -0.13474078 -0.7566855 186 177 185
-0.16200449 -0.13393521 -0.75552154 194 182 187
-0.16198564 -0.13462171 -0.75516027 195 186 190
-0.16112146 -0.1335652 -0.75486356 194 180 186
-0.16097806 -0.13103232 -0.75593185 191 167 175
-0.16014266 -0.13214935 -0.75455165 190 172 179
-0.1598939 -0.13213632 -0.7543062 189 172 178
-0.15944035 -0.13100986 -0.75438696 186 165 173
-0.16156496 -0.13234974 -0.75589448 194 174 181
-0.16211717 -0.13486037 -0.7551719 194 185 190
-0.16262682 -0.13655595 -0.75502598 180 164 180
-0.16327955 -0.13703756 -0.75551349 175 158 174
-0.16332316 -0.13503896 -0.75653672 185 175 184
-0.16346541 -0.1360541 -0.75611311 182 169 178
-0.1617623 -0.1360001 -0.75436324 187 173 186
-0.14473544 -0.11368363 -0.73825651 195 197 216
-0.14286794 -0.11429534 -0.73865056 158 157 183
-0.13341689 -0.11569256 -0.73855835 140 122 143
-0.13377602 -0.11541365 -0.73852926 137 119 143
-0.13893348 -0.13443135 -0.7381956 162 135 121
-0.13893065 -0.13303876 -0.73860031 166 140 120
-0.13964871 -0.13486616 -0.73845279 167 143 130
-0.15827629 -0.11867467 -0.7516126 164 141 154
-0.1582704 -0.11801687 -0.7504676 146 124 144
-0.1600856 -0.11894887 -0.75303096 174 155 161
-0.15905549 -0.11794461 -0.75063765 147 128 147
-0.15985814 -0.11773979 -0.75052989 146 129 150
-0.15806144 -0.11895137 -0.75198233 172 148 159
-0.15624143 -0.11911675 -0.75133747 183 156 173
-0.15717046 -0.1188318 -0.75131845 172 147 163
-0.15739675 -0.11842243 -0.75072366 160 136 155
-0.15899636 -0.12030247 -0.75386137 186 164 174
-0.15976673 -0.11941527 -0.75344974 181 160 166
-0.15463829 -0.11979584 -0.75091636 187 161 180
-0.15758304 -0.11955406 -0.75229198 177 154 164
-0.15534976 -0.12047711 -0.75165218 183 159 174
-0.15473461 -0.11990347 -0.75102443 187 161 179
-0.15662563 -0.11944165 -0.75174052 181 156 170
-0.15595141 -0.12127646 -0.75239617 178 157 167
-0.15730377 -0.12159438 -0.75383806 188 166 179
-0.15587027 -0.12221579 -0.75314212 183 163 174
-0.15775473 -0.12064905 -0.75337005 184 161 173
-0.15779972 -0.11997347 -0.75279075 180 156 167
-0.15690623 -0.1211612 -0.75309026 182 160 172
-0.1557299 -0.12242336 -0.75320476 183 163 175
-0.15561299 -0.12266088 -0.75330371 182 162 174
-0.15429062 -0.12273463 -0.75233948 179 161 172
-0.15351309 -0.12202598 -0.75132906 183 161 172
-0.15424152 -0.11999095 -0.75080353 188 162 181
-0.15335453 -0.12239008 -0.75140041 182 161 171
-0.15322879 -0.12225842 -0.75122774 183 161 171
-0.15564063 -0.12306217 -0.75364524 182 160 172
-0.15660466 -0.12399191 -0.75428003 182 159 171
-0.15593171 -0.12516594 -0.75348741 177 158 168
-0.1563459 -0.12451135 -0.75396222 180 159 169
-0.15463947 -0.12410602 -0.75254726 178 159 169
-0.15558824 -0.12509702 -0.75317866 177 158 168
-0.15496776 -0.12681988 -0.7521041 178 156 166
-0.15600571 -0.12617564 -0.75327718 177 157 166
-0.15564871 -0.12540807 -0.75314975 177 158 167
-0.154119 -0.12503821 -0.75181258 179 159 168
-0.15371953 -0.12524945 -0.75142425 179 159 168
-0.15410492 -0.12598568 -0.75153661 179 158 167
-0.15394229 -0.1240961 -0.75193018 179 160 169
-0.15322134 -0.12584247 -0.75085193 179 158 167
-0.15350653 -0.1254323 -0.75119811 179 159 167
-0.15326938 -0.12335655 -0.75160187 180 160 168
-0.15910205 -0.13062395 -0.75421882 185 164 172
-0.15459193 -0.1290112 -0.7507875 182 161 167
-0.15536773 -0.12967153 -0.75118345 183 163 169
-0.15722658 -0.13022541 -0.75254589 186 165 170
-0.15668435 -0.13028949 -0.75205195 185 165 170
-0.1565482 -0.13043344 -0.75187325 185 165 170
-0.15488097 -0.12762906 -0.75163829 180 158 166
-0.15498075 -0.12767783 -0.75170326 180 159 167
-0.15616366 -0.12773447 -0.75280166 179 158 167
-0.15753795 -0.12889953 -0.753506 182 162 168
-0.15543506 -0.12731296 -0.75232542 179 157 166
-0.15603708 -0.12722811 -0.75294608 178 157 166
-0.15459302 -0.12705176 -0.75165659 179 157 166
-0.15759498 -0.12830466 -0.75387251 180 160 168
-0.15774824 -0.12795161 -0.75417948 178 158 167
-0.15371993 -0.12722304 -0.75082779 179 157 166
-0.15917069 -0.13119234 -0.75400382 187 167 174
-0.15890115 -0.13131982 -0.75364178 188 169 174
-0.15880048 -0.13224719 -0.75307268 190 173 177
-0.1595218 -0.13448319 -0.7527526 194 180 184
-0.15856503 -0.13152064 -0.75317556 189 170 174
-0.15915854 -0.13366961 -0.75276375 192 177 181
-0.15846233 -0.13465573 -0.75156289 194 177 181
-0.15861012 -0.13269508 -0.75265872 191 173 177
-0.15719146 -0.13455969 -0.75054008 188 168 175
-0.15759909 -0.13329564 -0.75146866 188 168 174
-0.15690866 -0.13275263 -0.75112939 187 167 173
-0.15587841 -0.13173771 -0.75071031 186 166 171
-0.15584837 -0.13102202 -0.75101405 185 165 170
-0.1570171 -0.13452926 -0.7504046 187 167 175
-0.15692593 -0.13148862 -0.75172627 186 166 171
-0.15571401 -0.13120523 -0.75081408 185 165 170
-0.16211091 -0.1378013 -0.75391924 175 155 180
-0.15838245 -0.13674577 -0.75078005 188 174 176
-0.15872717 -0.13689463 -0.75104702 186 172 177
-0.15867302 -0.13697326 -0.75097364 186 172 176
-0.16052963 -0.13717304 -0.75258511 179 159 179
-0.15904854 -0.13848546 -0.75084013 181 168 174
-0.1612732 -0.13848318 -0.75284642 173 153 177
-0.1598784 -0.13755277 -0.75187939 181 163 177
-0.1608455 -0.13663101 -0.7531504 183 165 182
-0.15990199 -0.13493022 -0.75293922 194 180 186
-0.16138786 -0.13681304 -0.75363415 182 165 183
-0.16112076 -0.1376304 -0.75298285 176 155 178
-0.15890782 -0.13503076 -0.75185478 192 176 182
-0.1596466 -0.13580394 -0.75227451 187 170 181
-0.16200286 -0.13778114 -0.75382477 175 155 181
-0.15815507 -0.13612397 -0.75076431 190 175 177
-0.16228294 -0.14076473 -0.75312155 162 141 161
-0.16243742 -0.14208072 -0.75290614 158 138 150
-0.16279423 -0.14186786 -0.75335032 156 136 149
-0.16195628 -0.13963193 -0.75312716 167 145 170
-0.16124469 -0.14075729 -0.75216812 164 143 161
-0.16197453 -0.13913704 -0.75328666 168 146 174
-0.16083971 -0.14241555 -0.75132757 159 139 149
-0.15965226 -0.14026447 -0.75087589 171 155 163
-0.16010028 -0.13874495 -0.75170946 177 160 174
-0.16048911 -0.14096753 -0.75143152 164 144 159
-0.15992069 -0.14028655 -0.75111163 170 153 163
-0.158822 -0.13926594 -0.75040972 179 166 169
-0.16061214 -0.13968313 -0.75190562 170 151 168
-0.16335593 -0.14345613 -0.7535066 145 124 136
-0.1629594 -0.1439406 -0.75296181 145 124 136
-0.16246501 -0.14487943 -0.7523095 144 129 138
-0.16261582 -0.1446536 -0.75249696 144 127 137
-0.16181642 -0.145722 -0.75155377 144 133 139
-0.16147421 -0.1463006 -0.75114566 142 132 138
-0.16163558 -0.14642769 -0.75126153 141 132 137
-0.16154522 -0.14404063 -0.75163978 154 137 144
-0.16072515 -0.14392847 -0.75093067 154 137 144
-0.16077234 -0.14386483 -0.75098431 154 137 145
-0.1602318 -0.14434151 -0.75041586 153 137 143
-0.16076165 -0.14677091 -0.75044769 142 129 135
-0.1610058 -0.14707299 -0.75061375 138 123 131
-0.15352993 -0.11657746 -0.74586171 153 149 189
-0.15404093 -0.11668307 -0.74630052 148 142 187
-0.15279806 -0.11687445 -0.74597633 163 156 192
-0.15065901 -0.1174253 -0.74578559 190 179 199
-0.15218031 -0.11670762 -0.74538094 169 163 194
-0.1515591 -0.11700379 -0.74555135 177 170 197
-0.14659342 -0.11844159 -0.74522221 182 159 175
-0.14859529 -0.11751051 -0.74495888 190 175 193
-0.14765565 -0.11747773 -0.74442571 187 171 189
-0.1473549 -0.11867468 -0.74596792 185 162 177
-0.14889099 -0.11819644 -0.74608511 190 172 189
-0.14840169 -0.11852929 -0.74630386 188 168 184
-0.14741723 -0.11735706 -0.74413103 186 171 188
-0.14886734 -0.11707883 -0.74440753 189 178 196
-0.14956972 -0.11604453 -0.74299949 183 183 201
-0.1493236 -0.11655376 -0.74373627 186 181 199
-0.14920789 -0.1165401 -0.74366313 186 180 199
-0.1488117 -0.11663731 -0.74365127 186 179 197
-0.15034294 -0.11775891 -0.74617934 194 181 200
-0.14859301 -0.11608557 -0.74264109 183 180 198
-0.14258172 -0.1189777 -0.74400187 181 165 166
-0.14312367 -0.11909332 -0.74440008 181 164 167
-0.14534706 -0.11913903 -0.74556679 181 156 168
-0.14554733 -0.11878542 -0.74528086 180 154 167
-0.14596082 -0.1187793 -0.74543124 180 155 169
-0.14542985 -0.11735805 -0.74323243 181 165 178
-0.1454794 -0.11817428 -0.74439698 180 159 172
-0.14485203 -0.11774703 -0.7435562 180 162 172
-0.14598931 -0.11693379 -0.74285209 183 169 184
-0.14206895 -0.1184731 -0.74323392 180 163 162
-0.14177941 -0.11798708 -0.74258125 179 161 160
-0.14088948 -0.11845013 -0.74270803 181 162 158
-0.14662138 -0.12090213 -0.74646133 183 156 165
-0.14523885 -0.12180166 -0.74573046 181 154 158
-0.14331752 -0.12234191 -0.74462777 176 150 149
-0.14507899 -0.12156051 -0.74560094 180 153 158
-0.14472398 -0.1219961 -0.7454415 180 153 155
-0.14621624 -0.12138074 -0.74627209 183 156 162
-0.14591891 -0.12153364 -0.74611062 182 155 161
-0.14321168 -0.11927512 -0.74449939 181 163 166
-0.14449732 -0.12094253 -0.74518406 178 152 157
-0.14388108 -0.12155458 -0.74488878 177 151 154
-0.14534763 -0.11951701 -0.74557799 180 155 166
-0.14456992 -0.11974726 -0.74519271 180 156 164
-0.14266589 -0.12259587 -0.74430263 176 151 147
-0.14216152 -0.1207941 -0.7439872 179 158 156
-0.14211933 -0.12058367 -0.74395907 179 159 157
-0.14246584 -0.12133636 -0.74416739 178 156 154
-0.14153849 -0.12126944 -0.7436552 177 155 152
-0.14240754 -0.12237427 -0.74415946 176 152 148
-0.14168826 -0.1202587 -0.74371552 179 160 158
-0.14045551 -0.12046256 -0.74317664 179 158 152
-0.14200632 -0.11963345 -0.74389791 181 163 162
-0.14160764 -0.11944564 -0.74374288 181 163 161
-0.13965103 -0.12162433 -0.74274701 177 152 144
-0.14700434 -0.12591001 -0.74607664 187 165 169
-0.14749587 -0.12603641 -0.74638247 186 163 168
-0.14319253 -0.12311461 -0.74462098 177 151 147
-0.14367078 -0.12338421 -0.74482358 179 153 150
-0.14327507 -0.12336275 -0.74458987 178 152 148
-0.14415072 -0.12418573 -0.74485344 180 156 155
-0.14642724 -0.12412733 -0.74625766 187 163 163
-0.14535464 -0.124914 -0.74534774 184 161 162
-0.14448957 -0.12359767 -0.74525195 181 156 154
-0.14262202 -0.12613375 -0.74321187 182 159 142
-0.14279297 -0.12477445 -0.74379784 179 155 145
-0.14414516 -0.12540102 -0.74443334 182 160 156
-0.14299732 -0.12436645 -0.74407059 179 154 147
-0.14509179 -0.12669352 -0.74457812 186 165 162
-0.14374176 -0.12592052 -0.74399543 183 160 152
-0.14369187 -0.12648906 -0.74376404 184 162 151
-0.14231397 -0.12570943 -0.74318427 179 154 140
-0.14143838 -0.12353508 -0.743469 175 149 141
-0.14201847 -0.12505767 -0.74325031 177 151 140
-0.14092776 -0.12380143 -0.74309373 175 148 139
-0.14097063 -0.12519351 -0.74262536 176 150 137
-0.14107141 -0.12416522 -0.74304426 175 149 139
-0.14692625 -0.12728418 -0.74553949 188 168 173
-0.14752597 -0.12786984 -0.74571389 187 167 172
-0.14808176 -0.12717488 -0.74640214 186 164 171
-0.14677715 -0.12771606 -0.74526113 188 169 173
-0.14719114 -0.12790057 -0.74546981 188 168 173
-0.14838868 -0.12920515 -0.74576312 187 167 171
-0.14655216 -0.12781571 -0.74506718 189 169 173
-0.1488049 -0.13004775 -0.74570835 187 168 170
-0.1467445 -0.13031726 -0.74419123 190 172 172
-0.14682378 -0.1302091 -0.74428898 190 172 172
-0.14323491 -0.12837575 -0.74273318 185 163 147
-0.14401831 -0.12931043 -0.74285084 186 165 153
-0.14405107 -0.12957916 -0.74276149 186 165 154
-0.14473733 -0.13029161 -0.74290866 187 167 159
-0.14396071 -0.12865043 -0.74308503 186 166 153
-0.14553778 -0.12955312 -0.74372202 189 170 165
-0.14458093 -0.12844941 -0.74356097 187 167 158
-0.14634831 -0.1272743 -0.74515271 188 169 172
-0.14610215 -0.12933813 -0.74416584 189 171 170
-0.14504856 -0.12856272 -0.74381125 187 168 161
-0.14647509 -0.12950233 -0.74433571 190 172 173
-0.15045591 -0.13182843 -0.74616665 186 168 171
-0.15142719 -0.13443534 -0.74598765 188 171 173
-0.15136591 -0.13346063 -0.74629176 187 169 171
-0.14824449 -0.13341404 -0.7440902 192 175 176
-0.14674026 -0.13353851 -0.74304777 194 175 177
-0.14773399 -0.13292615 -0.743918 192 174 176
-0.14692438 -0.13305661 -0.74333513 193 175 176
-0.14759001 -0.13272353 -0.7438916 192 174 175
-0.14920267 -0.13430598 -0.74442166 192 175 177
-0.14885981 -0.13309884 -0.74460971 190 174 175
-0.14876251 -0.13159458 -0.74508685 188 171 172
-0.15033939 -0.13092203 -0.74640793 185 166 169
-0.14954446 -0.13286127 -0.74516362 189 172 174
-0.14974183 -0.1339623 -0.74490064 190 174 176
-0.14911893 -0.13340858 -0.74467498 190 174 176
-0.14964649 -0.13346477 -0.74501526 190 173 175
-0.14567754 -0.1323963 -0.7427507 191 172 170
-0.14544722 -0.13232209 -0.74262857 191 171 168
-0.15150928 -0.13549137 -0.74571103 189 172 176
-0.15259866 -0.13712724 -0.74606711 188 172 177
-0.15161365 -0.1355512 -0.74577475 189 172 176
-0.15261568 -0.13617805 -0.74637049 188 170 175
-0.15268946 -0.13849661 -0.74576044 184 165 177
-0.15136369 -0.13802564 -0.74490458 180 160 175
-0.1512832 -0.13743483 -0.74500257 182 163 176
-0.15096539 -0.1383428 -0.74452502 177 155 174
-0.15130791 -0.13635935 -0.7453078 187 170 177
-0.15032724 -0.13728486 -0.74433911 179 159 175
-0.14982767 -0.1364769 -0.74421853 186 169 178
-0.149928 -0.13694715 -0.74416059 183 165 177
-0.14952786 -0.13765737 -0.74370188 182 165 179
-0.1483587 -0.13678089 -0.74315661 188 173 182
-0.14874378 -0.13537215 -0.74379468 192 175 179
-0.14898804 -0.13569701 -0.74386895 190 174 180
-0.14881077 -0.13715339 -0.74335605 187 173 182
-0.14887604 -0.13612868 -0.74367738 189 174 180
-0.14834003 -0.13528189 -0.74355084 192 175 179
-0.1527022 -0.13882115 -0.74568474 182 164 176
-0.15306221 -0.13969316 -0.74572724 180 163 171
-0.15373965 -0.13926494 -0.74633878 185 169 175
-0.15270518 -0.14073601 -0.74520159 174 157 165
-0.15319349 -0.14012371 -0.7457155 178 163 169
-0.15239461 -0.14044033 -0.74504668 174 156 166
-0.15298449 -0.14122394 -0.74528527 173 156 163
-0.15211836 -0.14071213 -0.74477929 170 151 163
-0.15177797 -0.14135471 -0.74438149 163 142 156
-0.15196857 -0.14213431 -0.74433529 159 138 149
-0.15098612 -0.13981417 -0.74417269 169 146 165
-0.1510344 -0.14097252 -0.74393415 161 137 155
-0.15178794 -0.14090154 -0.74449569 167 146 160
-0.15045728 -0.14170808 -0.74334323 151 125 145
-0.15012443 -0.14196752 -0.74306047 148 121 142
-0.15006791 -0.13878711 -0.74376792 173 152 173
-0.14929356 -0.13969289 -0.74303699 169 150 168
-0.14956997 -0.14225146 -0.74263012 146 119 140
-0.15570413 -0.14561722 -0.74642891 156 137 139
-0.15490758 -0.14554112 -0.7458021 157 139 138
-0.1548665 -0.14578541 -0.74571908 156 138 136
-0.15459292 -0.14597824 -0.74545896 155 138 134
-0.15039745 -0.14326908 -0.74297023 143 116 131
-0.15125117 -0.14469136 -0.74331236 143 119 124
-0.15183684 -0.14605661 -0.74347693 142 121 116
-0.15297049 -0.14528421 -0.74440598 149 129 131
-0.1532522 -0.1460561 -0.74446452 149 130 126
-0.15124106 -0.14576709 -0.74311298 140 118 115
-0.15155262 -0.14432923 -0.74358737 145 121 129
-0.15337701 -0.14508119 -0.7447381 153 134 135
-0.1522371 -0.14416458 -0.74410093 150 127 135
-0.15303302 -0.14491916 -0.74452245 151 131 134
-0.15127984 -0.14336517 -0.743572 147 121 136
-0.1520555 -0.14267483 -0.7442736 156 134 145
-0.15163158 -0.14277984 -0.74394572 152 129 142
-0.15260114 -0.14432332 -0.74433178 151 130 136
-0.14996491 -0.1436179 -0.74262524 141 115 128
-0.15653457 -0.14956872 -0.74645305 133 119 122
-0.15572789 -0.14652801 -0.74626493 151 131 133
-0.15518245 -0.14814696 -0.74557877 143 128 125
-0.15432493 -0.14723083 -0.74502707 150 135 128
-0.15650122 -0.15026379 -0.74632072 129 117 120
-0.15505171 -0.15035324 -0.74514163 137 128 122
-0.15290411 -0.1497574 -0.74367255 140 126 118
-0.15310745 -0.15011247 -0.74375808 140 127 118
-0.15372503 -0.15010646 -0.74418098 141 130 121
-0.15417016 -0.14707002 -0.74494219 151 134 128
-0.15231413 -0.14729124 -0.74362051 142 123 116
-0.15192688 -0.14911525 -0.74309492 139 120 114
-0.15269713 -0.14729092 -0.74388778 144 125 119
-0.15171359 -0.14990313 -0.74283582 137 118 113
-0.15328035 -0.14721566 -0.74430525 147 129 123
-0.15480578 -0.15083966 -0.7448678 137 126 118
-0.1561849 -0.15208896 -0.74578089 124 107 106
-0.15658286 -0.15114991 -0.74624819 125 111 113
-0.15574408 -0.15127929 -0.74555337 130 116 113
-0.15509248 -0.15163511 -0.74498063 132 118 112
-0.15350395 -0.15207365 -0.7437861 134 119 113
-0.15417506 -0.15198946 -0.74423987 134 121 115
-0.15386024 -0.1506304 -0.74420244 140 130 120
-0.15343058 -0.1513982 -0.7438187 136 123 116
-0.15341924 -0.15182413 -0.74376094 135 120 114
-0.15243973 -0.15074641 -0.74321812 136 120 114
-0.16151606 -0.12660691 -0.75838447 181 161 166
-0.16601731 -0.13033889 -0.76190186 190 169 178
-0.16218734 -0.12809861 -0.75851542 184 160 168
-0.16313736 -0.13020195 -0.75869036 192 168 174
-0.16272017 -0.1296443 -0.75846159 190 166 172
-0.16259271 -0.12853989 -0.75881606 186 162 169
-0.16468586 -0.13037299 -0.76040244 191 170 177
-0.16309902 -0.12936202 -0.75902772 188 165 172
-0.16404182 -0.12956387 -0.76002568 189 167 174
-0.1639986 -0.12817492 -0.76056302 182 159 169
-0.16546625 -0.13009827 -0.76141536 189 169 177
-0.16305484 -0.12771438 -0.75971317 182 159 168
-0.16287988 -0.12741952 -0.75963706 180 157 167
-0.16546348 -0.12928031 -0.76173031 184 163 173
-0.16569646 -0.12925783 -0.76197702 184 162 172
-0.1617884 -0.12738602 -0.75845248 181 158 166
-0.1664542 -0.13181683 -0.76184684 185 164 175
-0.16630796 -0.13207912 -0.76151782 184 165 176
-0.16558325 -0.13245332 -0.76046503 185 169 180
-0.16429831 -0.13206038 -0.7591753 188 170 178
-0.16510759 -0.13314125 -0.75960839 183 169 180
-0.16303614 -0.13090506 -0.75825346 194 170 175
-0.16381535 -0.13215239 -0.75857437 188 169 177
-0.16425243 -0.13097841 -0.75962514 193 171 177
-0.16386376 -0.13120683 -0.75906974 192 171 176
-0.15655531 -0.11798736 -0.74960089 155 135 161
-0.15509044 -0.11787722 -0.74872947 162 144 177
-0.15573943 -0.11861891 -0.75022912 172 147 169
-0.1558063 -0.11768688 -0.74876291 154 138 169
-0.15519851 -0.1188741 -0.75038278 180 153 175
-0.15782662 -0.11803455 -0.75027937 149 127 147
-0.15772329 -0.11753905 -0.74932891 148 132 157
-0.15108083 -0.1186663 -0.74786472 198 178 195
-0.15082453 -0.11907959 -0.74826151 201 180 194
-0.15059824 -0.11808633 -0.74681288 196 180 198
-0.1512244 -0.11801257 -0.7470336 191 175 196
-0.15323722 -0.11837798 -0.74862772 184 163 189
-0.15352193 -0.11793763 -0.74806249 174 157 188
-0.15237059 -0.11778224 -0.74723685 179 164 192
-0.15349714 -0.11697606 -0.74650496 156 148 188
-0.1518414 -0.11803609 -0.74738002 187 170 194
-0.14993666 -0.11881731 -0.74743956 198 179 193
-0.14976059 -0.11896062 -0.74754423 198 177 191
-0.15085074 -0.12282956 -0.74962664 181 158 162
-0.15196131 -0.12208605 -0.75011498 184 160 168
-0.15154858 -0.12211648 -0.7497986 183 159 166
-0.15353777 -0.11969545 -0.7501204 190 162 181
-0.15090854 -0.12224302 -0.74941432 183 160 165
-0.15125167 -0.12101259 -0.7492106 189 166 176
-0.1509525 -0.12016635 -0.74875587 195 173 184
-0.15173757 -0.12133267 -0.74960166 186 161 171
-0.15277508 -0.12052074 -0.74994397 187 161 176
-0.15106332 -0.11939377 -0.74856651 199 177 191
-0.14712758 -0.12001341 -0.74660903 185 159 170
-0.14968358 -0.11932625 -0.74776697 199 177 189
-0.14741388 -0.1199213 -0.746737 186 161 172
-0.14959763 -0.11987155 -0.74778944 199 178 188
-0.14809945 -0.12061886 -0.74714786 191 167 176
-0.14945209 -0.12301085 -0.74870962 182 158 160
-0.14953783 -0.12078349 -0.74803543 195 173 180
-0.14807273 -0.12163842 -0.74729753 192 168 173
-0.14929318 -0.12219398 -0.74832994 187 164 167
-0.14812735 -0.12277365 -0.74770957 186 161 163
-0.14859718 -0.12211522 -0.7478196 189 165 168
-0.14986196 -0.12272279 -0.7489 183 160 163
-0.15261599 -0.12622327 -0.75025642 180 158 165
-0.1514578 -0.12324468 -0.75017899 182 160 164
-0.15065347 -0.12444229 -0.74915248 181 158 162
-0.15070659 -0.12397612 -0.74934721 181 158 161
-0.15191109 -0.12623741 -0.74965262 181 158 165
-0.15224971 -0.12674324 -0.74978006 181 158 166
-0.15162897 -0.12566358 -0.74959522 181 158 164
-0.14720586 -0.12494528 -0.7465378 186 162 165
-0.14965403 -0.12664028 -0.74770755 184 161 167
-0.14822194 -0.12510139 -0.74720472 185 161 165
-0.15009166 -0.12679547 -0.74796486 184 161 167
-0.14811145 -0.1267176 -0.74659491 185 163 170
-0.15026453 -0.12548196 -0.74850714 183 159 165
-0.15024453 -0.12616538 -0.74827433 183 160 166
-0.14976172 -0.12338381 -0.74882919 182 158 160
-0.14992653 -0.12368561 -0.74884725 182 158 161
-0.14808032 -0.124016 -0.74745661 185 160 162
-0.14956208 -0.12346233 -0.74866509 182 158 161
-0.14981714 -0.1233198 -0.74888825 182 158 160
-0.15430577 -0.12943643 -0.75031954 182 161 167
-0.15147483 -0.13040699 -0.74755418 184 164 168
-0.15203778 -0.12956458 -0.74837637 184 163 168
-0.15149201 -0.1292941 -0.74804038 184 163 168
-0.15320572 -0.13074511 -0.74884009 184 164 168
-0.15196384 -0.12936242 -0.74840099 184 163 168
-0.15189292 -0.12856907 -0.74867892 184 162 168
-0.15179323 -0.13045 -0.74779886 184 164 168
-0.1538185 -0.1307357 -0.74935013 184 163 168
-0.15249521 -0.1290288 -0.74898207 183 162 167
-0.15356824 -0.1296678 -0.74960977 183 162 167
-0.15246575 -0.12838182 -0.74925005 183 161 167
-0.15188143 -0.12791048 -0.74896413 183 161 167
-0.15173532 -0.12762636 -0.74896806 182 160 167
-0.15418354 -0.13031125 -0.74984062 183 163 167
-0.14893396 -0.12706313 -0.7470504 185 162 169
-0.15015161 -0.12719072 -0.74785435 184 161 168
-0.1494046 -0.1290503 -0.74653846 185 164 169
-0.14950405 -0.12795691 -0.74707264 185 163 169
-0.1556173 -0.13219096 -0.75026596 185 165 171
-0.15584019 -0.13281326 -0.75016207 186 166 172
-0.15601948 -0.13424961 -0.74969876 185 164 171
-0.15443707 -0.1346481 -0.74824119 179 155 164
-0.15518188 -0.13208178 -0.74991053 185 165 170
-0.15485942 -0.13291769 -0.74930149 183 161 168
-0.15453026 -0.13332427 -0.74886447 181 159 166
-0.15325545 -0.13342889 -0.7478348 185 165 169
-0.15412027 -0.13157628 -0.74926144 183 163 167
-0.15412748 -0.13184962 -0.74915397 183 162 167
-0.15349016 -0.1341504 -0.74771589 183 162 167
-0.15267472 -0.13268055 -0.74766034 186 166 170
-0.15122871 -0.13091086 -0.74713951 184 164 168
-0.15396592 -0.13089597 -0.7494055 184 164 168
-0.1535015 -0.13120757 -0.74890345 184 164 168
-0.15298489 -0.13276823 -0.74788308 186 167 170
-0.15159494 -0.13279437 -0.74672538 186 167 170
-0.15328689 -0.13117358 -0.74873918 184 164 168
-0.15833922 -0.13864863 -0.75011629 185 173 173
-0.15508378 -0.13525569 -0.74855763 180 158 166
-0.156222 -0.13488159 -0.74961227 184 163 171
-0.15611403 -0.13555919 -0.74929827 183 163 169
-0.15587059 -0.13623507 -0.74887455 181 162 168
-0.15651314 -0.13668114 -0.74925089 183 166 169
-0.15690333 -0.13806969 -0.74912769 185 172 173
-0.15436478 -0.13696088 -0.74746388 185 167 172
-0.15597448 -0.13672566 -0.74880427 182 165 169
-0.15473413 -0.13594928 -0.74806267 182 161 167
-0.15603481 -0.13847883 -0.74831861 188 175 176
-0.15435007 -0.13768436 -0.7472322 187 171 175
-0.15452114 -0.13506542 -0.74816364 179 156 164
-0.15427159 -0.13667783 -0.74747837 184 165 171
-0.15275556 -0.13488518 -0.74686468 185 166 170
-0.15327524 -0.13730471 -0.74654275 187 170 176
-0.1534504 -0.13704157 -0.74675483 186 168 174
-0.15853643 -0.1390402 -0.75019222 182 170 171
-0.15898776 -0.14199403 -0.74978352 163 146 154
-0.15933362 -0.14139293 -0.75025427 167 150 155
-0.15875602 -0.14040932 -0.74999976 174 159 163
-0.15477262 -0.13953353 -0.74704391 185 171 173
-0.15496899 -0.14079462 -0.74688751 178 164 167
-0.15748711 -0.14213146 -0.7484858 164 148 157
-0.15554379 -0.14218545 -0.74698853 170 156 159
-0.15649505 -0.14223905 -0.747702 166 151 157
-0.15546723 -0.1415204 -0.74709165 173 159 162
-0.15643084 -0.14026968 -0.74814463 177 162 168
-0.15718758 -0.13914317 -0.74904251 184 171 172
-0.15752442 -0.14027476 -0.74900526 176 162 166
-0.15632042 -0.13921508 -0.74833971 184 171 173
-0.15617424 -0.13881963 -0.7483303 187 174 175
-0.15623131 -0.13898428 -0.74833119 186 173 174
-0.15781748 -0.14096265 -0.74905229 171 156 162
-0.15393499 -0.13871273 -0.74662066 188 172 178
-0.15950125 -0.1438015 -0.74986118 155 139 147
-0.15895365 -0.14281534 -0.74955279 158 141 150
-0.16019753 -0.14486644 -0.75028825 151 136 143
-0.1586425 -0.14622757 -0.74862283 149 129 139
-0.15856785 -0.14488173 -0.74881321 153 134 144
-0.16010845 -0.1463183 -0.74993515 147 133 139
-0.15871513 -0.1435369 -0.7492047 156 140 150
-0.15817575 -0.14499208 -0.74844033 153 133 144
-0.15771352 -0.1454587 -0.7479974 152 132 141
-0.15715791 -0.14490671 -0.74767852 154 135 142
-0.15814479 -0.14613296 -0.74819779 150 128 139
-0.15721162 -0.14309162 -0.74806815 161 144 152
-0.15649785 -0.14519948 -0.74711794 155 135 140
-0.15661243 -0.14389624 -0.74745589 159 142 148
-0.15589516 -0.14440498 -0.74681038 160 142 146
-0.15715538 -0.14353544 -0.74793994 159 142 149
-0.15682352 -0.1445512 -0.74749124 156 138 144
-0.15974706 -0.14716056 -0.74946785 139 119 130
-0.15788384 -0.15036845 -0.74735874 119 103 118
-0.15648225 -0.14655305 -0.7468496 150 129 134
-0.15688311 -0.14837754 -0.74689293 139 122 128
-0.15694386 -0.14967392 -0.74675238 131 118 123
-0.15706034 -0.14907815 -0.74692738 135 119 125
-0.15761812 -0.15188213 -0.74693573 116 96 106
-0.15720418 -0.15063317 -0.74680734 123 109 117
-0.15749131 -0.15158573 -0.74688375 118 99 109
-0.16613345 -0.12858497 -0.76278609 180 157 169
-0.16627197 -0.12889174 -0.76282388 181 158 170
-0.16584393 -0.12900865 -0.76222205 183 160 171
-0.16575669 -0.12870306 -0.76225197 181 158 170
0 0 0 1 0 0 0 1 0 0 0 1 0 0 0 0 0 708 1 0 0
