ply
format ascii 1.0
comment PCL generated
element vertex 941
property float x
property float y
property float z
property uchar red
property uchar green
property uchar blue
element camera 1
property float view_px
property float view_py
property float view_pz
property float x_axisx
property float x_axisy
property float x_axisz
property float y_axisx
property float y_axisy
property float y_axisz
property float z_axisx
property float z_axisy
property float z_axisz
property float focal
property float scalex
property float scaley
property float centerx
property float centery
property int viewportx
property int viewporty
property float k1
property float k2
end_header
-0.1243309 0.36165601 -0.81822038 95 73 73
-0.12562384 0.36257493 -0.81750029 91 70 70
-0.12541415 0.36317036 -0.81770343 89 66 67
-0.12388263 0.36206806 -0.81855518 93 70 70
-0.12468978 0.36258876 -0.81809932 91 69 69
-0.12465619 0.36312509 -0.81817728 89 65 67
-0.12222733 0.36250779 -0.81972015 90 65 67
-0.12247834 0.36220878 -0.81950665 92 67 68
-0.12413235 0.36110327 -0.81828099 97 76 75
-0.1238288 0.35865325 -0.8181693 109 90 84
-0.12340242 0.35912192 -0.81850082 107 86 81
-0.12368812 0.35985827 -0.81840992 103 83 79
-0.1231967 0.36024523 -0.81877291 102 80 77
-0.12395543 0.36090159 -0.81836915 98 77 75
-0.12404907 0.35789478 -0.81791675 111 93 87
-0.12547593 0.36013007 -0.81729805 101 84 81
-0.12521088 0.35920072 -0.81733578 104 87 83
-0.1257991 0.35976189 -0.81702662 101 84 82
-0.12176931 0.35880545 -0.81965244 106 85 81
-0.12080976 0.35958847 -0.82047957 99 79 76
-0.12043329 0.3586807 -0.82067943 101 81 77
-0.12262414 0.35797873 -0.81890225 112 92 85
-0.12085877 0.3574293 -0.82021987 108 88 81
-0.12185499 0.3594698 -0.81965429 103 83 80
-0.12233018 0.35941777 -0.819296 105 84 80
-0.12211324 0.36014244 -0.81954718 101 79 77
-0.12446384 0.35734901 -0.81755584 111 93 88
-0.12400815 0.35536617 -0.81752205 107 89 90
-0.12322711 0.3572351 -0.81836361 114 95 88
-0.12324668 0.35468826 -0.81791562 107 89 90
-0.12418685 0.35629389 -0.81756091 109 91 89
-0.12348053 0.35366189 -0.81757092 104 87 91
-0.12390091 0.35420945 -0.81738091 105 87 91
-0.12354505 0.3541086 -0.81761289 105 87 91
-0.12111329 0.35391963 -0.81953895 101 82 80
-0.12026817 0.35657167 -0.82057458 104 84 78
-0.12082451 0.35456279 -0.81986129 102 83 79
-0.12023035 0.35465115 -0.82037628 101 81 76
-0.12100796 0.35479087 -0.8197329 102 84 81
-0.12118573 0.3543801 -0.81953269 102 83 81
-0.12262437 0.35481465 -0.81839973 107 88 89
-0.12117732 0.35698932 -0.81989729 108 88 83
-0.12174132 0.35684597 -0.81943387 109 90 84
-0.12272625 0.35653448 -0.81861407 112 92 87
-0.1218059 0.35576695 -0.81919932 106 87 86
-0.12363132 0.352413 -0.81732893 101 86 86
-0.12376663 0.3534162 -0.81733024 104 86 91
-0.12438646 0.35301638 -0.81684917 102 86 89
-0.11989237 0.34961709 -0.82018918 96 78 71
-0.12138113 0.35022813 -0.81895924 96 81 72
-0.1199071 0.35169303 -0.82035494 97 78 71
-0.12121377 0.35103932 -0.81917316 96 81 71
-0.1215157 0.35000074 -0.81882381 95 81 72
-0.1197569 0.35058033 -0.82038867 97 78 71
-0.12245986 0.35001463 -0.8180117 95 83 72
-0.12205408 0.35231498 -0.81857574 99 84 79
-0.12302164 0.35341373 -0.8178606 104 86 91
-0.12301329 0.35143438 -0.81767625 99 85 81
-0.12191634 0.35289803 -0.81874901 101 83 81
-0.12171146 0.35144141 -0.81878203 96 82 73
-0.12301508 0.35183561 -0.81771356 100 86 83
-0.12310933 0.34872821 -0.81733006 90 78 70
-0.12367359 0.34897074 -0.81690401 88 74 69
-0.11973263 0.34790951 -0.8202244 99 79 70
-0.11952765 0.34725744 -0.82036197 100 79 70
-0.11984283 0.34650016 -0.82004511 101 80 70
-0.12040145 0.34944576 -0.81974018 96 79 71
-0.12088428 0.34947544 -0.81932604 96 80 71
-0.12007822 0.34878966 -0.81997931 97 79 71
-0.12134247 0.34898004 -0.81890172 96 81 71
-0.12015588 0.34660694 -0.81977707 100 80 70
-0.12263907 0.34713459 -0.81758428 86 71 66
-0.12143178 0.34686455 -0.81864893 93 75 68
-0.12229128 0.348131 -0.8180021 93 79 70
-0.12264045 0.348104 -0.81768328 90 77 69
-0.12301382 0.34946123 -0.81748575 94 84 72
-0.12168065 0.34668767 -0.81840545 90 73 67
-0.119287 0.34462383 -0.82036722 95 74 69
-0.11917078 0.342363 -0.82022583 83 66 69
-0.11939124 0.3429302 -0.82010239 85 66 68
-0.12114493 0.34311333 -0.81866521 74 54 58
-0.12010524 0.34391665 -0.81961322 86 65 64
-0.11930718 0.34446669 -0.82033396 94 73 69
-0.12141447 0.34435409 -0.81850302 79 59 60
-0.12182614 0.34419155 -0.81812543 75 56 58
-0.12181051 0.34564444 -0.81818426 84 65 64
-0.12062778 0.34464651 -0.819224 86 65 62
-0.12138249 0.3449519 -0.81855029 83 63 62
-0.11912922 0.34195405 -0.82021737 81 64 70
-0.12047903 0.34054607 -0.81894231 59 40 51
-0.1207782 0.34084284 -0.81872648 60 41 52
-0.11876222 0.34092021 -0.82041055 72 54 62
-0.10383609 0.3656202 -0.83714706 90 69 53
-0.10272668 0.36559334 -0.83870101 85 64 49
-0.10324879 0.36552182 -0.83790183 87 65 51
-0.10354341 0.36350766 -0.83706123 90 69 56
-0.10383791 0.36376041 -0.83677363 91 71 57
-0.1040154 0.36328977 -0.83647603 92 72 59
-0.10163538 0.3628397 -0.83980554 87 68 57
-0.10156291 0.36436343 -0.8401978 85 65 52
-0.10241499 0.36195832 -0.83845609 89 70 59
-0.10279539 0.36138415 -0.837771 90 71 60
-0.10164076 0.36218205 -0.83967566 88 70 59
-0.10213405 0.36218154 -0.83892494 88 70 59
-0.10225412 0.36433759 -0.83914554 86 66 52
-0.10340077 0.36342326 -0.83724856 89 69 56
-0.10216451 0.36484152 -0.83937877 86 65 51
-0.10221805 0.36455268 -0.83924186 86 65 52
-0.10353744 0.36059126 -0.83652091 91 72 60
-0.10291863 0.36014208 -0.83738625 91 73 61
-0.10292627 0.35975152 -0.83731312 91 73 62
-0.10349823 0.36017516 -0.83650947 92 73 61
-0.10167712 0.36059648 -0.83934462 90 72 62
-0.10205602 0.36011443 -0.83869088 90 73 62
-0.10190749 0.36006325 -0.83890718 90 73 62
-0.10136235 0.35924548 -0.83956313 92 75 65
-0.10176215 0.35968363 -0.83905315 91 74 63
-0.10276902 0.35768551 -0.83719331 94 77 63
-0.10262177 0.35865232 -0.83759046 93 75 63
-0.1023301 0.35903731 -0.83809322 92 75 63
-0.10163429 0.35856432 -0.83903456 93 76 65
-0.10121553 0.35875398 -0.83968908 93 76 66
-0.10159113 0.35413268 -0.83864951 89 69 64
-0.10067775 0.35444984 -0.84008282 90 72 65
-0.10146995 0.35409817 -0.83883566 89 69 64
-0.10237552 0.35419503 -0.83743602 88 67 64
-0.10078228 0.35600495 -0.84000158 93 76 67
-0.1022424 0.35429376 -0.83764762 89 68 64
-0.10194617 0.35678339 -0.83829993 94 76 66
-0.10329329 0.3573359 -0.83636075 94 76 63
-0.10168448 0.35697526 -0.83870542 94 77 66
-0.10244209 0.35557628 -0.83745039 91 71 65
-0.10137261 0.35679454 -0.8391493 94 77 67
-0.10143669 0.35670474 -0.83904588 94 76 67
-0.10180799 0.35033262 -0.83823687 93 72 68
-0.10109109 0.35111439 -0.83936661 90 68 66
-0.10106166 0.35055405 -0.8394087 90 67 67
-0.10065245 0.35172898 -0.84005886 88 67 65
-0.10099478 0.35115528 -0.83951795 90 68 66
-0.10171306 0.35084927 -0.83838946 93 72 67
-0.10295014 0.35213777 -0.83648467 90 69 66
-0.10160342 0.35195446 -0.83857042 92 73 66
-0.10143325 0.35235032 -0.83884144 91 72 65
-0.10211468 0.35199437 -0.83777809 92 72 66
-0.101228 0.35335213 -0.83917773 88 69 64
-0.10274001 0.35205919 -0.83680922 91 70 66
-0.10107511 0.34629285 -0.83907205 92 73 66
-0.10072052 0.3490822 -0.83990496 89 64 68
-0.10054974 0.34712005 -0.83990777 88 67 64
-0.10247178 0.3462576 -0.83711106 103 86 76
-0.10090578 0.34723717 -0.83942306 91 70 67
-0.10074092 0.34886125 -0.83984977 89 65 68
-0.10172521 0.34693256 -0.83823836 97 78 72
-0.10217907 0.34958211 -0.83764935 94 73 69
-0.10299441 0.34835339 -0.83635163 100 83 72
-0.10182493 0.34817618 -0.83818263 96 75 72
-0.10213398 0.34959987 -0.83772033 94 72 69
-0.10129819 0.34844813 -0.8390128 93 71 71
-0.10184245 0.34904462 -0.8381688 94 72 70
-0.10060513 0.34400606 -0.83940917 85 66 59
-0.099870056 0.34239215 -0.84000689 77 56 50
-0.10119362 0.34250376 -0.83840203 85 67 59
-0.10016085 0.34265292 -0.83969903 79 59 53
-0.10062226 0.3429544 -0.83918917 83 63 57
-0.100708 0.34392583 -0.83926755 85 66 59
-0.10116234 0.3422192 -0.8383866 84 66 59
-0.10205411 0.3430452 -0.83742923 91 75 66
-0.10181534 0.34359089 -0.83780479 91 74 66
-0.10215867 0.34373301 -0.83733451 94 78 69
-0.10276953 0.34278947 -0.83640766 96 81 71
-0.10039439 0.34563193 -0.83994931 87 68 61
-0.10182649 0.34462008 -0.83786672 94 78 68
-0.10148654 0.34526262 -0.83839136 94 77 67
-0.10016124 0.34173939 -0.83953869 78 57 51
-0.10142939 0.34113935 -0.83800262 84 65 59
-0.1016833 0.34094086 -0.83769786 85 67 60
-0.10031541 0.33943212 -0.83943313 75 53 50
-0.10033686 0.34101832 -0.83934939 77 56 51
-0.10049626 0.33964658 -0.83920318 76 54 51
-0.10045061 0.33919749 -0.83927554 76 53 51
-0.10156175 0.33816668 -0.83765483 72 54 51
-0.10241315 0.33882353 -0.8365249 76 61 56
-0.10044084 0.33848691 -0.83926588 73 51 49
-0.10251157 0.34117791 -0.83663154 89 73 65
-0.10140961 0.33857763 -0.83791178 74 55 52
-0.1006163 0.33865118 -0.83903611 74 52 50
-0.10039772 0.33668867 -0.83930039 68 46 44
-0.10050341 0.33553627 -0.8391971 65 46 43
-0.10022999 0.33613047 -0.83956289 66 45 43
-0.10160156 0.33440006 -0.83767629 64 48 43
-0.10033752 0.33510697 -0.83945167 64 46 42
-0.10116036 0.33475894 -0.83829135 64 47 43
-0.10168286 0.33565938 -0.83751518 67 49 45
-0.1018096 0.33637744 -0.83731759 69 51 47
-0.10184599 0.33572468 -0.83728379 68 50 46
-0.10083931 0.3372705 -0.83865952 69 48 46
-0.10159767 0.33698094 -0.83759987 69 51 48
-0.10154367 0.33737367 -0.83766538 70 51 49
-0.099720158 0.33181685 -0.8401525 52 38 36
-0.099706069 0.33085674 -0.84007764 49 36 34
-0.10000464 0.33081347 -0.83969986 49 36 35
-0.10102166 0.33031124 -0.83837903 49 36 36
-0.099696577 0.33111608 -0.84011447 50 36 35
-0.10245705 0.33319613 -0.83649665 62 47 42
-0.099591225 0.3308855 -0.84022838 48 35 34
-0.10099851 0.32924336 -0.83840197 45 31 32
-0.10018765 0.32991463 -0.83940321 46 33 33
-0.10238915 0.32984883 -0.83665019 48 35 37
-0.10035773 0.32973784 -0.83919394 46 33 33
-0.099738017 0.32803777 -0.84000283 39 25 25
-0.10078514 0.32869044 -0.83867985 42 29 29
-0.10249811 0.32960156 -0.83651626 48 34 37
-0.10063188 0.32738996 -0.83889639 37 23 24
-0.10194506 0.32883927 -0.83722281 44 30 33
-0.10242575 0.3287679 -0.83661699 45 30 34
-0.10259849 0.32963735 -0.83638918 48 34 37
-0.1010861 0.32763606 -0.83832037 39 25 26
-0.10161816 0.32731256 -0.83765262 39 23 27
-0.097936839 0.3578392 -0.84503704 90 72 56
-0.098141022 0.35950539 -0.84480548 87 67 53
-0.097934574 0.358486 -0.84506303 88 69 55
-0.097038954 0.35363457 -0.84701824 85 69 57
-0.097056262 0.35378397 -0.84697145 85 69 57
-0.097933352 0.35574698 -0.84500349 91 73 59
-0.098059863 0.35675246 -0.84476334 92 75 59
-0.097539492 0.35625726 -0.8458364 89 70 56
-0.097764619 0.35490242 -0.8453353 89 71 59
-0.097789392 0.35705063 -0.84533411 91 72 57
-0.096714996 0.3505761 -0.84748739 76 58 52
-0.096527621 0.35064456 -0.84785098 76 58 51
-0.097655721 0.35007831 -0.8456459 77 58 57
-0.096905537 0.35058433 -0.84712595 77 58 53
-0.096979834 0.35140723 -0.84707153 79 61 55
-0.096779875 0.35102358 -0.84741127 77 59 53
-0.097402819 0.35194269 -0.84629643 81 64 58
-0.098147191 0.35168311 -0.84463823 83 66 61
-0.097671479 0.35342392 -0.84560823 87 72 60
-0.097618431 0.35157004 -0.845833 81 63 59
-0.097875498 0.35271329 -0.84519017 86 70 61
-0.097578548 0.35153157 -0.84592485 80 63 58
-0.0966103 0.34582204 -0.84683013 73 50 46
-0.097119346 0.34715143 -0.84611464 76 55 50
-0.097266912 0.34643483 -0.84568918 76 55 50
-0.096505195 0.34690282 -0.84724599 73 51 47
-0.096201584 0.34581888 -0.84761518 71 48 44
-0.09653344 0.34776464 -0.84736222 73 53 48
-0.097284406 0.34833109 -0.84603864 76 56 53
-0.097953044 0.34581262 -0.84424722 79 57 53
-0.097984105 0.34605625 -0.8442384 79 57 54
-0.09798532 0.34686723 -0.84440356 79 58 55
-0.096997723 0.34869996 -0.84665996 75 56 51
-0.097560957 0.34838378 -0.8455236 77 57 54
-0.09619274 0.34211007 -0.84735757 75 55 48
-0.096656024 0.34186059 -0.84632504 75 54 48
-0.096531555 0.34400865 -0.84671152 72 49 45
-0.095936269 0.34328586 -0.8479836 73 53 46
-0.096037447 0.34335604 -0.84776461 73 52 46
-0.095928997 0.34185386 -0.84792459 75 56 48
-0.097552307 0.34553885 -0.84496754 77 55 51
-0.096463352 0.34544596 -0.84704483 72 49 45
-0.097297132 0.34475741 -0.8453235 75 53 49
-0.097626604 0.34434301 -0.84461874 77 54 50
-0.0972348 0.34370559 -0.84526211 74 51 48
-0.09709882 0.34563771 -0.84585625 75 53 49
-0.096510492 0.33874974 -0.84618133 67 52 46
-0.096013494 0.3414228 -0.84769797 74 56 48
-0.095831051 0.33928752 -0.84758818 69 55 47
-0.096183769 0.33812594 -0.84666914 66 53 46
-0.096488394 0.33952993 -0.84639025 69 53 47
-0.096662581 0.33972743 -0.84610128 69 52 47
-0.096802689 0.34168732 -0.84598905 75 54 48
-0.097449057 0.34090984 -0.84449661 72 51 48
-0.097482994 0.34016904 -0.84435517 70 50 47
-0.097235762 0.33861184 -0.84475887 66 49 46
-0.096705638 0.34052891 -0.84609824 71 53 48
-0.096248373 0.34162867 -0.84720361 75 55 48
-0.095755391 0.33640298 -0.84728181 58 47 42
-0.095831499 0.33487439 -0.84698141 51 39 38
-0.095863074 0.33770108 -0.84720927 64 53 45
-0.096138492 0.33540654 -0.84645188 53 40 39
-0.095757902 0.33601296 -0.84723729 56 45 41
-0.09614522 0.3376101 -0.84666359 64 51 45
-0.096298993 0.33492684 -0.8461135 51 38 38
-0.096824884 0.33483392 -0.8451578 52 37 38
-0.097297788 0.33454999 -0.84428668 51 36 38
-0.097329065 0.33704939 -0.84437692 60 45 43
-0.097280331 0.33542442 -0.84436959 54 39 40
-0.095459424 0.33565542 -0.84793669 54 42 38
-0.095473766 0.33591607 -0.84792686 55 44 39
-0.095620565 0.33647946 -0.84760541 58 47 41
-0.095824592 0.33267912 -0.8468141 42 30 32
-0.096533246 0.33297557 -0.84555662 44 30 33
-0.096135095 0.33339113 -0.84630829 45 32 34
-0.096623026 0.33331999 -0.84542114 46 32 34
-0.095837608 0.33266661 -0.84678954 42 30 32
-0.097063281 0.33278823 -0.84458786 45 30 33
-0.09715043 0.33097455 -0.84430379 38 25 27
-0.095611081 0.33316624 -0.8473084 44 31 32
-0.12613165 0.35889745 -0.8166731 102 86 84
-0.12634598 0.35820034 -0.8164224 103 87 86
-0.12696315 0.35694844 -0.81579286 102 86 87
-0.12564117 0.35528761 -0.81636947 104 87 88
-0.12570648 0.35680881 -0.81661689 106 90 88
-0.12517822 0.35533327 -0.81669962 105 89 90
-0.12605019 0.35445181 -0.81592476 101 85 87
-0.12686092 0.35613722 -0.81570101 101 85 87
-0.12406448 0.34949157 -0.81663978 88 74 70
-0.10874146 0.3625991 -0.83099252 101 81 80
-0.1083866 0.36284044 -0.83140105 103 84 81
-0.10995695 0.36210826 -0.82966912 96 71 76
-0.10766428 0.36298913 -0.83215517 105 89 83
-0.10769595 0.36320293 -0.83217198 107 90 83
-0.10880537 0.3622081 -0.83084029 99 78 79
-0.10902777 0.3619833 -0.8305676 97 75 78
-0.11096361 0.36387792 -0.82875907 108 90 97
-0.11010508 0.36251757 -0.82959992 98 73 78
-0.10968194 0.36491466 -0.83034497 115 100 98
-0.11075438 0.36471534 -0.82909 114 99 104
-0.11090595 0.36142197 -0.82856071 90 62 73
-0.11065186 0.36437494 -0.82917118 112 95 100
-0.11078981 0.36369303 -0.82893902 107 87 94
-0.10943285 0.36052704 -0.82989734 91 65 73
-0.10821885 0.35942987 -0.83094674 90 67 72
-0.10760414 0.35859707 -0.83143729 89 67 70
-0.10821725 0.35872218 -0.83084416 88 65 69
-0.10854944 0.3610976 -0.83086252 94 72 76
-0.10768434 0.36066285 -0.8316614 95 75 77
-0.10840575 0.36089596 -0.83097613 94 72 76
-0.10853942 0.35826343 -0.83048314 88 64 68
-0.10955218 0.35769513 -0.82950699 92 67 66
-0.10855626 0.35771036 -0.83042467 89 65 67
-0.1096896 0.35898158 -0.82948053 90 64 69
-0.10786847 0.35746428 -0.83103842 88 64 66
-0.11051191 0.35810491 -0.82865566 94 68 67
-0.10728442 0.35820991 -0.83172238 89 67 68
-0.10718568 0.35998991 -0.83210659 93 73 74
-0.10931191 0.35698056 -0.82967341 93 69 66
-0.10979066 0.35734743 -0.82926065 93 69 66
-0.10860143 0.35621873 -0.83026952 92 69 66
-0.1092758 0.35674313 -0.82968867 93 69 66
-0.10869958 0.3558605 -0.83015198 93 70 66
-0.10872497 0.3560231 -0.83014095 93 70 66
-0.10825308 0.35380003 -0.83041692 95 73 67
-0.11042982 0.35602778 -0.82858872 96 73 68
-0.10857802 0.35351828 -0.8301059 95 74 68
-0.1089979 0.35445744 -0.82978487 95 73 68
-0.10938934 0.35513139 -0.82947302 95 73 67
-0.10694087 0.35379171 -0.83169401 93 72 66
-0.10675159 0.35501212 -0.8320049 91 69 65
-0.10676151 0.35582301 -0.83206487 89 68 65
-0.10718246 0.35688204 -0.83167636 87 65 66
-0.10803383 0.35202655 -0.83061832 95 73 68
-0.10872972 0.35227773 -0.82998616 96 74 69
-0.10778861 0.35311615 -0.83082449 94 73 67
-0.10815173 0.35124937 -0.83052272 96 73 69
-0.10819509 0.35165164 -0.83047789 96 73 69
-0.10998421 0.35097262 -0.82873625 102 83 73
-0.11022165 0.35195526 -0.82855135 101 81 73
-0.10915051 0.34969401 -0.8294968 101 81 72
-0.10982179 0.35216644 -0.82895833 99 78 72
-0.1092483 0.35027111 -0.82942945 100 80 72
-0.10645032 0.35260054 -0.83221751 94 72 67
-0.10698789 0.35027602 -0.83167976 95 72 68
-0.10678501 0.34977224 -0.83192885 95 72 67
-0.10665669 0.35219285 -0.83199579 94 72 67
-0.10633842 0.35340327 -0.83232266 94 72 67
-0.10871988 0.34814605 -0.83000672 99 81 73
-0.10888379 0.34868124 -0.82981229 100 82 73
-0.10789143 0.34784687 -0.83084548 96 77 72
-0.10774372 0.34813938 -0.83097434 96 76 71
-0.10944609 0.34919116 -0.82922459 102 84 74
-0.10941628 0.34832853 -0.82929969 101 84 74
-0.10954264 0.34760499 -0.82919526 99 82 72
-0.10854504 0.34638301 -0.83026224 95 79 72
-0.10945389 0.34598428 -0.82934302 94 76 70
-0.10960361 0.34776726 -0.82912701 99 82 72
-0.10672044 0.3459343 -0.83219242 97 81 74
-0.10683278 0.34650311 -0.83204478 96 78 73
-0.1073202 0.34899834 -0.83135813 95 72 69
-0.10697619 0.34875351 -0.83176666 95 73 69
-0.10820839 0.34407282 -0.83051562 89 71 68
-0.10868721 0.34542751 -0.83012038 92 75 70
-0.10835784 0.34485677 -0.83041793 91 74 69
-0.10767016 0.34312323 -0.83100063 87 69 66
-0.10831024 0.34522223 -0.83049285 92 75 70
-0.10774059 0.34396392 -0.83098817 89 71 68
-0.11001866 0.34439838 -0.82870442 90 72 66
-0.10925868 0.3436864 -0.82942569 88 70 65
-0.10900491 0.34213495 -0.82960612 85 66 63
-0.10876331 0.3430019 -0.82988566 87 68 64
-0.1079299 0.34243345 -0.83068639 86 66 64
-0.10650307 0.34408051 -0.83231395 94 76 72
-0.10650948 0.34497267 -0.83237588 96 80 74
-0.10741525 0.34452638 -0.83136261 91 74 71
-0.10707435 0.34508139 -0.83177322 94 77 73
-0.10875566 0.34143472 -0.82981235 83 65 62
-0.10751943 0.33819559 -0.83081079 72 56 56
-0.10920966 0.3411791 -0.82934391 82 64 61
-0.10957524 0.34125483 -0.82898659 82 65 61
-0.10760583 0.33871412 -0.83076155 73 58 57
-0.10885418 0.33791232 -0.8295123 69 55 58
-0.10936024 0.33889827 -0.82907426 73 58 60
-0.10939821 0.33907792 -0.82904649 74 58 60
-0.10779601 0.33794874 -0.83052981 70 56 56
-0.10629981 0.3415187 -0.83233446 87 68 66
-0.10694639 0.33866817 -0.83144528 74 58 58
-0.10606424 0.33925098 -0.832421 78 61 59
-0.10730702 0.33990306 -0.83114994 78 61 60
-0.10683687 0.34136325 -0.83175266 85 65 64
-0.10706655 0.34045163 -0.83144426 81 63 62
-0.10776122 0.33769315 -0.83055395 69 54 55
-0.10768907 0.33653274 -0.83058584 62 47 48
-0.10817704 0.33674625 -0.83012432 63 48 50
-0.10869867 0.33669856 -0.82962209 62 47 51
-0.10894018 0.33612439 -0.82937104 59 44 48
-0.10873329 0.33531359 -0.82954228 54 38 42
-0.10966472 0.33611456 -0.82867235 59 43 48
-0.10657821 0.3375909 -0.83176959 70 54 54
-0.10730711 0.33694673 -0.83097714 65 50 50
-0.1160375 0.36535013 -0.82456326 96 73 73
-0.11952278 0.36232632 -0.82176149 85 59 66
-0.12088244 0.36269468 -0.82073504 87 62 66
-0.11952748 0.36203474 -0.82173729 86 60 67
-0.11996215 0.36144522 -0.82133675 90 67 70
-0.11663467 0.36414653 -0.82403827 94 71 72
-0.1178524 0.36150879 -0.82298756 86 62 66
-0.11643745 0.36339238 -0.82416487 91 67 69
-0.11639174 0.3646993 -0.82424891 96 73 74
-0.11659701 0.36180666 -0.82398146 85 60 63
-0.11692078 0.3620072 -0.82373536 86 62 65
-0.11710584 0.36440665 -0.82369834 92 68 71
-0.11776561 0.36450821 -0.82321584 88 62 67
-0.11895227 0.36262575 -0.8222031 85 60 67
-0.11897798 0.36310115 -0.8222174 84 58 65
-0.11923256 0.35805312 -0.8215704 99 79 75
-0.119326 0.36098945 -0.82179219 89 66 70
-0.12009785 0.35864937 -0.82094359 100 80 76
-0.11582564 0.35977566 -0.82443148 85 62 64
-0.11653981 0.35773677 -0.82368326 92 71 72
-0.11826296 0.35801211 -0.82233155 96 76 73
-0.11822474 0.35801896 -0.82236266 96 76 73
-0.11630665 0.35861778 -0.82394636 89 67 69
-0.11616241 0.3581447 -0.82402021 90 68 70
-0.11627511 0.35801151 -0.82391864 90 69 71
-0.11819278 0.36000577 -0.82258135 90 68 68
-0.11667223 0.36062923 -0.8238346 85 62 63
-0.11792818 0.36116329 -0.822905 86 62 66
-0.11715906 0.35975888 -0.82336587 89 67 65
-0.11776614 0.36007378 -0.82292229 89 66 67
-0.1196553 0.35701701 -0.82112533 102 83 77
-0.11934886 0.3571291 -0.82138205 101 82 76
-0.11983358 0.35493836 -0.82074785 100 81 74
-0.11528754 0.35623029 -0.82454187 89 69 72
-0.11537565 0.35681543 -0.82452762 89 69 72
-0.11792435 0.35712013 -0.82252163 97 78 74
-0.11785799 0.35632557 -0.8224991 97 79 74
-0.11594462 0.35519281 -0.82391906 92 73 72
-0.11550509 0.35681796 -0.82442451 89 69 72
-0.11761085 0.35698819 -0.82275945 96 77 74
-0.11716485 0.35700455 -0.82311708 95 75 74
-0.1163012 0.35366893 -0.82348025 92 75 71
-0.11808901 0.35483721 -0.82215762 96 78 72
-0.11754782 0.35564896 -0.82268059 96 78 74
-0.11635462 0.35365826 -0.82343584 92 75 71
-0.11770336 0.35535404 -0.82252383 96 78 73
-0.11889094 0.35610798 -0.82164294 99 80 73
-0.11922904 0.3524493 -0.82100105 97 77 69
-0.11635166 0.35053939 -0.82317972 93 75 71
-0.11714756 0.35058859 -0.8225348 94 75 71
-0.11883654 0.349648 -0.82108331 97 75 71
-0.11731721 0.35054857 -0.82239336 94 75 71
-0.11534652 0.3520534 -0.82411921 91 74 71
-0.11575463 0.35253313 -0.82382458 91 74 71
-0.11624514 0.35122991 -0.82332134 92 74 71
-0.1178615 0.35310739 -0.8221674 95 76 70
-0.11901202 0.35239211 -0.82117563 97 77 69
-0.11849342 0.35163629 -0.82152998 96 76 70
-0.11764946 0.35219392 -0.82226032 95 75 70
-0.11696667 0.35306752 -0.82288748 93 75 70
-0.11836153 0.35051945 -0.82154053 96 75 71
-0.11837476 0.35090423 -0.82156295 96 75 70
-0.11497574 0.34970045 -0.8242296 92 75 72
-0.11464253 0.35098371 -0.82460165 93 76 73
-0.11505546 0.35261515 -0.82440668 91 74 72
-0.11661041 0.34590235 -0.82270944 96 77 71
-0.11655536 0.34604734 -0.82276356 96 77 71
-0.1159004 0.34590453 -0.82329726 94 77 71
-0.11639047 0.34630963 -0.82291549 95 77 71
-0.117552 0.34779489 -0.82204098 96 76 71
-0.11564915 0.3459712 -0.8235091 93 77 71
-0.11694071 0.34649679 -0.82247114 96 77 71
-0.1158879 0.34863895 -0.82343924 92 75 71
-0.11602928 0.34829727 -0.82330823 93 75 71
-0.11617377 0.3473396 -0.82314628 93 76 71
-0.11590378 0.34885913 -0.82343644 92 75 71
-0.11577407 0.34806529 -0.82350564 92 75 71
-0.11690073 0.34800079 -0.82258415 94 76 71
-0.11652048 0.34843969 -0.82291436 93 75 71
-0.11454978 0.34648588 -0.82446295 94 79 73
-0.11480051 0.34927267 -0.82434547 93 76 73
-0.11538034 0.34547451 -0.82369459 92 76 71
-0.11528002 0.34235907 -0.82348728 84 65 66
-0.11610938 0.34276235 -0.82283831 87 67 67
-0.11640155 0.34547356 -0.82284915 95 77 71
-0.11739261 0.34462351 -0.82194954 95 75 69
-0.11705667 0.34509683 -0.8222717 96 76 70
-0.11850773 0.34429246 -0.82098418 95 74 69
-0.11724973 0.34224796 -0.82182533 84 65 68
-0.11761943 0.34285027 -0.82157826 87 68 68
-0.11792906 0.34294206 -0.82132757 87 68 69
-0.11738814 0.34354886 -0.82184696 91 71 68
-0.11765865 0.34279737 -0.82153964 87 68 68
-0.11452334 0.34347177 -0.82428318 88 70 69
-0.11457206 0.3447088 -0.82432842 91 75 71
-0.11434298 0.34271425 -0.8244006 86 67 67
-0.11476936 0.344284 -0.8241142 89 73 70
-0.11727033 0.34173909 -0.82175487 81 63 68
-0.11600308 0.33914602 -0.82258654 62 44 52
-0.11590336 0.33893645 -0.82265139 60 42 50
-0.11833312 0.34178671 -0.82086521 81 63 69
-0.11689226 0.33944049 -0.82185435 63 45 53
-0.11812539 0.34008861 -0.82085449 66 48 56
-0.1169355 0.33953202 -0.82182729 64 46 54
-0.11719581 0.33941048 -0.82158619 62 44 52
-0.11643227 0.33790898 -0.82207727 50 31 41
-0.11384653 0.33883002 -0.82457852 66 47 50
-0.11463843 0.3389723 -0.82380074 63 44 50
-0.11399522 0.34081405 -0.82459033 78 58 60
-0.11452707 0.34171054 -0.82414687 82 63 64
-0.1151072 0.33923712 -0.82336396 63 44 51
-0.11430761 0.33750531 -0.82405245 56 39 44
-0.10660545 0.36463991 -0.83376384 107 91 76
-0.10632624 0.36457577 -0.83406574 104 88 74
-0.10701601 0.36419031 -0.83318621 108 92 80
-0.1067093 0.36300164 -0.83324867 101 83 76
-0.10655484 0.36310941 -0.83345103 100 82 74
-0.10689507 0.36210138 -0.83282459 98 80 76
-0.10440857 0.36297166 -0.83593476 92 73 61
-0.10483006 0.3623777 -0.83531135 93 74 64
-0.10484357 0.36159274 -0.83512968 93 74 66
-0.10611134 0.36278945 -0.83388448 95 76 70
-0.10504447 0.36438668 -0.83548218 94 74 63
-0.10461478 0.36294237 -0.83568496 93 73 62
-0.10578534 0.36228764 -0.83416373 95 76 69
-0.10364062 0.35940546 -0.83620697 92 73 61
-0.10460398 0.36009538 -0.83516067 89 69 61
-0.10471229 0.35764715 -0.83466184 91 71 62
-0.10382714 0.35793224 -0.83576155 92 74 62
-0.10550433 0.35873047 -0.83387983 88 67 62
-0.10412854 0.35964593 -0.83566046 91 72 61
-0.10464806 0.35898772 -0.83494085 90 70 62
-0.10609063 0.36119959 -0.8335799 94 76 72
-0.10543633 0.35991648 -0.83414805 90 70 65
-0.10605323 0.36092418 -0.83358008 94 75 71
-0.10651043 0.3577446 -0.83253211 87 65 64
-0.10625203 0.36094236 -0.8333481 94 75 72
-0.10448883 0.36039731 -0.83534425 90 70 61
-0.10653819 0.35873723 -0.83265781 90 69 67
-0.10418645 0.3547731 -0.83496469 87 65 63
-0.10546899 0.35664076 -0.83363867 88 66 63
-0.10498958 0.35662881 -0.83420968 89 68 63
-0.10506679 0.35711685 -0.83417112 89 69 63
-0.1046504 0.35561496 -0.83450323 88 66 63
-0.10560042 0.35708725 -0.83353084 88 67 63
-0.10628059 0.35461649 -0.83248448 91 70 66
-0.10619114 0.3539049 -0.83252209 93 71 66
-0.10582647 0.35531157 -0.83308363 89 67 65
-0.10466916 0.35402858 -0.83432126 88 66 64
-0.10553429 0.35476238 -0.83337474 89 67 65
-0.10493419 0.35529599 -0.83413005 87 64 64
-0.10332899 0.3557021 -0.83614093 91 71 63
-0.10476457 0.35310277 -0.83415866 91 69 65
-0.10512027 0.35276106 -0.83373928 93 72 66
-0.10564394 0.35297194 -0.83312529 94 73 67
-0.10437208 0.35219797 -0.83461517 93 72 66
-0.10376691 0.35005793 -0.83531547 99 78 68
-0.10358177 0.35264462 -0.83554554 90 67 65
-0.10567525 0.35235295 -0.83309853 95 74 67
-0.10586842 0.35118592 -0.83292019 95 73 67
-0.10472015 0.35042197 -0.83423197 97 76 68
-0.10476112 0.35085809 -0.83417183 97 76 68
-0.10512286 0.35109916 -0.83375853 96 75 67
-0.1031111 0.35186011 -0.83623594 91 70 66
-0.10346891 0.3514865 -0.83569062 93 72 66
-0.10347662 0.35210007 -0.83568156 91 69 65
-0.10491594 0.34928808 -0.83404231 98 77 69
-0.10425685 0.3474665 -0.83479857 104 86 75
-0.10496917 0.34799317 -0.83399522 102 82 72
-0.10440321 0.34897026 -0.83462 100 79 70
-0.1037809 0.34652522 -0.8353411 107 91 78
-0.10571929 0.34876049 -0.83314717 99 77 70
-0.10559005 0.34785166 -0.83332485 100 80 72
-0.10566192 0.34705424 -0.83328271 100 82 74
-0.10519113 0.34735492 -0.83377492 102 83 74
-0.10478783 0.34649426 -0.83424574 104 87 77
-0.10630953 0.34641835 -0.83261544 99 81 74
-0.10630555 0.34635416 -0.83262253 99 81 74
-0.10315632 0.3472296 -0.83612573 104 87 76
-0.10310204 0.34793317 -0.83620417 102 85 74
-0.10314285 0.34927443 -0.83615518 99 80 70
-0.10353199 0.34462866 -0.83555293 105 91 79
-0.10500652 0.34535939 -0.83402151 103 87 77
-0.10471648 0.34449691 -0.83427191 100 86 76
-0.1053002 0.34428576 -0.83363032 98 83 75
-0.10628433 0.34545165 -0.8326562 98 83 75
-0.10416097 0.34464043 -0.83487844 103 88 78
-0.10593865 0.34402817 -0.83291948 95 79 73
-0.10596194 0.34453911 -0.83293438 97 81 74
-0.10587592 0.34385464 -0.83297384 95 78 73
-0.10477135 0.34209901 -0.83403313 93 77 71
-0.10455696 0.34200278 -0.83425796 93 77 71
-0.10490318 0.3427546 -0.83394176 94 79 72
-0.1030208 0.34308806 -0.83609802 98 83 73
-0.10289551 0.34406579 -0.83632731 101 86 74
-0.10329602 0.34533599 -0.83590156 107 92 79
-0.10555653 0.34083915 -0.83305836 85 67 64
-0.10507234 0.34069103 -0.83356768 86 68 65
-0.10534219 0.34168002 -0.83337849 90 72 68
-0.10533015 0.34121305 -0.83334279 88 70 66
-0.10590286 0.34155712 -0.83275801 88 69 66
-0.10382733 0.3414523 -0.83499652 92 78 71
-0.10465391 0.33829904 -0.83381331 76 60 57
-0.10513851 0.33876193 -0.83334446 77 61 58
-0.10520562 0.3403042 -0.83338332 84 65 63
-0.10598963 0.33908263 -0.83248639 77 60 59
-0.10593835 0.3411895 -0.83268732 86 67 65
-0.10290783 0.34073108 -0.83604515 88 73 65
-0.10258853 0.33876464 -0.83627522 76 61 56
-0.10345929 0.33939943 -0.83519268 83 68 63
-0.10355507 0.33773577 -0.83492523 75 60 56
-0.10372595 0.33591086 -0.83479142 71 56 50
-0.10535767 0.33692226 -0.8330794 71 55 53
-0.10380115 0.33496395 -0.83473587 68 53 47
-0.10439214 0.33649489 -0.83408839 71 56 52
-0.1050945 0.3360233 -0.83335721 68 53 49
-0.10529896 0.33544594 -0.83312947 64 49 46
-0.10514747 0.33637714 -0.83330297 70 54 51
-0.10590798 0.33596489 -0.83247232 64 48 46
-0.10446249 0.33500037 -0.83403462 67 51 46
-0.10258857 0.33492243 -0.83626372 67 51 46
-0.10251161 0.33654648 -0.83632517 69 54 49
-0.10306705 0.33641365 -0.83559102 70 55 50
-0.10278903 0.33722389 -0.83593994 71 56 52
-0.10281092 0.33673164 -0.8359226 70 55 50
-0.10354979 0.33397183 -0.83501774 66 51 44
-0.10484535 0.33083442 -0.83370429 47 34 36
-0.10300151 0.33363596 -0.83575261 64 49 44
-0.10399011 0.32893276 -0.83469534 43 29 34
-0.10271795 0.32926601 -0.83624208 47 33 36
-0.10287444 0.32948098 -0.83604056 47 34 37
-0.09611953 0.3537674 -0.84954393 78 60 49
-0.095803268 0.3512316 -0.84987998 74 53 46
-0.096160777 0.35345685 -0.84941006 79 61 50
-0.09609089 0.35247269 -0.84932989 77 59 49
-0.096091308 0.35348254 -0.8496449 78 60 49
-0.096410282 0.35047045 -0.8480584 75 57 50
-0.095769718 0.34961823 -0.84953433 73 50 45
-0.095765993 0.34630385 -0.84863853 69 47 43
-0.095733762 0.34893304 -0.84943765 72 49 44
-0.096022449 0.34669644 -0.84814686 70 49 44
-0.095503569 0.34841087 -0.85021168 71 46 43
-0.095629215 0.34904444 -0.84985548 72 48 44
-0.095726162 0.34285966 -0.84843087 74 55 48
-0.095845796 0.34360778 -0.84820288 73 52 46
-0.095165685 0.34379312 -0.85034472 71 51 46
-0.095072627 0.34386614 -0.85066515 70 50 45
-0.095570914 0.34431747 -0.84900415 71 50 45
-0.095599517 0.34396741 -0.84888935 71 51 46
-0.095421731 0.34403822 -0.84949267 71 51 45
-0.09556634 0.34534168 -0.84907299 69 47 43
-0.095495142 0.34112889 -0.84898061 73 56 48
-0.09499494 0.34141272 -0.85075229 71 54 47
-0.095485508 0.33977756 -0.84865981 69 54 46
-0.094860002 0.34142399 -0.85121119 70 53 47
-0.09543474 0.34028345 -0.84897369 70 55 47
-0.094860882 0.33867505 -0.85053271 63 49 42
-0.095174141 0.33796698 -0.8492502 63 51 43
-0.094880596 0.33944461 -0.85064423 65 50 44
-0.095336005 0.33840969 -0.84877831 65 53 44
-0.094621085 0.33675727 -0.85102421 54 40 37
-0.094349243 0.33508584 -0.85159796 48 34 32
-0.094593056 0.33410943 -0.85059136 46 32 31
-0.095211968 0.33435437 -0.84857732 47 34 34
-0.095333077 0.33401766 -0.8481068 47 34 34
-0.094717681 0.33705008 -0.85073638 56 42 38
-0.095080443 0.33523929 -0.84918398 50 37 35
-0.095160224 0.33685344 -0.84913236 58 45 40
-0.095246501 0.33701813 -0.84884888 59 47 41
-0.095340252 0.33503169 -0.84822905 51 38 36
-0.09532512 0.3347429 -0.84824133 50 37 35
-0.094158217 0.33177963 -0.85156703 38 24 24
-0.094363585 0.33259127 -0.8511259 40 26 26
-0.094256707 0.33243471 -0.85140866 40 26 26
-0.094930977 0.33235723 -0.84928888 40 27 28
-0.094718106 0.3338449 -0.8501367 45 31 31
-0.094307087 0.33384565 -0.85150659 44 30 30
-0.094737537 0.33370781 -0.85005915 44 31 31
-0.095261991 0.3331494 -0.84825939 43 30 31
-0.11540207 0.37105802 -0.82582611 73 50 51
-0.11572751 0.36998039 -0.82538778 81 55 56
-0.11603006 0.36934033 -0.82506156 81 53 54
-0.11544324 0.36807081 -0.82534057 90 63 63
-0.11528965 0.36876038 -0.82553989 89 61 62
-0.11557447 0.36620605 -0.82501495 94 69 71
-0.11199269 0.3665989 -0.8281216 117 101 97
-0.11466859 0.36795413 -0.82596612 95 69 71
-0.11440343 0.36582819 -0.82593352 102 80 82
-0.11486427 0.3667829 -0.82565635 97 72 74
-0.11415844 0.36774513 -0.82637626 98 74 76
-0.11382091 0.36619958 -0.82647616 104 83 86
-0.11289874 0.36599821 -0.82723898 109 91 95
-0.11277915 0.36635405 -0.82738447 108 90 95
-0.11548056 0.36284444 -0.82487446 88 64 64
-0.11549283 0.36217752 -0.82484186 85 61 61
-0.11160189 0.3616406 -0.82792723 90 61 75
-0.11148393 0.3629584 -0.82814652 101 78 89
-0.11199726 0.36325866 -0.82776558 102 81 90
-0.11190283 0.36409175 -0.82792008 109 91 99
-0.11491316 0.36163968 -0.82528651 84 61 62
-0.11186087 0.3644104 -0.8279838 111 95 102
-0.11213309 0.36197248 -0.82753515 92 65 76
-0.11458454 0.36427388 -0.82566941 98 76 78
-0.11377561 0.36315164 -0.82631671 97 77 80
-0.11481485 0.36317012 -0.8254301 92 69 71
-0.11339985 0.36491665 -0.82670575 107 88 92
-0.11365302 0.36358103 -0.82643795 100 80 83
-0.11273672 0.36492234 -0.82727212 110 93 98
-0.11426245 0.36404783 -0.82593566 99 77 80
-0.11533938 0.35993686 -0.82481575 84 61 63
-0.11170758 0.35979772 -0.82770443 91 62 70
-0.11243853 0.35832036 -0.82701302 92 66 68
-0.11411562 0.35814586 -0.82564807 89 66 71
-0.11214599 0.3598437 -0.82735389 90 62 71
-0.11229939 0.35826921 -0.82712173 93 66 67
-0.11141279 0.36053598 -0.82799304 90 60 71
-0.11213697 0.35778716 -0.82721955 94 68 66
-0.11456319 0.35966703 -0.82540625 86 62 66
-0.11274036 0.36067033 -0.82693833 87 59 69
-0.11499465 0.35970587 -0.8250652 85 62 64
-0.11368016 0.36002156 -0.82613814 87 61 68
-0.11376067 0.3606447 -0.82612264 85 59 66
-0.11246297 0.3611989 -0.82720083 87 58 69
-0.11114124 0.35873777 -0.82812303 94 67 67
-0.11131913 0.35818225 -0.8279084 95 67 65
-0.1122378 0.35373893 -0.82689309 99 79 73
-0.11512813 0.35612962 -0.82466382 89 69 72
-0.1137135 0.35520503 -0.82577819 94 74 73
-0.11465329 0.35429144 -0.824893 92 73 72
-0.11193229 0.35370287 -0.82714927 100 80 73
-0.11327302 0.35519218 -0.82615113 95 75 73
-0.11473102 0.35687038 -0.82507116 90 69 72
-0.11141952 0.35375544 -0.82758355 101 81 73
-0.11259472 0.35628539 -0.82676637 95 72 69
-0.11464832 0.35693341 -0.82514322 90 69 72
-0.11472461 0.3573145 -0.82510138 90 68 71
-0.11148836 0.35455376 -0.82756931 100 78 71
-0.11194349 0.35598326 -0.82727605 97 74 68
-0.11110989 0.35462525 -0.82790387 100 78 71
-0.11054383 0.35519278 -0.82843614 97 75 69
-0.111297 0.35696357 -0.82785201 97 71 65
-0.11394519 0.35321054 -0.82539582 95 77 72
-0.11138797 0.35297224 -0.82754892 102 83 74
-0.11189444 0.35124907 -0.8269757 104 87 76
-0.11278019 0.35284019 -0.82635498 99 80 73
-0.11214105 0.35281011 -0.82689559 100 82 74
-0.11246802 0.35250041 -0.82659203 100 82 74
-0.11352077 0.35080284 -0.8255474 98 82 74
-0.11302558 0.350568 -0.8259511 101 84 75
-0.11327612 0.35065717 -0.82574415 100 83 75
-0.11456338 0.35102415 -0.82467264 94 76 73
-0.11374219 0.35009781 -0.82529342 98 81 74
-0.11039465 0.35023764 -0.82828927 104 87 75
-0.11044765 0.34970635 -0.82820863 105 89 75
-0.11126376 0.35295051 -0.8276546 102 83 74
-0.1107562 0.35204849 -0.82802635 102 84 74
-0.11136671 0.34916461 -0.82730299 107 91 77
-0.1125591 0.34801239 -0.82631922 97 81 73
-0.11177523 0.34784287 -0.82699776 100 84 73
-0.11139377 0.34616992 -0.8273825 96 79 70
-0.11135402 0.34763536 -0.82736635 101 85 73
-0.11296164 0.34622285 -0.82593679 94 78 72
-0.11258961 0.34575957 -0.82627177 94 78 71
-0.11376261 0.34812009 -0.82524377 94 78 73
-0.11411348 0.34810388 -0.82491368 94 78 73
-0.11319222 0.34649172 -0.82572865 94 78 72
-0.11223335 0.34638917 -0.82662606 94 78 71
-0.11068284 0.34673065 -0.82806635 97 79 70
-0.11102354 0.34620678 -0.82774287 96 78 70
-0.11090098 0.34751281 -0.82782096 100 83 72
-0.11097983 0.34842125 -0.82771081 103 87 74
-0.11269242 0.34525058 -0.82615656 93 77 70
-0.11202246 0.34567031 -0.82680148 94 78 70
-0.11326141 0.34520951 -0.82562053 93 78 71
-0.11255798 0.34383988 -0.82623005 89 74 67
-0.11141331 0.34524903 -0.82735789 93 76 69
-0.11257868 0.34348169 -0.82619721 88 73 67
-0.11378087 0.342489 -0.82493424 85 67 66
-0.11304846 0.34184805 -0.8256101 84 65 64
-0.11312088 0.3424862 -0.82558727 86 68 65
-0.1135433 0.34354484 -0.82525015 88 72 68
-0.11317687 0.34341171 -0.82560265 88 72 67
-0.1112158 0.34203467 -0.82742894 85 68 62
-0.11052477 0.343187 -0.82815355 87 70 64
-0.11030424 0.34470424 -0.82843667 90 73 66
-0.11095982 0.34466895 -0.82778525 91 74 67
-0.11101457 0.34447429 -0.82772315 91 73 66
-0.11160527 0.33955377 -0.82691282 76 58 60
-0.11313408 0.34091124 -0.82547337 80 61 63
-0.11343325 0.34105167 -0.82518488 81 62 63
-0.11244248 0.34034976 -0.82612741 79 60 62
-0.11222603 0.34021509 -0.8263343 78 60 61
-0.11321449 0.34080136 -0.82538784 80 61 63
-0.11351369 0.33931696 -0.82496142 70 52 54
-0.11386024 0.34077725 -0.82472581 78 58 60
-0.113028 0.339908 -0.82551175 76 57 60
-0.11321823 0.33789873 -0.82514781 62 45 48
-0.11006248 0.33938569 -0.82842112 74 59 61
-0.110184 0.33967948 -0.82831573 76 60 61
-0.11027809 0.34170023 -0.82832575 83 66 61
-0.11126386 0.33960217 -0.82725233 76 59 60
-0.11307625 0.33769742 -0.82528877 62 44 48
-0.11187059 0.3367264 -0.8265081 61 43 50
-0.11256524 0.33626002 -0.82577986 56 38 43
-0.11189535 0.33704427 -0.82649052 63 45 51
-0.10992242 0.33727702 -0.82846451 65 51 57
-0.11102639 0.33675563 -0.82736635 63 46 53
-0.11087223 0.33774257 -0.82754338 68 52 58
-0.10117044 0.36532387 -0.84103721 84 62 50
-0.099991895 0.36400181 -0.84262335 86 64 55
-0.10063668 0.36511895 -0.84184963 84 62 52
-0.10055261 0.36346811 -0.84157634 87 67 54
-0.10025536 0.36386994 -0.84216094 86 65 54
-0.099685512 0.3651042 -0.84339702 83 60 54
-0.10061489 0.36251923 -0.84128731 89 69 57
-0.10041113 0.36277524 -0.84164077 89 69 55
-0.10068776 0.36225063 -0.84112853 89 70 58
-0.099114798 0.36263481 -0.84372318 86 64 54
-0.099562094 0.36403891 -0.84334755 85 63 56
-0.10056569 0.36000201 -0.84090298 92 76 64
-0.09970279 0.35988775 -0.84218085 94 76 62
-0.10014156 0.35966146 -0.84147954 93 77 64
-0.10103832 0.36130628 -0.84042823 89 72 62
-0.10055057 0.35873905 -0.84068549 94 78 66
-0.10053447 0.35805908 -0.84057945 95 79 68
-0.1004476 0.35775957 -0.84065497 96 80 68
-0.098759256 0.35973448 -0.84369934 91 71 56
-0.099319324 0.35825077 -0.8425017 96 80 64
-0.098530553 0.35857615 -0.8439784 92 74 57
-0.09901017 0.36098754 -0.84346563 89 68 55
-0.099309765 0.36011833 -0.84283561 92 73 59
-0.098926276 0.36024594 -0.84346354 90 70 56
-0.10056375 0.35728636 -0.84040451 96 80 68
-0.10050628 0.35733017 -0.84049505 96 80 68
-0.099858411 0.35570613 -0.84139663 94 78 67
-0.10051518 0.35389045 -0.84030414 89 71 64
-0.10032497 0.35577542 -0.84068751 93 76 67
-0.10061016 0.35547125 -0.84024066 92 75 66
-0.099069305 0.3546252 -0.84272224 91 74 63
-0.098840937 0.35422677 -0.84315449 91 75 63
-0.098440774 0.35373598 -0.84391648 91 75 63
-0.098420203 0.3557587 -0.84400016 93 76 61
-0.099327296 0.35524544 -0.84226656 93 76 64
-0.098827288 0.35723552 -0.84328967 96 80 63
-0.099337533 0.35712287 -0.84235317 97 82 66
-0.098680831 0.35683501 -0.84353417 94 77 61
-0.10030033 0.35297808 -0.84063208 88 68 64
-0.10015654 0.35338265 -0.84083319 89 70 64
-0.10040164 0.35095498 -0.84046644 87 63 66
-0.10010544 0.34991089 -0.84096611 84 59 67
-0.1001875 0.35095739 -0.84083366 85 62 66
-0.098503105 0.34967253 -0.84397709 78 59 62
-0.098524258 0.35089761 -0.84387487 82 64 63
-0.09847293 0.35009903 -0.844015 79 60 62
-0.098880231 0.34970844 -0.84323692 79 58 63
-0.099413581 0.35101506 -0.84213513 84 62 66
-0.099156328 0.35110015 -0.84262836 84 63 65
-0.099244334 0.35283259 -0.84238797 88 70 65
-0.09938293 0.3525281 -0.84213269 87 69 65
-0.099674575 0.34844005 -0.84150052 82 58 64
-0.099885136 0.3468782 -0.84086961 84 62 61
-0.099760458 0.34779796 -0.84124231 83 60 62
-0.099763043 0.34611064 -0.84095603 83 63 59
-0.099464357 0.34597346 -0.84146392 82 62 58
-0.098422676 0.34837842 -0.84388918 78 59 59
-0.099114269 0.34582832 -0.84208632 81 61 56
-0.098290324 0.34672177 -0.84380084 79 58 56
-0.098583862 0.3493813 -0.84378278 78 58 62
-0.098935381 0.34826943 -0.84290236 79 60 61
-0.099063262 0.34844846 -0.84268296 80 59 62
-0.099316716 0.3473739 -0.84200102 81 60 60
-0.099924549 0.34516081 -0.84052318 83 63 57
-0.099967502 0.34521949 -0.84047073 83 64 57
-0.098426625 0.3454099 -0.84327149 80 58 54
-0.098835565 0.34471795 -0.8423456 79 58 53
-0.099584639 0.34449974 -0.84089923 80 59 54
-0.099252909 0.34369528 -0.84132552 78 56 51
-0.098190628 0.34298587 -0.84326565 76 53 50
-0.0980893 0.34504637 -0.84383839 79 56 53
-0.098223269 0.34345114 -0.84328383 77 54 50
-0.098476611 0.34435713 -0.84293902 78 55 51
-0.098058797 0.342556 -0.84345251 75 53 49
-0.099097364 0.34291413 -0.84143704 76 53 49
-0.099472694 0.339789 -0.84053886 71 48 45
-0.099215001 0.33863023 -0.84104383 69 46 44
-0.09922678 0.34100139 -0.84092551 72 51 46
-0.098712437 0.33847338 -0.84194225 67 46 45
-0.098512314 0.3381345 -0.84231138 66 46 45
-0.099285454 0.34074289 -0.84083205 72 50 46
-0.097968034 0.34125048 -0.84345329 73 51 48
-0.099329457 0.34165126 -0.84075981 74 51 47
-0.09758053 0.33883637 -0.84403127 66 48 46
-0.097985119 0.34052718 -0.84335971 71 50 47
-0.097757377 0.34051913 -0.84381515 71 50 47
-0.097912103 0.34037757 -0.8434937 71 50 47
-0.098829366 0.33519885 -0.84183502 60 44 41
-0.098471388 0.33569607 -0.8424384 60 44 42
-0.097848102 0.33604798 -0.84346205 59 43 42
-0.097764872 0.33437932 -0.84350878 52 36 38
-0.09861812 0.33556452 -0.84219486 60 44 42
-0.098494582 0.33742338 -0.84236944 65 45 44
-0.098307207 0.33767417 -0.84269303 65 46 45
-0.098503374 0.33646843 -0.8423878 62 45 43
-0.097832106 0.33763757 -0.84353751 64 47 45
-0.099265262 0.3376652 -0.84099311 67 44 44
-0.098301932 0.33755991 -0.8427065 65 46 44
-0.097826682 0.33390489 -0.84338039 51 35 37
-0.098263226 0.33383361 -0.84266919 53 37 37
-0.098175302 0.33303466 -0.8427304 50 35 36
-0.099430755 0.33033574 -0.84042579 46 33 32
-0.098788999 0.33211023 -0.84164673 49 35 35
-0.098012172 0.33243284 -0.84294331 47 32 34
-0.097895823 0.33133158 -0.84306574 42 29 30
-0.097365454 0.33363923 -0.844109 48 33 35
-0.098076843 0.3304297 -0.84270215 40 27 28
-0.097478434 0.33266172 -0.84385461 45 31 33
-0.098874964 0.33107543 -0.84140486 46 32 32
-0.097868994 0.33247712 -0.84318662 46 32 34
-0.098257035 0.32985649 -0.84238148 39 26 27
-0.098900445 0.32970417 -0.84130466 41 28 28
-0.098834336 0.3291713 -0.8414281 39 26 26
-0.094022065 0.33238083 -0.85216653 39 25 25
0 0 0 1 0 0 0 1 0 0 0 1 0 0 0 0 0 941 1 0 0
