ply
format ascii 1.0
comment PCL generated
element vertex 1017
property float x
property float y
property float z
property uchar red
property uchar green
property uchar blue
element camera 0
property float view_px
property float view_py
property float view_pz
property float x_axisx
property float x_axisy
property float x_axisz
property float y_axisx
property float y_axisy
property float y_axisz
property float z_axisx
property float z_axisy
property float z_axisz
property float focal
property float scalex
property float scaley
property float centerx
property float centery
property int viewportx
property int viewporty
property float k1
property float k2
end_header
-0.23420091 0.50084668 -0.87616318 166 139 126
-0.23250332 0.50152487 -0.87695169 181 151 145
-0.2351159 0.49931452 -0.87557375 137 109 101
-0.23471712 0.49954164 -0.87578225 150 123 112
-0.23464511 0.49817336 -0.87562913 132 103 99
-0.2356746 0.50122702 -0.87558353 151 125 108
-0.22949986 0.49964032 -0.87899095 140 97 107
-0.22862637 0.50023532 -0.87801147 127 78 95
-0.2298606 0.49837512 -0.87840837 145 108 115
-0.22988181 0.49876788 -0.87882638 146 107 114
-0.22879258 0.5004918 -0.87855583 129 80 96
-0.22923347 0.4997142 -0.87858808 136 91 104
-0.23087569 0.49889851 -0.87639469 160 127 126
-0.22925976 0.50097007 -0.87759179 136 90 102
-0.22928578 0.49962252 -0.87599921 137 96 107
-0.2303116 0.49979112 -0.87701547 151 113 117
-0.23038429 0.49936616 -0.87656444 153 116 119
-0.22923714 0.49937707 -0.87566668 137 97 107
-0.22993578 0.50091583 -0.87764764 146 102 111
-0.23201171 0.50123167 -0.87707382 176 143 140
-0.23069862 0.50112683 -0.87744725 157 117 122
-0.23180996 0.49936819 -0.87692785 173 142 137
-0.23074652 0.50016361 -0.87732714 157 120 122
-0.22930509 0.50151622 -0.87789857 137 89 102
-0.22976853 0.49825263 -0.87564534 143 107 114
-0.22993189 0.49859884 -0.87575996 146 110 116
-0.22847421 0.50184172 -0.87841886 125 71 90
-0.22830063 0.49870318 -0.87562084 124 81 97
-0.22838597 0.50177437 -0.87909555 124 68 87
-0.22849576 0.50086766 -0.87839788 125 73 91
-0.22829378 0.49920112 -0.87657768 123 78 95
-0.23634979 0.49528223 -0.87602526 124 90 92
-0.23574895 0.49695501 -0.87545651 114 82 83
-0.23438536 0.49718785 -0.87623906 149 121 116
-0.23463158 0.49666867 -0.8764382 152 123 119
-0.23456244 0.49643284 -0.87660933 157 128 124
-0.23302397 0.49748346 -0.87667 176 150 141
-0.23334378 0.4949654 -0.87674332 171 147 139
-0.23530978 0.49491251 -0.87703431 159 130 127
-0.23276243 0.49662337 -0.87665516 177 153 143
-0.23269664 0.49577549 -0.87664658 176 153 143
-0.23599887 0.49430352 -0.87713712 154 123 123
-0.22907075 0.49656048 -0.87645853 139 102 110
-0.23009488 0.49478081 -0.87832373 165 141 136
-0.23038024 0.49505711 -0.87887526 168 145 139
-0.22978753 0.49513271 -0.87775642 158 131 129
-0.23025107 0.49547583 -0.87864798 164 138 134
-0.23025894 0.49537861 -0.87865889 164 139 135
-0.22911093 0.49706474 -0.87659866 137 100 109
-0.22890897 0.49753904 -0.8763147 133 94 106
-0.2289876 0.49786139 -0.87650621 133 94 106
-0.23151103 0.49444941 -0.87687951 169 146 139
-0.23110409 0.49462214 -0.87687719 165 141 135
-0.22985369 0.49532112 -0.87627542 150 119 121
-0.22979711 0.49547791 -0.87580585 146 114 117
-0.23143017 0.49450293 -0.87681121 168 145 138
-0.22924502 0.49767262 -0.87546617 137 100 109
-0.23073442 0.49727699 -0.87607229 160 129 127
-0.23205107 0.49753937 -0.87648833 176 150 141
-0.22951886 0.49623644 -0.87570268 144 110 114
-0.23160447 0.4963752 -0.876351 169 143 136
-0.23171455 0.49515602 -0.87638676 169 144 137
-0.23167279 0.49656141 -0.87637198 170 144 137
-0.23146671 0.49747178 -0.87630671 169 141 135
-0.22851013 0.49774998 -0.87564278 126 86 101
-0.23632877 0.49211389 -0.87726849 171 142 144
-0.23637114 0.49092561 -0.87714702 180 152 155
-0.23674951 0.49396977 -0.87548524 134 101 101
-0.23685847 0.49125829 -0.87595057 174 146 149
-0.23687263 0.4925949 -0.87557405 154 124 125
-0.23656043 0.4921957 -0.87634546 160 130 131
-0.23335658 0.49032035 -0.87721783 185 165 156
-0.23448625 0.49188256 -0.87702966 183 159 156
-0.2341909 0.49129015 -0.87710643 184 161 157
-0.23394044 0.49262026 -0.87689716 181 158 153
-0.23409322 0.49155545 -0.87706274 183 161 156
-0.23265383 0.4919731 -0.87694198 181 161 150
-0.23392768 0.4936538 -0.87685138 171 147 141
-0.23545755 0.49187806 -0.87715274 178 152 152
-0.23549435 0.49410084 -0.87706435 157 128 126
-0.23433407 0.49313083 -0.87693363 173 149 144
-0.23485498 0.49240279 -0.8770414 177 152 150
-0.23075125 0.49326113 -0.87904692 176 156 147
-0.23061238 0.4922002 -0.87898248 172 147 143
-0.23081249 0.49218789 -0.87881875 174 150 145
-0.23191239 0.49041367 -0.87763464 180 159 150
-0.23158148 0.49222752 -0.87815082 180 162 150
-0.23235343 0.49398553 -0.87673378 176 156 145
-0.23230238 0.4922083 -0.87707615 180 161 149
-0.23208393 0.4928923 -0.87730032 179 160 148
-0.23642749 0.48758489 -0.87707371 199 173 172
-0.23634984 0.48778149 -0.87724459 198 172 171
-0.23647569 0.48789108 -0.87697798 198 172 171
-0.23641378 0.4866294 -0.87707996 202 176 174
-0.23718704 0.48779255 -0.87546027 196 170 172
-0.23281972 0.48751414 -0.87702525 189 167 154
-0.23391128 0.48726138 -0.87710571 193 170 160
-0.23336819 0.48666584 -0.8770116 192 168 157
-0.23313852 0.48902375 -0.87716752 188 168 157
-0.23253991 0.48749009 -0.87699789 188 166 152
-0.2347203 0.48677784 -0.8771432 197 173 165
-0.23372005 0.48997834 -0.87723923 187 166 158
-0.23548914 0.48897433 -0.87728643 192 168 166
-0.23584761 0.48880765 -0.87729686 193 168 167
-0.23576275 0.48818514 -0.87727827 196 171 168
-0.23441547 0.48934531 -0.87725198 190 168 162
-0.23508821 0.48848885 -0.87725842 194 170 166
-0.22995834 0.48654684 -0.8792156 181 153 148
-0.23104928 0.48636842 -0.87819135 185 159 149
-0.22996187 0.48784631 -0.87919438 173 142 142
-0.23098743 0.48675129 -0.87824428 182 156 148
-0.23019409 0.48780155 -0.87897646 174 144 142
-0.23168328 0.48901293 -0.87769824 179 153 146
-0.23156399 0.48927006 -0.87781394 177 151 146
-0.23136279 0.48999581 -0.87803096 175 148 144
-0.232141 0.48763782 -0.87722528 184 161 149
-0.23113088 0.49016401 -0.87823093 172 144 143
-0.23678543 0.48610225 -0.87628353 202 176 175
-0.23690565 0.48620257 -0.87602776 201 175 174
-0.23711415 0.48469561 -0.87555957 204 178 174
-0.23661466 0.48358619 -0.87664747 210 187 181
-0.23698075 0.48462185 -0.87585467 205 180 176
-0.2341323 0.48324117 -0.87659287 195 174 163
-0.23510151 0.48312709 -0.87697148 205 183 173
-0.23475091 0.48247999 -0.87660187 199 178 168
-0.23325877 0.48307425 -0.87616056 185 166 153
-0.23389891 0.48254576 -0.87625748 190 170 159
-0.23376048 0.48381957 -0.87662834 193 172 160
-0.23350143 0.48561043 -0.87699932 195 172 159
-0.2343397 0.48551846 -0.87707579 198 175 164
-0.23519732 0.4861379 -0.87715316 200 175 168
-0.23567149 0.48498026 -0.87719786 205 181 174
-0.23544945 0.48466116 -0.87717807 205 181 173
-0.23598155 0.48417339 -0.87722719 209 185 178
-0.22861746 0.48288295 -0.87904763 167 143 145
-0.22866398 0.48288599 -0.87746102 175 144 151
-0.22915886 0.48435074 -0.87895733 174 148 147
-0.22879176 0.48329726 -0.87827146 173 145 148
-0.23032023 0.48424369 -0.87679905 182 153 152
-0.23196869 0.48630795 -0.87730664 187 164 150
-0.2302753 0.48527741 -0.87787241 182 155 150
-0.23026383 0.48536298 -0.87796855 182 155 150
-0.23052351 0.48594904 -0.87830871 183 157 150
-0.23029697 0.48522273 -0.87779748 182 155 151
-0.23121151 0.48449922 -0.87662286 182 157 150
-0.23062627 0.48432776 -0.87672979 182 154 151
-0.23230992 0.48574147 -0.87673336 186 164 150
-0.23174895 0.48565474 -0.87686205 186 162 151
-0.23159041 0.48486969 -0.87664139 184 159 150
-0.23132801 0.48435441 -0.87654114 182 157 150
-0.22850195 0.48250687 -0.87828016 169 142 147
-0.23655766 0.48095253 -0.87569344 207 182 175
-0.23665735 0.4814077 -0.87579918 208 183 176
-0.2334621 0.48032251 -0.87545562 190 170 160
-0.23463087 0.47965544 -0.87540489 199 176 169
-0.23340084 0.47967714 -0.87542248 194 173 164
-0.23249462 0.48048034 -0.8754769 185 167 156
-0.2332225 0.48168445 -0.87553048 181 162 150
-0.23574652 0.48149431 -0.87634355 205 182 174
-0.23596162 0.48109224 -0.87614691 206 182 175
-0.23615853 0.48239192 -0.87716639 214 191 183
-0.23514548 0.48227471 -0.87664616 202 181 171
-0.22887859 0.48195899 -0.87583089 181 146 157
-0.2290826 0.48171097 -0.87542379 183 147 159
-0.23015553 0.48103151 -0.87614512 183 156 158
-0.23051952 0.48193994 -0.87609041 178 152 151
-0.23137547 0.48159841 -0.87583143 179 157 151
-0.23182759 0.48238409 -0.87574542 174 155 144
-0.2322091 0.48114556 -0.8755728 181 162 152
-0.22846028 0.48219678 -0.87719959 172 142 150
-0.22842474 0.48208743 -0.87757027 170 141 148
-0.22786246 0.47930649 -0.87608188 168 143 142
-0.22790244 0.47947526 -0.87598526 169 143 143
-0.22823527 0.48103797 -0.87628222 173 142 149
-0.22805098 0.47992799 -0.87816548 157 124 131
-0.22807668 0.47972551 -0.87912041 150 108 122
-0.22792567 0.47926041 -0.87749749 158 124 131
-0.22815543 0.48048386 -0.87872428 156 123 132
-0.22789824 0.47886464 -0.87795258 153 113 125
-0.22789888 0.47834274 -0.8792243 143 91 112
-0.22787076 0.47812822 -0.87892306 145 94 114
-0.22742148 0.47504553 -0.87634242 160 129 133
-0.22755522 0.47626171 -0.87904328 149 99 117
-0.22739612 0.47530872 -0.87902653 151 103 119
-0.22776967 0.47784239 -0.87751544 154 113 125
-0.22763927 0.47717896 -0.87618911 162 131 134
-0.2277282 0.47783759 -0.87676966 159 124 130
-0.22749478 0.47576013 -0.87579417 163 135 136
-0.22753312 0.47590852 -0.87625736 160 129 133
-0.22763351 0.47722447 -0.87601298 163 134 136
-0.22736062 0.47120622 -0.87858617 172 135 134
-0.2274361 0.47260579 -0.87754959 147 102 119
-0.22733657 0.4718776 -0.87880433 169 130 131
-0.2276011 0.47088802 -0.87576306 139 98 118
-0.2274159 0.47173163 -0.87787718 158 118 126
-0.22751676 0.4720709 -0.87638992 142 101 119
-0.22754321 0.47177067 -0.87614334 141 100 119
-0.2274996 0.47234023 -0.87635744 144 104 121
-0.22740892 0.4739663 -0.87566298 159 130 133
-0.2274068 0.47323489 -0.87763488 147 102 119
-0.22633997 0.46687713 -0.87567633 157 115 120
-0.22667399 0.46820027 -0.87700719 165 126 126
-0.22695023 0.46928224 -0.87895614 155 120 118
-0.22654024 0.46764269 -0.87840122 123 86 93
-0.22647905 0.46740726 -0.87767732 131 93 99
-0.22706051 0.46909997 -0.87579226 151 110 122
-0.22752114 0.47053704 -0.87606746 145 105 121
-0.22729614 0.46995831 -0.87642562 154 114 124
-0.22722436 0.46971181 -0.87629265 153 114 124
-0.22726595 0.47007108 -0.87723482 163 125 129
-0.22499673 0.46547467 -0.87915188 83 48 62
-0.22476955 0.46528107 -0.87880307 85 50 64
-0.22504231 0.46569419 -0.87734503 93 58 71
-0.22537 0.46592686 -0.87833256 88 53 66
-0.22561748 0.46623787 -0.87755418 94 59 71
-0.22523049 0.46593863 -0.87549847 122 85 94
-0.22600541 0.46654248 -0.87797964 98 62 74
-0.2285656 0.47854912 -0.8594436 198 172 177
-0.22756036 0.48077199 -0.85904741 164 134 138
-0.22755499 0.48112676 -0.85915715 157 125 129
-0.22758487 0.48137233 -0.85926938 152 118 123
-0.22648042 0.48083696 -0.85789323 175 151 147
-0.22683831 0.48048782 -0.85816437 178 154 151
-0.22664349 0.4810366 -0.85814124 169 144 141
-0.22704454 0.47896382 -0.85814089 188 167 165
-0.22478548 0.47888315 -0.85627538 175 164 148
-0.22638518 0.47994849 -0.85767102 181 161 155
-0.22478114 0.47997621 -0.85635275 171 158 143
-0.22677132 0.47863817 -0.85789192 187 169 164
-0.22529721 0.48118171 -0.85686678 171 152 141
-0.22677927 0.48021817 -0.85801536 183 160 157
-0.22460735 0.47852075 -0.85610163 174 165 148
-0.22853757 0.47697052 -0.85970801 191 166 166
-0.22836863 0.4759106 -0.85975599 185 160 157
-0.22828834 0.47760072 -0.8593033 193 167 169
-0.22647087 0.47534773 -0.85803336 176 143 144
-0.22766367 0.47618407 -0.85901225 184 156 155
-0.22477651 0.47464603 -0.85653269 167 127 132
-0.22737442 0.47582453 -0.85881042 181 153 151
-0.22780024 0.47690204 -0.8589834 188 160 162
-0.22631685 0.47789645 -0.85755223 184 162 158
-0.22521253 0.4784424 -0.85660499 178 166 153
-0.22497043 0.47731256 -0.85648489 174 154 146
-0.22566488 0.47843376 -0.85697788 181 167 156
-0.22734231 0.47816557 -0.8583774 191 167 167
-0.22594491 0.4782784 -0.85721928 182 165 157
-0.2252153 0.47721225 -0.85669345 176 153 147
-0.22447394 0.47652212 -0.85606569 170 145 140
-0.22442338 0.47827876 -0.85591745 173 162 147
-0.22662708 0.47295102 -0.85853076 172 144 133
-0.22727256 0.47433448 -0.85901523 174 147 140
-0.22515579 0.47434056 -0.85694122 168 130 132
-0.22763892 0.47447631 -0.85935891 175 150 142
-0.22749142 0.47164619 -0.8595168 175 153 131
-0.22713763 0.4734129 -0.85898149 174 148 136
-0.22746545 0.47259688 -0.85938978 175 151 134
-0.22485685 0.47236624 -0.85644305 172 145 128
-0.22468677 0.47251442 -0.85624534 172 144 128
-0.2267438 0.47163594 -0.85873699 173 149 129
-0.22465874 0.47211158 -0.85616595 173 147 128
-0.2270294 0.47134072 -0.85906392 174 151 129
-0.2252906 0.47215721 -0.85696578 173 146 128
-0.22521167 0.47088131 -0.85672671 176 157 126
-0.22458312 0.47167218 -0.85602194 174 151 127
-0.22437814 0.47264537 -0.85585999 172 144 129
-0.22717638 0.4700641 -0.8590644 177 156 131
-0.22564487 0.46947399 -0.85703188 179 159 132
-0.22578391 0.46851975 -0.85703576 182 159 137
-0.22496772 0.46882373 -0.85606343 181 160 135
-0.22693573 0.47066778 -0.85886985 176 156 128
-0.22652709 0.46991023 -0.85822004 178 157 131
-0.22541036 0.46854898 -0.85657102 182 159 137
-0.2275461 0.46836674 -0.8592239 184 160 144
-0.22713096 0.4679158 -0.85862088 185 161 145
-0.22721386 0.46814612 -0.85876656 184 160 144
-0.22761247 0.47005159 -0.85961044 178 157 133
-0.22612819 0.46811521 -0.85739619 183 159 140
-0.22666213 0.46858963 -0.85815275 182 159 139
-0.2260997 0.46821529 -0.85737842 183 159 139
-0.227268 0.46473002 -0.85841298 188 162 152
-0.22752815 0.46501806 -0.85877758 187 161 152
-0.2274206 0.46325487 -0.85855675 178 147 140
-0.2270707 0.46382529 -0.85810721 184 158 148
-0.22710437 0.463355 -0.85813278 182 153 144
-0.22777152 0.46595377 -0.85914707 190 164 156
-0.2277665 0.46329975 -0.85902709 176 142 137
-0.22620031 0.4664796 -0.85721439 188 163 150
-0.22710371 0.46595302 -0.85829139 191 167 155
-0.22668897 0.46539998 -0.85770845 191 168 155
-0.22623563 0.46534318 -0.8571322 190 168 154
-0.22535473 0.4655408 -0.85604686 189 166 149
-0.22637738 0.46517265 -0.85729146 191 169 155
-0.22737619 0.46610653 -0.85865104 191 166 156
-0.22885007 0.45922816 -0.85958397 190 150 153
-0.22876389 0.45990545 -0.85958618 186 146 149
-0.2283528 0.4591876 -0.85845649 194 163 159
-0.22799383 0.46021131 -0.85845041 184 151 150
-0.22809799 0.46103317 -0.8588571 178 142 143
-0.22809926 0.46195683 -0.85919237 172 133 135
-0.22677854 0.46256188 -0.85761386 181 154 145
-0.22617786 0.46282396 -0.85684645 187 165 150
-0.22555202 0.46214396 -0.85587937 191 174 158
-0.22601286 0.46140784 -0.85637408 186 164 154
-0.2268085 0.4622525 -0.85760003 181 153 145
-0.22664733 0.46130446 -0.85721523 181 153 148
-0.22726512 0.46202087 -0.85817772 176 144 141
-0.22900006 0.45594957 -0.85968632 200 171 162
-0.22876877 0.45783064 -0.85917819 197 165 160
-0.22855628 0.45575133 -0.85868651 198 170 160
-0.22884244 0.45515531 -0.85931259 201 173 162
-0.22732063 0.45668101 -0.85736984 197 172 162
-0.22761731 0.45524341 -0.857692 198 173 161
-0.22823827 0.45730793 -0.8582949 197 168 161
-0.22791898 0.45607346 -0.8579874 198 171 161
-0.22832811 0.45841098 -0.85837084 197 167 161
-0.22790548 0.45535159 -0.85798383 198 172 161
-0.22665454 0.45712394 -0.8566677 194 170 162
-0.22614875 0.45647931 -0.8561601 193 172 162
-0.22594973 0.45650348 -0.85595047 192 172 162
-0.22895938 0.4548575 -0.85955399 202 175 163
-0.22872257 0.45446503 -0.85902137 200 174 161
-0.22907272 0.45154098 -0.8596102 202 184 166
-0.22869736 0.45262024 -0.85878211 202 182 167
-0.22816333 0.45385742 -0.85807693 202 178 166
-0.22798641 0.45332772 -0.85781962 204 181 169
-0.22670659 0.45504236 -0.85676163 197 176 162
-0.22673021 0.45449153 -0.85669613 200 179 165
-0.22805333 0.45472297 -0.85808039 200 174 162
-0.22689645 0.45387354 -0.85676485 203 182 169
-0.23031327 0.48604637 -0.86327493 183 163 155
-0.22981578 0.48551005 -0.8624658 170 146 141
-0.23020208 0.48503536 -0.86299002 181 157 152
-0.23039155 0.48406744 -0.86316127 187 161 158
-0.230744 0.48311567 -0.86357898 198 170 169
-0.22950561 0.48347548 -0.86187559 163 132 133
-0.22988169 0.48274201 -0.86236429 173 142 144
-0.22933435 0.48326883 -0.86164063 158 126 128
-0.22946377 0.48421088 -0.86183631 161 133 132
-0.2299448 0.48252818 -0.86244416 175 143 146
-0.22823113 0.48273677 -0.86025536 133 95 101
-0.22851975 0.48132092 -0.8602106 151 116 123
-0.22931656 0.4809058 -0.86120182 180 149 154
-0.22931311 0.48167512 -0.8613978 169 136 140
-0.22950153 0.48180652 -0.86168534 172 139 144
-0.22970317 0.48203477 -0.86201596 174 142 145
-0.22904073 0.47961658 -0.86049485 192 164 169
-0.22899994 0.47869572 -0.86030376 200 173 178
-0.22917756 0.47925934 -0.86061686 200 173 178
-0.23022002 0.48040581 -0.86254334 201 173 174
-0.23043962 0.480351 -0.86296141 202 174 173
-0.23047173 0.47914112 -0.86307204 203 175 173
-0.22970565 0.47917077 -0.86162037 201 174 176
-0.2284354 0.48096085 -0.86002237 156 121 129
-0.22895379 0.47472903 -0.86074191 186 165 155
-0.22951761 0.4748207 -0.86151958 192 171 161
-0.22916812 0.47474235 -0.8610419 188 168 157
-0.22934406 0.47730094 -0.86085969 201 176 177
-0.2305581 0.47512028 -0.86293888 203 183 174
-0.22865894 0.47757885 -0.85982043 195 169 172
-0.22990417 0.47807193 -0.86197239 202 176 175
-0.22984056 0.47688878 -0.86171663 202 179 177
-0.23027644 0.47846866 -0.86272264 203 176 173
-0.23069642 0.47619185 -0.86325747 204 182 174
-0.23054084 0.47700438 -0.86305577 204 180 174
-0.23025927 0.47704488 -0.86252731 203 179 175
-0.22985356 0.47269559 -0.8625589 193 169 162
-0.22987235 0.47227514 -0.8627001 193 168 162
-0.2293994 0.47296274 -0.8618446 189 165 158
-0.23051007 0.47409979 -0.86310333 200 180 169
-0.22957891 0.47399306 -0.86181724 191 170 160
-0.23054509 0.47281745 -0.86350244 200 177 169
-0.22855134 0.47430998 -0.86025083 182 161 149
-0.22976378 0.47114009 -0.86276895 192 166 160
-0.229009 0.47202179 -0.86135679 186 164 151
-0.2287434 0.4714494 -0.8609854 185 163 146
-0.22875232 0.47134548 -0.86101544 185 164 146
-0.22838227 0.47209588 -0.86036205 182 161 142
-0.22838655 0.47341532 -0.86017889 181 160 145
-0.22794794 0.4721503 -0.85989171 178 157 136
-0.22991662 0.47019115 -0.86308992 192 166 158
-0.22950983 0.46913743 -0.86239278 188 163 147
-0.2297131 0.47021258 -0.86274308 191 165 155
-0.22992462 0.46864933 -0.8630982 189 163 150
-0.22942777 0.46908137 -0.86225271 187 163 146
-0.2291843 0.46770704 -0.8615979 189 165 150
-0.22863369 0.46911556 -0.86069208 187 166 148
-0.22881591 0.46894884 -0.8610397 187 165 147
-0.22891004 0.46864119 -0.86118388 188 165 148
-0.22858687 0.46938631 -0.86063921 187 166 147
-0.22846326 0.47063613 -0.86063707 183 163 141
-0.22833562 0.47030857 -0.86044955 183 162 141
-0.22989534 0.46552128 -0.86256737 189 166 153
-0.23016208 0.46655154 -0.8633942 189 162 147
-0.23001862 0.46425259 -0.862477 189 168 157
-0.22944854 0.4658154 -0.86172944 191 168 156
-0.22890787 0.46676114 -0.86087507 192 169 156
-0.22854288 0.46499294 -0.8600781 182 152 146
-0.22872846 0.4633823 -0.86033982 173 137 136
-0.22947258 0.46482643 -0.86158955 188 166 155
-0.22887181 0.46403629 -0.8605901 179 147 142
-0.22865583 0.46413398 -0.86024052 178 144 141
-0.23033582 0.46327651 -0.86295766 185 163 153
-0.22830606 0.46481064 -0.85980749 180 147 143
-0.22962455 0.46073243 -0.86128217 188 154 153
-0.22870411 0.4617292 -0.86001527 176 135 137
-0.22953074 0.46171141 -0.86135876 182 149 147
-0.22915001 0.45948181 -0.86021537 190 150 153
-0.23027772 0.46246156 -0.8627525 185 159 152
-0.22959313 0.45900661 -0.86132616 189 157 154
-0.23062062 0.46186 -0.86342531 187 166 155
-0.23055272 0.46135071 -0.86332965 187 166 155
-0.23023646 0.45906141 -0.86287284 188 165 155
-0.22957636 0.45954129 -0.86121392 189 156 154
-0.23095787 0.45700556 -0.86349761 192 164 156
-0.23071252 0.457515 -0.86331916 191 166 157
-0.22967353 0.45652619 -0.86130953 197 173 160
-0.22961566 0.45568359 -0.86088377 199 172 161
-0.23119348 0.45569718 -0.86334264 195 160 157
-0.22987148 0.45667246 -0.86167562 196 172 160
-0.23007567 0.45867503 -0.86247456 189 165 156
-0.22918971 0.45809758 -0.86029661 193 157 156
-0.22952805 0.45806047 -0.86111146 192 162 157
-0.22980213 0.45740205 -0.86173034 194 170 159
-0.22992986 0.4587914 -0.86212999 189 163 155
-0.2290668 0.45819867 -0.86000633 193 155 156
-0.23061252 0.45265082 -0.8619945 202 177 168
-0.23028906 0.45272487 -0.86156344 200 175 164
-0.23096836 0.45238459 -0.86244011 204 181 173
-0.2312458 0.45381761 -0.86304158 200 168 164
-0.22930884 0.45475519 -0.86015266 202 174 163
-0.2299315 0.45496514 -0.86112916 200 169 161
-0.23068477 0.45384067 -0.86225611 198 167 160
-0.23052506 0.45474735 -0.8620435 198 165 160
-0.22966786 0.45435429 -0.86069512 201 173 162
-0.23031428 0.45392156 -0.86168319 199 169 161
-0.23033035 0.45344421 -0.86168939 199 170 161
-0.22921652 0.45083556 -0.85983807 199 181 164
-0.23368612 0.51037318 -0.88322455 139 106 114
-0.23384327 0.5109179 -0.88499695 136 102 109
-0.23379536 0.51002878 -0.88458711 138 103 111
-0.23377927 0.51071215 -0.88529801 134 99 107
-0.23250175 0.50600046 -0.88417596 137 100 109
-0.2332036 0.5080061 -0.88451076 137 101 109
-0.23362708 0.50926459 -0.88440078 138 104 111
-0.23318641 0.50759053 -0.8836295 141 107 115
-0.23349488 0.50865066 -0.88389796 140 106 114
-0.23304509 0.50734812 -0.88409775 139 103 111
-0.23316762 0.50760788 -0.88381231 140 106 113
-0.23251426 0.50534201 -0.88359773 141 104 113
-0.23230678 0.50533861 -0.88457292 136 98 108
-0.23226917 0.50567096 -0.88494873 133 96 105
-0.23114423 0.50466776 -0.88648605 122 83 86
-0.23018406 0.50336713 -0.88607144 118 78 76
-0.23064771 0.50405854 -0.88636941 119 80 80
-0.23107816 0.50431424 -0.88605022 123 84 87
-0.2304747 0.50326723 -0.8854354 123 82 82
-0.23212957 0.50407982 -0.88394529 140 100 110
-0.2304778 0.50400949 -0.8865754 117 78 77
-0.23166659 0.50420821 -0.88491094 133 93 100
-0.23144743 0.50295961 -0.88402748 138 96 103
-0.23120093 0.50211585 -0.88406771 138 94 102
-0.23130283 0.50328213 -0.88427931 134 93 99
-0.23210552 0.50340062 -0.88341415 144 103 114
-0.23052628 0.501818 -0.88466638 131 87 91
-0.22895336 0.50130117 -0.88662034 112 69 63
-0.23117191 0.50162333 -0.8841967 139 94 103
-0.23120265 0.50131369 -0.88439566 139 94 104
-0.23126523 0.49974018 -0.88549876 137 91 103
-0.22941405 0.50096476 -0.8864156 117 74 71
-0.23099238 0.50135094 -0.88457519 136 92 100
-0.23106597 0.49979261 -0.88565624 134 89 100
-0.23128882 0.49882817 -0.88430941 141 102 109
-0.2313084 0.49839622 -0.88324314 145 111 114
-0.2315494 0.50000376 -0.88368857 145 104 113
-0.23126389 0.49920553 -0.88532877 138 94 105
-0.23156387 0.50033742 -0.88418007 143 100 111
-0.23149417 0.49440739 -0.8848635 138 107 110
-0.23151509 0.49449453 -0.88494861 138 106 110
-0.2310756 0.4960762 -0.88558942 132 93 102
-0.23087479 0.49536684 -0.88459212 131 92 103
-0.23127906 0.49666196 -0.88647747 134 94 102
-0.23116931 0.49672362 -0.88634628 133 92 101
-0.23150496 0.49500692 -0.88534003 138 104 109
-0.2309541 0.49645916 -0.88412625 135 98 106
-0.2310186 0.49726787 -0.88462925 136 98 105
-0.2310117 0.49777475 -0.88547581 135 94 102
-0.23091407 0.49601781 -0.88390589 134 98 106
-0.23087054 0.49609989 -0.88451898 132 93 103
-0.23260118 0.49352327 -0.88709205 153 133 123
-0.23094454 0.49376008 -0.88381714 132 99 108
-0.23198125 0.49210745 -0.88663083 146 122 120
-0.23115648 0.49345905 -0.88437533 135 104 111
-0.23124087 0.4929128 -0.884794 136 106 113
-0.23132825 0.49295515 -0.88494754 137 108 113
-0.23082648 0.49149731 -0.88364899 144 109 119
-0.23090717 0.49075404 -0.88395828 148 114 123
-0.23088719 0.49059543 -0.88389164 149 115 124
-0.23115258 0.4925209 -0.8847813 136 106 113
-0.23085904 0.49115482 -0.88377506 146 111 121
-0.23091185 0.48688403 -0.88585794 147 120 127
-0.2309633 0.48819077 -0.88585782 147 120 125
-0.23171261 0.48993778 -0.88700342 145 121 125
-0.2310757 0.48700503 -0.8861258 147 120 128
-0.23010889 0.48658594 -0.8845259 150 118 125
-0.22972381 0.48649824 -0.88388336 151 117 124
-0.23006777 0.48732197 -0.88440776 150 118 124
-0.23079728 0.48872858 -0.8854745 148 119 124
-0.22947749 0.486788 -0.88321084 152 116 124
-0.23089695 0.48954007 -0.88480943 149 118 125
-0.23086417 0.48904946 -0.88530946 148 119 125
-0.2304827 0.48947719 -0.88341224 152 116 126
-0.22975147 0.48710018 -0.88379478 151 117 124
-0.23093346 0.48423225 -0.88612205 150 124 129
-0.23139057 0.48469391 -0.88695681 150 124 129
-0.2305135 0.48279113 -0.88556778 155 126 128
-0.23084976 0.4833903 -0.88612759 154 126 128
-0.23055913 0.48370856 -0.88546884 151 125 128
-0.2313052 0.48530966 -0.88665408 147 123 130
-0.23017091 0.48545489 -0.88464665 150 120 127
-0.229845 0.48629561 -0.88409865 151 118 125
-0.22973022 0.48620337 -0.88390535 151 118 125
-0.22973974 0.48522875 -0.88392055 151 120 126
-0.22986457 0.48418412 -0.88412982 151 123 127
-0.23116192 0.48583543 -0.88631546 146 122 130
-0.2295544 0.48141447 -0.88641846 113 87 86
-0.22867905 0.48155302 -0.88374364 145 119 120
-0.22861493 0.48100856 -0.88548023 101 77 76
-0.22883533 0.48070958 -0.88707387 70 49 45
-0.22990312 0.48166218 -0.88642865 126 99 98
-0.23068704 0.48234165 -0.88615602 157 127 128
-0.21976151 0.47978342 -0.8514092 147 112 113
-0.2196153 0.47845197 -0.85115826 151 117 114
-0.21925297 0.47646382 -0.85065764 144 121 102
-0.21961972 0.47745371 -0.85108781 150 121 110
-0.22033265 0.47724611 -0.85176438 159 128 116
-0.21986303 0.47592297 -0.85120934 152 129 106
-0.21929416 0.47511545 -0.85066372 146 113 102
-0.21919857 0.47571987 -0.85057825 144 117 100
-0.23645675 0.50532329 -0.87464601 153 139 120
-0.23667383 0.50454521 -0.87536651 157 139 121
-0.23618181 0.50539374 -0.87408918 149 136 117
-0.23535851 0.49953681 -0.87349123 126 102 92
-0.23539482 0.49940005 -0.87412089 126 101 92
-0.23536699 0.49920824 -0.87436688 125 99 91
-0.23549898 0.49956217 -0.87456524 128 102 93
-0.23480147 0.49816263 -0.87236053 114 92 87
-0.23610722 0.50135535 -0.87508112 142 116 99
-0.23501387 0.49890253 -0.87230521 119 98 90
-0.23572771 0.50073373 -0.87389255 137 113 99
-0.23609422 0.50164241 -0.87472391 146 120 103
-0.23645756 0.49423507 -0.87467146 129 96 94
-0.23513411 0.49465871 -0.87262034 149 121 116
-0.23508082 0.49433395 -0.87234634 154 127 121
-0.23513003 0.49795312 -0.8752991 120 90 89
-0.23605013 0.49591553 -0.87489754 115 81 83
-0.2351864 0.49506035 -0.87300819 144 116 112
-0.23474139 0.49776116 -0.87217748 117 95 90
-0.23481239 0.49669525 -0.87282246 133 108 103
-0.23489521 0.49648887 -0.87350613 137 110 106
-0.23480389 0.49710676 -0.87272626 127 103 98
-0.23469608 0.49595109 -0.8719309 141 118 112
-0.2286153 0.49742934 -0.87524706 129 89 103
-0.23703302 0.49122858 -0.87516755 174 147 150
-0.2366381 0.49127865 -0.87424511 173 143 144
-0.2367073 0.49112058 -0.87436539 175 146 147
-0.23638868 0.49256244 -0.87400794 153 121 120
-0.23553488 0.49169806 -0.87255579 160 131 125
-0.23601751 0.49078712 -0.87295753 177 147 144
-0.23575571 0.49086756 -0.87262607 174 145 140
-0.23562609 0.49248958 -0.87284887 154 124 119
-0.23555109 0.4922798 -0.87268817 156 127 122
-0.23514231 0.49309853 -0.87215543 160 133 127
-0.23483762 0.49397308 -0.87180454 162 137 129
-0.23577692 0.4935227 -0.8732788 145 114 110
-0.23710048 0.48913321 -0.87507766 192 166 168
-0.23668322 0.48971909 -0.87407708 190 161 161
-0.23715362 0.48845097 -0.8752194 194 168 170
-0.23677498 0.48713255 -0.87406874 201 174 175
-0.23644726 0.48683834 -0.87284851 207 181 184
-0.23651898 0.48902929 -0.87361366 192 163 163
-0.23683655 0.48704499 -0.8742646 200 173 174
-0.23609295 0.48732001 -0.8721509 204 177 179
-0.2351885 0.48988882 -0.87159127 182 154 148
-0.23574862 0.48790538 -0.87180388 198 170 171
-0.23576768 0.48699164 -0.87157905 204 177 179
-0.23709805 0.48295423 -0.87512457 208 182 175
-0.23712519 0.48607191 -0.87511897 201 175 175
-0.23697868 0.48394105 -0.87467319 207 182 177
-0.23714289 0.48607197 -0.87518114 201 175 175
-0.23699322 0.48523089 -0.87468249 205 179 177
-0.23640017 0.48356608 -0.87276947 203 178 167
-0.23692963 0.48256499 -0.87459189 205 180 169
-0.23633073 0.48628795 -0.87232214 212 186 190
-0.2368591 0.48281989 -0.8743394 205 181 170
-0.23632315 0.48382664 -0.87250346 203 178 167
-0.23628068 0.48279539 -0.87251991 198 174 157
-0.23576519 0.4841443 -0.87158966 199 173 163
-0.23611936 0.4863151 -0.8719638 211 184 188
-0.23644274 0.4820669 -0.87337941 200 175 160
-0.23671418 0.48172063 -0.874641 204 179 168
-0.23654164 0.48080459 -0.87504822 204 179 171
-0.23405161 0.47921875 -0.87296462 202 180 170
-0.23456772 0.47931609 -0.87217009 205 182 172
-0.23434572 0.47981423 -0.87267911 200 177 165
-0.23412353 0.47867256 -0.87268054 206 184 176
-0.23439401 0.47972548 -0.87257439 201 178 166
-0.23463012 0.47922355 -0.8720417 206 183 173
-0.23462419 0.47939685 -0.87517542 200 177 170
-0.23459317 0.47970551 -0.87473756 199 176 167
-0.23378995 0.47914687 -0.87512714 199 177 169
-0.23572153 0.47990969 -0.87498647 202 177 170
-0.23583296 0.48097852 -0.87357306 198 172 160
-0.23445128 0.47948712 -0.8749705 199 177 168
-0.23585328 0.48114467 -0.87335473 197 172 158
-0.23519611 0.47947314 -0.8753832 202 178 172
-0.23589745 0.48216411 -0.87222511 194 169 150
-0.23040588 0.47968867 -0.87516725 186 161 159
-0.22892496 0.4787232 -0.8745957 176 156 149
-0.22942373 0.48048118 -0.87515372 182 153 157
-0.23025677 0.4789871 -0.87495553 184 163 156
-0.22925378 0.47862163 -0.87464201 178 158 150
-0.23093887 0.47911638 -0.87513834 187 166 160
-0.22831953 0.48109201 -0.87533909 178 143 153
-0.22838366 0.48054251 -0.87512416 177 146 152
-0.23294501 0.47812411 -0.8745327 198 176 167
-0.23359311 0.47808179 -0.87349898 201 178 170
-0.23410544 0.47751468 -0.87282771 202 176 168
-0.23369588 0.47766346 -0.87342507 200 175 167
-0.23357566 0.47713545 -0.87372184 197 170 161
-0.23311371 0.47561771 -0.87475348 187 155 144
-0.23277815 0.47520739 -0.8753559 183 150 138
-0.23388205 0.47632557 -0.87326449 194 167 155
-0.23355946 0.47535923 -0.87379712 186 159 143
-0.23436429 0.47682899 -0.87219965 198 176 162
-0.23447417 0.47620317 -0.87174565 193 176 156
-0.23396389 0.47474095 -0.87260705 181 163 139
-0.23409204 0.47585168 -0.87260294 190 169 151
-0.23153041 0.47700459 -0.87512469 186 165 154
-0.23147911 0.47542831 -0.87516189 178 150 137
-0.23086765 0.47565958 -0.87496394 177 154 141
-0.23185055 0.47488955 -0.87529558 177 144 131
-0.23025823 0.47618663 -0.87475663 178 160 148
-0.23104422 0.47537202 -0.87502855 177 151 138
-0.22968861 0.47592786 -0.87460005 174 158 145
-0.2289619 0.47553626 -0.87441438 169 153 140
-0.22907899 0.47825465 -0.87457007 176 157 149
-0.22866938 0.47558001 -0.87434924 168 152 138
-0.22903048 0.47731784 -0.87451452 174 156 146
-0.22756509 0.47555906 -0.87528306 165 141 139
-0.22753021 0.47599971 -0.87535477 166 141 139
-0.2282806 0.47648174 -0.87463099 167 149 139
-0.22820546 0.47769937 -0.87477618 170 149 142
-0.23246744 0.47204825 -0.87485778 157 137 118
-0.23331498 0.47257739 -0.87336588 186 159 146
-0.23295942 0.47135267 -0.87360853 168 150 132
-0.23249561 0.47088817 -0.87444913 151 137 116
-0.2331741 0.47294772 -0.8738578 183 155 142
-0.23331611 0.47133094 -0.87278682 179 159 144
-0.23344287 0.47266605 -0.87308228 185 161 146
-0.23377898 0.47222987 -0.87206191 186 167 150
-0.2337036 0.47455296 -0.87319887 180 159 137
-0.23420407 0.47351459 -0.87152088 183 170 145
-0.23381329 0.47218791 -0.87195885 186 168 150
-0.23360038 0.47457606 -0.87346703 180 157 136
-0.22996095 0.47459722 -0.87471527 169 146 132
-0.2311694 0.47340241 -0.8748135 163 141 124
-0.23184392 0.47374877 -0.87511778 167 139 124
-0.23153839 0.47260505 -0.87472969 158 139 121
-0.23095727 0.47242019 -0.8744964 156 141 122
-0.23240042 0.47218892 -0.87490082 158 136 118
-0.2294246 0.47129101 -0.87409353 147 113 119
-0.22970733 0.47306389 -0.87431359 157 140 127
-0.22905529 0.47158802 -0.87406158 148 113 121
-0.23017545 0.47133338 -0.87422168 148 121 119
-0.22999312 0.47207212 -0.87426382 152 130 122
-0.22752929 0.47341433 -0.87526053 156 126 132
-0.22799052 0.47194931 -0.87464052 148 109 124
-0.2283795 0.47451764 -0.87439317 164 147 135
-0.22841428 0.47169206 -0.87408268 148 108 122
-0.23295075 0.46859774 -0.87271929 189 166 157
-0.23246087 0.46718615 -0.87342602 189 164 158
-0.2330554 0.47024697 -0.87295783 173 156 140
-0.23307763 0.47009864 -0.87286437 176 158 143
-0.23263936 0.46930262 -0.8736316 171 152 138
-0.23359606 0.46918598 -0.8718285 192 168 159
-0.23335747 0.4687928 -0.87213862 192 168 159
-0.23366241 0.46954924 -0.87171572 191 169 159
-0.23067121 0.46699175 -0.87279111 188 172 151
-0.22941023 0.46887824 -0.87328017 164 134 133
-0.23141456 0.4674986 -0.87336409 183 155 152
-0.23056945 0.46845302 -0.87352699 171 138 142
-0.22861736 0.46992519 -0.87351358 151 113 123
-0.23044497 0.46742678 -0.87293023 182 163 147
-0.22877337 0.46949598 -0.87334889 156 123 126
-0.22968112 0.47050092 -0.87401998 146 109 119
-0.23171882 0.46850419 -0.87377936 172 146 141
-0.23142134 0.47043872 -0.87428933 149 127 118
-0.23230386 0.46698073 -0.87343562 190 164 159
-0.23098485 0.46887308 -0.87376475 167 135 137
-0.22724742 0.46843535 -0.87477636 154 120 123
-0.22820689 0.46706721 -0.87246048 180 174 137
-0.22747472 0.47021356 -0.87538201 139 98 117
-0.22710884 0.46890587 -0.87526077 148 108 120
-0.22754498 0.46850488 -0.87432933 157 129 125
-0.2274133 0.46865791 -0.87462807 154 122 123
-0.2283321 0.47017831 -0.87392068 147 108 120
-0.22846416 0.4704977 -0.87386525 144 100 119
-0.23322228 0.46396318 -0.87193143 197 172 157
-0.22861621 0.46525088 -0.87156153 187 170 148
-0.22941972 0.46520451 -0.87184304 188 176 147
-0.22966841 0.46561003 -0.87200189 189 184 145
-0.22928582 0.46482846 -0.87172955 188 169 149
-0.23202434 0.46307406 -0.872379 195 174 154
-0.23193219 0.46657446 -0.87314993 192 170 158
-0.23173328 0.46469402 -0.87262774 193 175 154
-0.23031834 0.46586701 -0.87232542 190 180 149
-0.2308899 0.46614894 -0.87262475 191 177 152
-0.23057601 0.46647504 -0.87257314 190 178 151
-0.2321941 0.46352559 -0.87254179 195 175 154
-0.22800471 0.46611431 -0.87251639 181 164 140
-0.22710836 0.46679467 -0.87410325 170 144 129
-0.22817107 0.46646816 -0.8723101 183 173 139
-0.22629815 0.46630552 -0.87485993 154 116 118
-0.22729646 0.4658992 -0.87352598 171 139 134
-0.22664431 0.46574926 -0.87393302 154 122 120
-0.22681598 0.46632212 -0.87442219 166 129 128
-0.22689898 0.4646104 -0.87287724 156 125 126
-0.22641499 0.46405905 -0.87313467 150 111 123
-0.22644398 0.46475476 -0.87336832 146 114 117
-0.2256251 0.46298769 -0.87215799 152 125 123
-0.22667255 0.46362469 -0.87263846 159 119 131
-0.22543056 0.46436509 -0.87386554 130 96 105
-0.22686674 0.46324253 -0.87212658 167 127 139
-0.2247633 0.46466839 -0.87441128 116 86 92
-0.23316969 0.46237448 -0.87184525 196 172 155
-0.23215076 0.46249858 -0.87232739 193 170 153
-0.2264664 0.46288329 -0.87181044 166 132 137
-0.22472137 0.46113777 -0.871683 143 112 114
-0.22574784 0.46224427 -0.87178546 156 124 127
-0.23334412 0.45773926 -0.87152952 200 170 166
-0.23258077 0.4941431 -0.88860983 145 119 112
-0.23256363 0.49352136 -0.88759035 150 128 120
-0.23269355 0.49401608 -0.88721126 154 132 122
-0.22399965 0.47949511 -0.85555089 167 155 141
-0.22161067 0.47902918 -0.85314202 159 128 126
-0.22250572 0.47915554 -0.8540439 160 137 131
-0.22097221 0.4795073 -0.85254365 151 117 118
-0.22110954 0.47870952 -0.85261738 161 125 124
-0.22253481 0.47890103 -0.85405278 163 140 133
-0.22143087 0.47881284 -0.85294574 160 128 126
-0.22130646 0.48018545 -0.85293037 144 114 117
-0.22054133 0.47887054 -0.85208106 157 120 120
-0.22144763 0.47680512 -0.8528195 164 139 121
-0.22226705 0.47832468 -0.85374218 167 141 132
-0.22210455 0.47801089 -0.8535583 166 141 130
-0.2222487 0.47814885 -0.85371155 167 142 132
-0.22323583 0.47834831 -0.85470909 170 152 139
-0.22086382 0.47783652 -0.85230976 162 127 121
-0.2225284 0.47762626 -0.85395378 167 147 132
-0.22371694 0.4759838 -0.85523671 168 142 133
-0.22313644 0.47683278 -0.85454553 169 153 133
-0.22211559 0.4748624 -0.85349315 164 137 119
-0.22345582 0.4771398 -0.85488933 170 155 136
-0.2240494 0.47754803 -0.85553598 171 156 142
-0.22274396 0.47660261 -0.85411608 168 152 129
-0.22273758 0.4762648 -0.85412484 167 149 128
-0.22066234 0.47658083 -0.85202783 162 132 116
-0.22135466 0.47095239 -0.8528198 149 123 116
-0.22176641 0.47331282 -0.85303652 165 145 114
-0.22230986 0.47153232 -0.85368323 161 139 118
-0.22157954 0.47221342 -0.85294026 157 135 115
-0.22121999 0.47270527 -0.85256296 157 134 113
-0.22073156 0.47243738 -0.85211933 151 126 112
-0.22356403 0.4716481 -0.85486394 173 155 122
-0.22407222 0.47299901 -0.85554969 170 142 128
-0.22224 0.47349352 -0.85354054 166 145 116
-0.22202007 0.47385597 -0.85332763 165 142 116
-0.22244559 0.47390565 -0.85380965 166 140 119
-0.22308214 0.47352329 -0.85448802 168 141 122
-0.22252288 0.47332573 -0.8538422 167 145 118
-0.22229192 0.47383621 -0.85363072 166 141 117
-0.22466034 0.46768484 -0.85540223 184 159 140
-0.22103564 0.4697831 -0.85238385 144 114 117
-0.22180085 0.47063196 -0.85324728 152 127 118
-0.22294648 0.46897885 -0.8540042 166 140 129
-0.22445947 0.46911052 -0.85546577 179 158 133
-0.22189648 0.46953508 -0.85311913 155 127 123
-0.22359049 0.46839729 -0.8544991 173 147 133
-0.22446322 0.46814162 -0.85527599 181 158 137
-0.22275455 0.46969205 -0.85396445 162 138 125
-0.22306213 0.4706687 -0.85445112 163 142 122
-0.22493386 0.46577173 -0.85549003 188 164 147
-0.2248354 0.46504748 -0.85527021 190 167 151
-0.22470327 0.46513095 -0.85510194 190 167 151
-0.22439933 0.4646287 -0.85471231 192 168 154
-0.22385515 0.46492261 -0.85419166 189 162 151
-0.22428577 0.46435225 -0.8545692 192 168 155
-0.22546786 0.46091682 -0.85555345 190 169 160
-0.22547436 0.46092317 -0.85556322 190 169 160
-0.22468308 0.46176553 -0.85464799 194 172 163
-0.22445305 0.46277165 -0.85457069 198 177 163
-0.22580315 0.45581868 -0.8558104 194 175 163
-0.22529344 0.45591855 -0.85512155 192 173 162
-0.22508581 0.45453069 -0.8547672 194 178 162
-0.23288205 0.49630222 -0.86754745 168 148 140
-0.23285396 0.49693075 -0.86739582 163 143 135
-0.2324558 0.49489653 -0.86657345 169 145 142
-0.23216337 0.49449322 -0.8661949 171 146 143
-0.2312741 0.49427757 -0.86496794 172 145 141
-0.23224738 0.49465373 -0.86628646 170 145 142
-0.23187013 0.49519277 -0.8656562 167 141 137
-0.2326532 0.49397466 -0.867158 178 155 152
-0.23242468 0.49166447 -0.86650872 170 141 142
-0.23240866 0.49028111 -0.86641854 168 137 139
-0.231014 0.49030459 -0.86456603 162 134 130
-0.23235112 0.49384332 -0.86651534 173 147 145
-0.23153524 0.49041322 -0.86526412 164 135 134
-0.23075995 0.49306932 -0.86426145 169 142 136
-0.23066835 0.49359751 -0.8641308 170 143 137
-0.23038669 0.49305224 -0.86373067 168 141 134
-0.23160014 0.49273753 -0.86545634 168 143 139
-0.23259231 0.48987511 -0.8667078 171 141 143
-0.23320431 0.48724145 -0.86749303 177 146 148
-0.23257759 0.48926565 -0.86658436 170 139 142
-0.23257513 0.48878822 -0.86650068 172 141 144
-0.23289447 0.4872517 -0.86688387 176 144 147
-0.23171732 0.48691416 -0.86508632 183 156 155
-0.23230736 0.48970956 -0.86621732 170 140 142
-0.23212513 0.48945084 -0.86596787 172 143 144
-0.23170884 0.48741162 -0.86515886 181 155 153
-0.23129535 0.49021727 -0.86493528 163 134 132
-0.23131877 0.48985532 -0.86494035 166 138 135
-0.23147726 0.4896591 -0.8651368 168 140 138
-0.23126145 0.48923999 -0.86481971 170 144 140
-0.23156916 0.48879907 -0.86519694 175 149 146
-0.23276107 0.48501745 -0.86648065 190 160 159
-0.23255861 0.48596245 -0.86606574 184 154 155
-0.23276392 0.48354074 -0.86637378 200 172 167
-0.23260349 0.48460618 -0.86607724 193 165 163
-0.23284785 0.48350358 -0.86657649 200 172 167
-0.23194237 0.48432848 -0.86506581 194 165 165
-0.23211589 0.48375115 -0.86520863 199 171 168
-0.23182477 0.48370084 -0.86487597 198 169 168
-0.23096272 0.48409796 -0.86393654 195 169 167
-0.23088881 0.48533505 -0.86396194 192 168 163
-0.2311314 0.48377946 -0.8640998 196 168 167
-0.23097254 0.48288131 -0.86384028 200 171 171
-0.23294605 0.48071834 -0.86714393 211 189 183
-0.23308165 0.48095402 -0.86741811 210 187 180
-0.2331765 0.48182464 -0.86743367 207 182 173
-0.23256399 0.47959664 -0.86633819 214 195 189
-0.23270522 0.47913232 -0.8668623 215 198 192
-0.23219331 0.48081902 -0.86535817 210 187 180
-0.23232363 0.47973466 -0.86572152 212 192 185
-0.2311314 0.4791356 -0.86408919 205 179 173
-0.23229545 0.47903591 -0.86579293 213 193 187
-0.23151231 0.48229143 -0.86441022 205 178 174
-0.23204045 0.48184437 -0.86501628 208 182 175
-0.23103672 0.48140225 -0.86389613 203 175 173
-0.23093839 0.48169139 -0.86377829 202 174 173
-0.23279804 0.47731167 -0.8670488 209 194 184
-0.23290628 0.47720113 -0.86737418 209 194 185
-0.23282658 0.47751853 -0.86717534 211 195 187
-0.23271637 0.47672403 -0.86669058 205 190 178
-0.23244067 0.47608361 -0.86575997 204 189 177
-0.23295386 0.47533873 -0.86720818 198 184 168
-0.23135434 0.47470304 -0.86412746 204 186 174
-0.23152973 0.47467706 -0.86434925 203 186 173
-0.23227264 0.47538915 -0.86540926 202 187 174
-0.23097283 0.47614422 -0.86375111 205 183 174
-0.23139089 0.47567129 -0.86431587 208 189 179
-0.23100071 0.47747526 -0.86390811 205 181 174
-0.23135222 0.47643781 -0.86432695 208 187 178
-0.23274294 0.47367698 -0.86678547 199 183 169
-0.2325512 0.47287565 -0.86648244 203 184 174
-0.23274221 0.47200984 -0.86736351 204 184 176
-0.23258811 0.47102013 -0.86725241 208 185 180
-0.23112911 0.4712255 -0.86478305 199 174 170
-0.23070934 0.47105655 -0.86421841 197 171 168
-0.23187347 0.47341889 -0.86509961 198 180 168
-0.23204605 0.47073784 -0.86632603 206 182 179
-0.2310534 0.47080749 -0.86482131 200 174 171
-0.23225001 0.47387487 -0.86549598 199 183 170
-0.23085925 0.47190306 -0.86414868 197 173 167
-0.23100178 0.47414461 -0.86377549 204 184 173
-0.2309005 0.47206232 -0.86416221 197 174 167
-0.23251446 0.47057143 -0.86713994 208 185 181
-0.23245448 0.46690685 -0.86666417 198 182 164
-0.23188442 0.46780878 -0.86593938 198 177 163
-0.23155627 0.46737483 -0.86546135 196 174 158
-0.2320039 0.46978444 -0.86626047 204 180 174
-0.23091941 0.46719572 -0.86458743 192 167 153
-0.23158497 0.46908504 -0.86563849 200 175 167
-0.2309595 0.46987507 -0.86471659 198 172 166
-0.23093891 0.46846992 -0.8646816 196 169 159
-0.23086202 0.46954361 -0.86457026 197 170 164
-0.23132789 0.46969759 -0.86526513 200 174 168
-0.23125198 0.47016904 -0.86515343 201 174 170
-0.23284362 0.4644708 -0.86735982 201 182 161
-0.23274735 0.46391204 -0.86704618 199 179 159
-0.2326235 0.46315694 -0.86656904 199 178 158
-0.23224808 0.4645665 -0.86597973 196 178 159
-0.23084809 0.46292481 -0.86377192 187 167 156
-0.23184882 0.46340698 -0.86523789 194 174 157
-0.23221315 0.4634878 -0.86575621 196 177 158
-0.23087077 0.46448174 -0.86407757 189 167 154
-0.23121758 0.46481898 -0.86460561 190 170 156
-0.23087314 0.46502507 -0.86417741 189 167 153
-0.23112839 0.46429306 -0.86439168 189 170 156
-0.23108537 0.46601301 -0.86463964 191 169 153
-0.23272641 0.46246499 -0.86673558 199 175 158
-0.23280849 0.46243683 -0.86696494 200 175 158
-0.23300399 0.45994255 -0.8670603 201 161 162
-0.23277637 0.45989835 -0.86654723 200 165 162
-0.23205805 0.46139693 -0.86545539 196 174 158
-0.23187272 0.46046674 -0.86519301 195 173 159
-0.23234761 0.45945328 -0.86564285 199 170 163
-0.2311217 0.45914185 -0.86428976 191 170 158
-0.23073217 0.46175814 -0.86369294 187 167 156
-0.23079209 0.46169025 -0.86378127 187 168 156
-0.23198055 0.46284831 -0.86534011 195 175 157
-0.23074341 0.46034789 -0.86381716 188 169 156
-0.23305738 0.45581886 -0.86722976 200 173 163
-0.23306245 0.45769283 -0.86717445 201 164 163
-0.23242822 0.45890772 -0.86569804 199 169 164
-0.23273583 0.45626828 -0.86619771 199 169 162
-0.23264404 0.4559606 -0.86580437 198 167 161
-0.23267935 0.45525166 -0.86577123 198 166 159
-0.23202206 0.45683905 -0.86467868 197 163 160
-0.23224448 0.45599905 -0.86478943 197 162 159
-0.2311969 0.45893148 -0.8643465 192 169 159
-0.23117734 0.45753238 -0.86393547 192 165 157
-0.2311912 0.45735782 -0.86390191 192 164 157
-0.23142748 0.45700741 -0.86406112 194 163 158
-0.23305997 0.45426443 -0.8671388 200 175 167
-0.23292777 0.45348078 -0.86672854 201 176 171
-0.2325706 0.45340976 -0.865309 202 174 171
-0.23251691 0.45392576 -0.86512268 200 170 167
-0.23244584 0.45439696 -0.86485076 199 167 163
-0.23192662 0.4547022 -0.86410105 198 162 160
-0.22569005 0.44766372 -0.86674237 165 134 143
-0.22561631 0.44844875 -0.86712629 165 133 143
-0.22517405 0.44936109 -0.86732358 157 123 137
-0.22481969 0.44762242 -0.86611181 149 111 126
-0.22444613 0.45014149 -0.86746001 147 109 127
-0.22424263 0.44774976 -0.86625582 144 105 121
-0.224041 0.44754264 -0.86626232 144 104 120
-0.22406313 0.44897521 -0.86704361 145 106 124
-0.22081599 0.44485012 -0.86721474 129 96 107
-0.22273916 0.44674537 -0.86671609 139 101 115
-0.22406738 0.44707516 -0.86602837 143 104 120
-0.22183353 0.44578129 -0.86693478 135 99 112
-0.221609 0.445907 -0.86711246 135 99 111
-0.22209471 0.44533965 -0.86662805 134 101 112
-0.22368558 0.44471008 -0.86553288 163 129 132
-0.22350208 0.44586325 -0.86597198 143 108 120
-0.22419442 0.44564459 -0.8655234 160 123 130
-0.22348388 0.44547579 -0.86586881 149 114 123
-0.22131789 0.44371319 -0.86655694 132 104 110
-0.22042917 0.44399929 -0.86736119 119 89 98
-0.23285833 0.50977504 -0.88176394 135 102 105
-0.23337452 0.51032144 -0.8827818 137 103 110
-0.2325609 0.50675726 -0.8826521 140 105 111
-0.23275393 0.50700879 -0.88280535 141 106 113
-0.23353325 0.50943202 -0.8827951 142 109 116
-0.23296167 0.5085755 -0.88240683 139 105 110
-0.23326628 0.50870329 -0.88275498 141 108 114
-0.23083413 0.50661463 -0.88009256 131 100 100
-0.23241547 0.50775129 -0.88202393 137 103 107
-0.23208266 0.50768542 -0.88154411 135 102 105
-0.23202962 0.50658721 -0.88192809 137 104 109
-0.23177049 0.50816721 -0.88086385 132 100 101
-0.23186706 0.5074659 -0.88130808 134 102 104
-0.2318777 0.50952762 -0.88020563 129 99 97
-0.23135747 0.5089817 -0.87952328 128 99 96
-0.23146823 0.50913447 -0.87963992 128 99 97
-0.22947343 0.50419676 -0.879444 126 84 94
-0.23021875 0.50552928 -0.87969327 129 97 99
-0.23184882 0.50551116 -0.88219225 139 103 110
-0.23029412 0.50550514 -0.8798244 130 97 100
-0.23008774 0.50401956 -0.88049924 130 85 98
-0.23063405 0.50302225 -0.88153058 135 88 103
-0.23178637 0.5048793 -0.88236576 139 101 110
-0.23164104 0.50501436 -0.88219064 138 99 109
-0.23092334 0.50428963 -0.88158876 135 92 104
-0.23204499 0.50264019 -0.88313949 147 104 117
-0.23164466 0.50278646 -0.88267279 144 99 113
-0.23207165 0.50316513 -0.88302803 145 103 116
-0.23019001 0.50075209 -0.88059801 141 95 108
-0.23012125 0.49887347 -0.87936282 149 111 117
-0.22989786 0.50010741 -0.87988722 142 98 108
-0.22984973 0.5011729 -0.88049471 137 88 103
-0.23044471 0.4988386 -0.87968689 151 115 120
-0.23060724 0.49826646 -0.87950671 155 121 124
-0.23057364 0.49839905 -0.87955284 154 120 123
-0.23088485 0.49863756 -0.88063234 152 118 121
-0.23141506 0.50042754 -0.88182479 151 111 120
-0.23102312 0.4987129 -0.88131768 150 116 119
-0.23086973 0.49851146 -0.88067007 152 118 121
-0.23092671 0.49881372 -0.88069308 152 117 121
-0.23136526 0.49884832 -0.88306248 146 111 115
-0.23067386 0.49424687 -0.88072479 160 136 132
-0.2308068 0.49516034 -0.8810941 159 134 130
-0.23113641 0.4972325 -0.88302761 143 112 114
-0.23109181 0.49689981 -0.88304251 142 110 113
-0.23077556 0.49473867 -0.88210052 145 115 119
-0.23073225 0.49427623 -0.88285017 134 101 110
-0.23109524 0.49763602 -0.88230067 149 119 118
-0.23077601 0.49697748 -0.88047338 158 129 127
-0.23067598 0.4946979 -0.87965357 173 152 143
-0.23104578 0.49690211 -0.88194233 154 126 124
-0.23090515 0.49802727 -0.88130599 150 118 119
-0.23089993 0.49688545 -0.8811413 157 128 126
-0.23066178 0.4923034 -0.8829965 141 105 116
-0.23011272 0.49072716 -0.88059759 154 117 127
-0.2304128 0.49167114 -0.88190562 146 110 120
-0.23053914 0.49156708 -0.88247472 146 109 120
