ply
format ascii 1.0
comment PCL generated
element vertex 918
property float x
property float y
property float z
property uchar red
property uchar green
property uchar blue
element camera 1
property float view_px
property float view_py
property float view_pz
property float x_axisx
property float x_axisy
property float x_axisz
property float y_axisx
property float y_axisy
property float y_axisz
property float z_axisx
property float z_axisy
property float z_axisz
property float focal
property float scalex
property float scaley
property float centerx
property float centery
property int viewportx
property int viewporty
property float k1
property float k2
end_header
0.17368959 -0.083506368 -0.8386274 124 126 162
0.1734999 -0.082743898 -0.83947074 121 123 160
0.1749562 -0.083121218 -0.84016323 124 127 162
0.17497946 -0.083485745 -0.83972496 125 128 163
0.1745449 -0.083183706 -0.83973187 124 126 162
0.17358488 -0.084598303 -0.83687913 126 129 165
0.17408018 -0.084150605 -0.83803022 126 128 164
0.17394531 -0.084485665 -0.83731717 127 129 165
0.17575951 -0.084363535 -0.83908617 129 132 165
0.17602938 -0.084164694 -0.83967495 129 132 165
0.17635031 -0.084519513 -0.83930272 130 133 166
0.17525993 -0.084863201 -0.83767194 129 133 167
0.17673205 -0.084773235 -0.83670908 138 144 181
0.17756134 -0.084673785 -0.83950907 133 137 170
0.17751385 -0.08471024 -0.83724058 140 146 182
0.17668447 -0.084755704 -0.83814085 134 138 173
0.17906283 -0.084585503 -0.83950192 134 136 177
0.17849408 -0.084613092 -0.83984572 133 135 173
0.17858502 -0.084629081 -0.83839262 137 141 181
0.17822325 -0.084642023 -0.83892685 136 140 177
0.1804468 -0.084500872 -0.83986354 133 131 181
0.1659545 -0.073971525 -0.84501964 90 88 137
0.16551961 -0.072751552 -0.84558588 79 75 116
0.16638403 -0.072947472 -0.84628689 95 90 135
0.16699019 -0.072685555 -0.84719616 100 95 138
0.16739739 -0.074223161 -0.84627813 99 96 147
0.1674934 -0.074461833 -0.84615707 99 96 149
0.16648257 -0.074867614 -0.8448568 95 94 147
0.16861355 -0.074763775 -0.84693503 101 98 154
0.16927071 -0.074909739 -0.8474189 103 99 156
0.1677523 -0.073238425 -0.84747761 103 98 144
0.16691917 -0.075318597 -0.84480387 95 95 148
0.16835104 -0.075125165 -0.84633505 99 98 153
0.16938125 -0.076067537 -0.84589934 95 92 145
0.16914782 -0.075586528 -0.84642261 99 96 151
0.17051962 -0.075781398 -0.84734166 100 96 150
0.17004663 -0.075846747 -0.84676719 97 93 148
0.16786619 -0.076554216 -0.84426439 94 94 144
0.16989744 -0.07840611 -0.84433728 94 94 139
0.16824284 -0.076260619 -0.84479362 94 93 145
0.16961873 -0.07791435 -0.84451967 94 94 140
0.1703587 -0.077567697 -0.84547716 96 94 142
0.16994172 -0.078586809 -0.84422994 94 94 139
0.17015237 -0.076859295 -0.84584177 95 92 143
0.17167324 -0.077133045 -0.84715641 102 99 148
0.17133008 -0.077223524 -0.84673733 100 98 146
0.17238371 -0.077586733 -0.84750235 105 104 151
0.17204106 -0.077241726 -0.84743822 103 101 150
0.17046192 -0.078009456 -0.84522372 96 96 142
0.17069764 -0.07795658 -0.84550405 97 97 143
0.17336126 -0.078771524 -0.84748107 111 111 154
0.17442603 -0.079846442 -0.84706521 117 120 156
0.17502737 -0.079715826 -0.84786767 118 120 158
0.17455901 -0.080573656 -0.84608847 119 123 157
0.17492016 -0.080548175 -0.84650129 120 124 159
0.17426124 -0.081112757 -0.84492159 121 125 158
0.17504124 -0.080796868 -0.84622657 122 125 159
0.17470351 -0.081230685 -0.8451848 122 127 160
0.17526129 -0.080391496 -0.84710222 121 124 159
0.17696244 -0.082076579 -0.84585887 130 132 167
0.17756377 -0.083216347 -0.84419906 134 134 172
0.17665319 -0.081452958 -0.84678739 128 131 165
0.17662945 -0.082014784 -0.84563988 129 132 166
0.17671542 -0.081423648 -0.84691 128 131 165
0.17648959 -0.081549361 -0.84642637 128 131 165
0.17936011 -0.083840095 -0.84488368 133 132 171
0.18088256 -0.083717667 -0.84660542 133 132 170
0.18128657 -0.083784834 -0.84689397 132 131 170
0.17840579 -0.082805149 -0.84584445 133 134 171
0.17854998 -0.081908055 -0.84777683 132 134 169
0.17909652 -0.082331948 -0.84745687 132 134 170
0.17798944 -0.083216645 -0.84462011 134 134 172
0.17863557 -0.082008876 -0.84765786 132 134 169
0.17881596 -0.082928151 -0.84599429 134 134 171
0.18178017 -0.083542332 -0.84770972 133 132 171
0.18005347 -0.084212899 -0.84455383 134 133 172
0.17942147 -0.084101774 -0.84429252 133 133 171
0.18096198 -0.084477745 -0.84457374 135 135 175
0.18225138 -0.084213696 -0.84656364 133 132 172
0.18171689 -0.084517524 -0.84517503 135 134 175
0.18413144 -0.084178999 -0.84798515 132 131 172
0.18464953 -0.084395178 -0.84763098 133 132 174
0.18490301 -0.08449772 -0.84746838 134 133 175
0.18473217 -0.084491163 -0.84736997 134 133 175
0.18417847 -0.084454305 -0.84540689 132 131 177
0.18412161 -0.084421322 -0.84497082 132 130 177
0.18298131 -0.084687971 -0.84547514 136 135 176
0.18265064 -0.084657632 -0.84454864 135 134 177
0.18430848 -0.084528059 -0.84638721 134 133 176
0.18686968 -0.084030874 -0.84577912 129 128 180
0.18700217 -0.084051199 -0.84613007 130 128 180
0.18677348 -0.084101722 -0.84630603 130 129 179
0.1858477 -0.084177136 -0.84583932 130 127 178
0.18635476 -0.084233433 -0.84698617 132 130 177
0.18617345 -0.072598018 -0.86865568 131 129 175
0.18607335 -0.072828129 -0.86842483 131 129 175
0.18803544 -0.072761692 -0.87030697 129 126 167
0.18819933 -0.074503988 -0.86912245 130 128 169
0.18791902 -0.073905274 -0.8693735 130 128 170
0.18891302 -0.073983043 -0.87023181 129 127 166
0.18719928 -0.07407061 -0.86856252 131 129 172
0.18653591 -0.074188031 -0.86784494 131 129 175
0.18818189 -0.073409632 -0.87004179 130 128 168
0.18772814 -0.073864564 -0.86923069 130 128 170
0.18833789 -0.075973108 -0.86801356 130 130 171
0.18938586 -0.074425101 -0.8703481 129 129 167
0.18934813 -0.075895213 -0.86912042 130 131 170
0.1897642 -0.074075535 -0.87102056 129 128 166
0.19024904 -0.075717807 -0.87019205 131 130 170
0.19097324 -0.075749412 -0.87091237 131 130 171
0.18959342 -0.074477345 -0.87051982 130 129 167
0.19067687 -0.075726233 -0.87062591 131 130 170
0.18905494 -0.076469719 -0.86829281 132 133 172
0.19013965 -0.07684271 -0.86903435 136 135 173
0.18985683 -0.076932892 -0.86865193 136 136 174
0.19205563 -0.077086769 -0.87082827 138 135 175
0.19253792 -0.076970592 -0.87145329 138 133 175
0.1907032 -0.077196002 -0.86928028 138 137 175
0.19206719 -0.076723695 -0.87118381 136 132 174
0.19234112 -0.078179583 -0.86947864 141 137 177
0.19188093 -0.078222305 -0.86882466 141 137 176
0.19208296 -0.077782772 -0.87018526 142 138 177
0.19280832 -0.07842721 -0.86940008 141 136 177
0.19307177 -0.077959046 -0.87090647 143 137 178
0.19252989 -0.078802511 -0.86811292 139 135 175
0.195259 -0.080077372 -0.86903906 141 134 175
0.19582568 -0.079939954 -0.87027663 143 137 175
0.19486764 -0.078965455 -0.87117058 144 138 177
0.1940089 -0.078354612 -0.87131071 144 138 178
0.19488345 -0.079387151 -0.87012088 142 137 176
0.19400716 -0.079301104 -0.86889315 140 135 175
0.19464801 -0.079611108 -0.86916065 141 135 175
0.19367269 -0.079259656 -0.86844647 139 134 175
0.19451228 -0.08012028 -0.8677209 139 132 175
0.19575818 -0.080811352 -0.86789352 146 139 178
0.19480884 -0.080295965 -0.86773229 141 134 176
0.19571422 -0.080091767 -0.86973506 142 136 175
0.1966656 -0.080899872 -0.86912167 149 142 179
0.19865805 -0.082699738 -0.86817461 165 157 185
0.19958717 -0.083129562 -0.86893457 172 165 187
0.19945373 -0.083045207 -0.86888361 171 164 187
0.19952868 -0.083057761 -0.86898899 172 164 187
0.20103829 -0.083602153 -0.87048203 183 176 191
0.1996907 -0.082495742 -0.87054139 172 165 189
0.19849774 -0.082166143 -0.86910748 164 157 186
0.19938855 -0.082395472 -0.87022114 170 163 188
0.19845326 -0.08210066 -0.86918992 163 156 186
0.19747664 -0.080721557 -0.87084985 151 144 178
0.19861589 -0.082204424 -0.8692351 165 157 187
0.19843796 -0.082075574 -0.86922485 163 156 186
0.20134795 -0.08361499 -0.87092113 184 176 192
0.20034321 -0.084075697 -0.8679471 172 165 183
0.20137984 -0.084051006 -0.86996937 182 175 189
0.20240016 -0.084178902 -0.87089819 180 169 186
0.20288728 -0.084692955 -0.86983991 172 161 182
0.20327389 -0.084665932 -0.87044871 172 161 182
0.20252363 -0.08470577 -0.86930931 172 162 183
0.20359682 -0.084786788 -0.87047952 170 158 181
0.204403 -0.084936135 -0.86775738 161 152 183
0.20168558 -0.084728494 -0.86788303 172 164 185
0.20427215 -0.084931873 -0.86799198 162 153 182
0.20251983 -0.084806621 -0.86841792 170 161 183
0.20306303 -0.084834792 -0.86786115 167 158 184
0.20416276 -0.084979802 -0.87024021 166 154 179
0.20646706 -0.085092776 -0.87113935 158 144 171
0.20865633 -0.085247651 -0.87125546 147 131 161
0.20766604 -0.085166655 -0.87115061 152 137 166
0.20789793 -0.084943265 -0.87001652 150 140 169
0.2063147 -0.085093193 -0.87118477 158 145 172
0.20665543 -0.084801093 -0.86811054 154 147 178
0.20574199 -0.084962793 -0.87002575 160 149 177
0.20637876 -0.084834449 -0.86806822 155 147 179
0.20557374 -0.084933631 -0.868029 157 149 181
0.20632736 -0.084882759 -0.86973834 157 148 176
0.20701389 -0.084774189 -0.86881572 153 146 176
0.20906003 -0.084952481 -0.86980844 144 133 164
0.20914289 -0.085086212 -0.87051052 143 130 161
0.19353676 -0.073039584 -0.87590784 141 142 185
0.19360925 -0.073117502 -0.87596649 140 141 185
0.19445476 -0.072975688 -0.87733173 136 134 182
0.1946923 -0.072693825 -0.87797791 133 130 182
0.19489856 -0.07356327 -0.87728059 140 137 182
0.19580871 -0.073238514 -0.87890357 134 129 180
0.19468431 -0.073169589 -0.87742954 137 134 182
0.19680855 -0.074794739 -0.87865877 142 134 178
0.19580942 -0.074538477 -0.87760758 142 136 180
0.19444077 -0.07500647 -0.87563419 139 136 179
0.1939064 -0.073890246 -0.87570977 142 141 183
0.19358657 -0.073676251 -0.87545919 142 142 184
0.19672285 -0.075988099 -0.87746537 142 136 176
0.19720285 -0.07560271 -0.8783288 144 136 177
0.19737865 -0.075727709 -0.87839276 144 137 176
0.19771421 -0.07582166 -0.87866139 145 139 177
0.19688918 -0.076248765 -0.87735075 144 138 176
0.19630362 -0.076459721 -0.87646252 143 137 177
0.19703627 -0.077138931 -0.8762728 149 143 180
0.1974811 -0.076572515 -0.87751907 147 141 178
0.19755897 -0.0767515 -0.87735569 148 142 179
0.19852436 -0.077680208 -0.87720722 156 150 184
0.19954653 -0.078055367 -0.87790698 161 156 186
0.19838358 -0.076762125 -0.8782447 149 145 179
0.19938293 -0.077055871 -0.87902439 154 150 181
0.20021208 -0.077865005 -0.87893134 162 157 185
0.19840452 -0.078138761 -0.87644708 158 152 185
0.20090994 -0.078474328 -0.87891769 167 162 188
0.20056181 -0.078954905 -0.87765592 163 156 185
0.19788469 -0.078070194 -0.87593257 156 150 185
0.1989523 -0.078622989 -0.87627143 157 151 184
0.20112664 -0.078694783 -0.8788088 167 161 187
0.20242418 -0.079850323 -0.87820113 163 152 178
0.20146731 -0.079767175 -0.8773706 163 153 181
0.20157902 -0.07901603 -0.87874359 166 159 185
0.20133035 -0.080342859 -0.87630713 161 150 180
0.20233916 -0.081519172 -0.87548715 166 155 183
0.20480318 -0.081844248 -0.87759405 171 157 181
0.20437716 -0.081704862 -0.87737238 170 156 181
0.20412976 -0.082469158 -0.87579489 176 164 186
0.20223314 -0.08134675 -0.87566805 165 153 183
0.20389673 -0.08173009 -0.87680966 170 157 182
0.2046603 -0.082976699 -0.87549865 181 168 187
0.20609985 -0.083828323 -0.87594795 184 171 182
0.20543821 -0.083059117 -0.87636077 181 168 184
0.20771705 -0.084731333 -0.87553173 175 160 172
0.20746511 -0.084575303 -0.87568909 177 162 173
0.20768425 -0.084692061 -0.87562042 175 160 172
0.20953773 -0.072777167 -0.89552426 150 134 164
0.21002933 -0.07406459 -0.89515406 159 144 171
0.21118936 -0.07432048 -0.89627945 166 152 171
0.21059571 -0.074572742 -0.89542288 164 149 173
0.17750756 -0.074836016 -0.85796869 113 117 155
0.17698154 -0.073009349 -0.85952848 97 101 136
0.17757015 -0.074135609 -0.85910934 117 121 160
0.17738025 -0.075004578 -0.8574701 108 112 149
0.17712428 -0.075205252 -0.85693622 109 113 150
0.17660961 -0.073699996 -0.8574723 103 106 147
0.17645743 -0.073527306 -0.85706717 107 110 153
0.17664029 -0.074157886 -0.85682899 109 112 154
0.17587279 -0.072377555 -0.8563441 114 115 170
0.17611438 -0.073118567 -0.85618716 115 116 169
0.17615692 -0.072644435 -0.85719579 106 108 156
0.17940865 -0.075395249 -0.8597064 132 136 174
0.17886734 -0.075065657 -0.85951 129 133 172
0.17891566 -0.075160071 -0.85943365 129 133 172
0.17822634 -0.074567229 -0.85943377 126 129 169
0.17856629 -0.075381503 -0.85867953 127 130 169
0.17737266 -0.076363072 -0.85588461 118 122 161
0.17861028 -0.076381482 -0.85737354 126 129 167
0.18024157 -0.07736019 -0.85852528 134 137 173
0.18068717 -0.077336788 -0.85911357 136 139 175
0.17892049 -0.076577924 -0.85756266 129 132 169
0.17909333 -0.076530255 -0.85782623 130 133 170
0.17988978 -0.078008138 -0.85691309 130 132 168
0.18059394 -0.078549892 -0.85698372 132 134 169
0.18134052 -0.079447284 -0.8564443 133 135 169
0.18058309 -0.07788223 -0.85823673 134 137 172
0.18162432 -0.079531878 -0.85672712 135 136 170
0.18129358 -0.079556748 -0.85616261 133 134 168
0.18043518 -0.078925379 -0.85602129 130 132 166
0.18540759 -0.079643115 -0.85934949 134 128 171
0.18308792 -0.079979599 -0.85698557 134 132 168
0.18215169 -0.07854636 -0.8590076 138 139 175
0.18285921 -0.07901676 -0.85863894 136 136 173
0.18509278 -0.079466686 -0.85944408 135 129 171
0.18411835 -0.07961563 -0.85843611 134 130 170
0.18205433 -0.078109898 -0.85976541 139 141 177
0.18435115 -0.079478972 -0.85886919 135 130 171
0.18178558 -0.079163052 -0.8575623 136 137 172
0.18564093 -0.080017194 -0.85883874 134 127 170
0.18525015 -0.08017011 -0.85821372 134 128 170
0.18284157 -0.080266006 -0.85618699 133 133 169
0.18411309 -0.080186136 -0.85732377 133 130 169
0.18493259 -0.080912374 -0.85627913 135 132 171
0.18572924 -0.080312587 -0.85826403 134 128 170
0.18561777 -0.080728963 -0.85721886 135 130 171
0.18589684 -0.081201389 -0.85637581 135 132 172
0.18635048 -0.080877222 -0.85749859 135 131 172
0.18701179 -0.080312416 -0.85934526 134 129 170
0.18768717 -0.081062414 -0.85821164 136 133 172
0.18809304 -0.081170641 -0.85833073 136 133 173
0.18939182 -0.08138527 -0.8590942 137 134 174
0.18841736 -0.082557864 -0.85614866 140 137 178
0.18908502 -0.082321994 -0.85715711 139 136 177
0.18862663 -0.082073294 -0.85719532 139 136 176
0.18824537 -0.082160868 -0.85670334 139 136 176
0.19135953 -0.08386118 -0.85685498 141 137 178
0.19074589 -0.083571084 -0.85686004 142 138 179
0.19018236 -0.081754006 -0.85948658 138 135 173
0.19102666 -0.083315998 -0.85785884 142 138 177
0.19182543 -0.083166718 -0.85921353 142 137 175
0.19288209 -0.083722621 -0.85966527 143 138 174
0.19190186 -0.083488494 -0.85874528 142 138 176
0.19168031 -0.082747422 -0.85976166 141 136 174
0.19171575 -0.082795344 -0.85972476 141 136 174
0.20064437 -0.083762966 -0.85876513 154 154 202
0.19980665 -0.08359962 -0.8574605 154 153 204
0.19990103 -0.082995899 -0.85642356 161 160 209
0.20016678 -0.082927071 -0.85660779 162 161 210
0.20053077 -0.083687469 -0.85848665 155 154 203
0.19960448 -0.083866477 -0.85772854 150 149 201
0.19332217 -0.084155947 -0.85866374 144 138 177
0.19277747 -0.084348142 -0.85637766 143 137 182
0.19191104 -0.084112532 -0.85648179 142 136 180
0.19206889 -0.083998159 -0.85753679 142 137 177
0.19722387 -0.084443249 -0.85795414 149 146 190
0.19705771 -0.084318183 -0.85729307 147 144 193
0.19524015 -0.084360018 -0.85975999 148 143 178
0.19703844 -0.084339149 -0.85746038 148 144 192
0.19674705 -0.084540702 -0.85919607 151 146 183
0.19663496 -0.08427085 -0.85747433 147 143 192
0.19562495 -0.084258489 -0.85634059 144 140 193
0.19371352 -0.084293157 -0.85760003 144 138 181
0.19370982 -0.084494621 -0.85614258 144 137 185
0.1946346 -0.084282331 -0.85695052 144 139 187
0.19395196 -0.08448799 -0.85599923 144 137 187
0.19710952 -0.084158376 -0.85589296 144 142 200
0.19826555 -0.084385656 -0.85889047 151 148 190
0.20004743 -0.084116779 -0.85931915 152 151 196
0.19869402 -0.084432133 -0.85969222 153 150 188
0.19753888 -0.084555209 -0.85909224 152 148 186
0.19971257 -0.084242515 -0.85971147 153 151 193
0.19845214 -0.08413478 -0.857535 148 146 196
0.19745067 -0.084271006 -0.85707736 147 144 195
0.17733015 -0.073136136 -0.85998607 108 112 150
0.17733058 -0.072831169 -0.86031556 107 110 149
0.17831133 -0.072404049 -0.86207622 120 119 163
0.17784394 -0.073359422 -0.8604939 122 124 166
0.18018146 -0.073419623 -0.86332691 131 130 170
0.17977631 -0.074407436 -0.86183137 130 133 171
0.17993525 -0.073695891 -0.86274213 130 131 170
0.17943898 -0.072998196 -0.86281818 128 128 169
0.17937109 -0.07428965 -0.86144143 129 132 171
0.18057668 -0.075824022 -0.86064643 137 139 176
0.18063189 -0.075770468 -0.86081284 137 139 176
0.17969765 -0.07471212 -0.86123312 131 134 172
0.17999098 -0.075852267 -0.85977 136 139 176
0.17926082 -0.074749336 -0.86055285 130 133 172
0.1815785 -0.075544536 -0.8625862 136 138 174
0.18449198 -0.076157779 -0.86357331 129 128 170
0.1838308 -0.076065235 -0.86328965 130 130 171
0.18109129 -0.076225676 -0.86081809 136 139 176
0.18108822 -0.076630615 -0.86036974 137 140 177
0.18360737 -0.076202273 -0.86294746 131 131 171
0.18183264 -0.076966725 -0.86096483 137 140 176
0.18370214 -0.07670702 -0.86245549 132 132 172
0.18426222 -0.076688655 -0.86286616 131 131 171
0.18339953 -0.077032693 -0.86191553 134 134 173
0.1824116 -0.077889286 -0.86029029 138 140 176
0.18478808 -0.077453129 -0.86227852 134 132 172
0.18515943 -0.077054963 -0.86306989 132 131 171
0.18513343 -0.078873567 -0.86040646 135 129 172
0.18509996 -0.07718388 -0.86284822 133 131 171
0.18436189 -0.078737289 -0.86016566 136 132 173
0.18758155 -0.079827599 -0.86166024 135 131 169
0.18644993 -0.079634599 -0.8605963 135 129 171
0.18559983 -0.077411793 -0.86283541 132 129 171
0.18653901 -0.078153469 -0.86290276 133 130 170
0.18589611 -0.078448772 -0.86168718 133 129 171
0.18646012 -0.078648292 -0.8620857 134 130 170
0.18594322 -0.078304894 -0.86195427 133 129 171
0.18695499 -0.078175977 -0.86337823 134 131 169
0.18776447 -0.079737432 -0.86209321 136 132 169
0.1868297 -0.07847634 -0.86278772 134 131 170
0.18895026 -0.080398709 -0.86159337 136 133 170
0.18910852 -0.080358908 -0.86199313 136 133 169
0.18920702 -0.080184773 -0.86284602 136 134 168
0.18845907 -0.080298439 -0.86125797 135 132 169
0.19017002 -0.080736324 -0.86210847 139 136 173
0.18967532 -0.080527447 -0.8621788 137 135 170
0.1920758 -0.081189685 -0.86325812 145 140 179
0.1902407 -0.080584601 -0.86283273 139 136 172
0.19186798 -0.081162892 -0.86304116 144 140 179
0.18997076 -0.080552451 -0.86254019 138 135 171
0.1929169 -0.081644103 -0.86303532 147 142 183
0.19262993 -0.081588782 -0.86277264 146 141 182
0.19109239 -0.082059026 -0.86014163 140 136 174
0.19269919 -0.082329303 -0.86167556 145 140 179
0.19015436 -0.081170902 -0.8604117 139 135 175
0.19260982 -0.081487097 -0.86291033 146 142 182
0.19236885 -0.081914805 -0.86193305 145 140 180
0.19033352 -0.081259854 -0.86048889 139 136 175
0.1942752 -0.083309457 -0.8619591 150 143 178
0.19523299 -0.083597817 -0.86258548 155 146 178
0.19533929 -0.083889119 -0.86224145 155 146 177
0.19604243 -0.083897933 -0.86302489 160 148 178
0.19375566 -0.082693473 -0.86235231 149 143 180
0.19401243 -0.083900869 -0.86071777 148 141 176
0.19495985 -0.082749739 -0.86362839 156 147 182
0.20386162 -0.083937407 -0.86173314 150 144 197
0.20473102 -0.08367724 -0.8619495 152 146 199
0.20397897 -0.08379554 -0.86158532 151 146 199
0.20287587 -0.083970204 -0.86105293 150 147 198
0.20428342 -0.0829238 -0.86036617 162 162 208
0.19555603 -0.084081337 -0.86217475 156 146 177
0.19598837 -0.084268756 -0.86212176 157 147 178
0.19599764 -0.084339604 -0.86138892 155 147 178
0.19685884 -0.084446736 -0.86184382 158 149 180
0.1962382 -0.084448136 -0.86068398 153 147 179
0.19663939 -0.084551319 -0.86033189 153 147 180
0.19647676 -0.08434967 -0.86216635 158 148 179
0.19958863 -0.08450941 -0.86086571 153 150 190
0.19854222 -0.084734671 -0.86099368 153 149 185
0.19897199 -0.084755182 -0.86147058 153 149 185
0.20090804 -0.084150091 -0.86035174 153 152 197
0.2005077 -0.084132627 -0.8599152 153 152 196
0.20036621 -0.084705777 -0.8624745 153 149 190
0.19832303 -0.08471448 -0.86109006 154 149 184
0.19896138 -0.084663786 -0.86242938 156 149 185
0.19877233 -0.084602036 -0.8628453 158 150 184
0.19832171 -0.084572844 -0.86258769 158 150 183
0.19851252 -0.084506609 -0.86352879 160 150 183
0.19911104 -0.084577501 -0.86353093 158 150 185
0.20319457 -0.084287003 -0.86259443 149 142 192
0.20121543 -0.084284268 -0.86124247 152 151 196
0.20135565 -0.084298559 -0.8614043 152 150 196
0.20198579 -0.084570996 -0.86310738 151 146 191
0.20120467 -0.084524378 -0.86236036 152 150 194
0.20183051 -0.084139548 -0.86098045 151 149 196
0.20215848 -0.084048554 -0.86077738 151 148 197
0.20085405 -0.072328329 -0.88505793 146 141 183
0.20090099 -0.072610043 -0.88489795 146 140 183
0.19974269 -0.072946556 -0.88352829 142 134 183
0.20146058 -0.072716564 -0.88543636 147 142 182
0.20124328 -0.072421938 -0.88538545 147 142 183
0.2012939 -0.074596524 -0.88386101 146 137 178
0.2034592 -0.075140156 -0.88573909 151 143 175
0.2019432 -0.073635697 -0.8853544 147 141 179
0.20254384 -0.075326994 -0.88462305 149 139 175
0.20217888 -0.074219406 -0.88513196 148 140 178
0.20198053 -0.075276762 -0.88406956 148 137 176
0.20297688 -0.074611373 -0.88565713 150 142 176
0.20352511 -0.07429368 -0.8864916 151 145 176
0.20250364 -0.076034956 -0.88371575 146 137 175
0.20295708 -0.075933419 -0.88433552 148 139 175
0.20399633 -0.075816974 -0.88560164 151 143 174
0.20445615 -0.076343745 -0.88535219 153 146 175
0.20462398 -0.076625705 -0.88523203 157 149 177
0.2040852 -0.076384962 -0.88492846 153 145 176
0.20383085 -0.076376557 -0.88467598 152 144 176
0.20560358 -0.076586805 -0.88624537 158 150 175
0.20675793 -0.077429689 -0.88678664 164 155 177
0.20665927 -0.07726416 -0.88682181 163 154 176
0.20673315 -0.077138178 -0.88703197 161 153 175
0.17317948 -0.084906995 -0.83393383 125 126 163
0.17305133 -0.084942944 -0.83526146 124 127 163
0.17740801 -0.084680639 -0.83584064 142 148 187
0.17414367 -0.084842645 -0.83267093 129 128 167
0.17410982 -0.084869802 -0.8330102 129 129 166
0.1741333 -0.084940553 -0.8355583 129 131 168
0.17685556 -0.08476571 -0.83617491 140 146 183
0.17523216 -0.084857643 -0.8353731 133 137 174
0.17471325 -0.084846094 -0.83367646 131 132 170
0.16928676 -0.074157894 -0.8480882 105 100 154
0.16951738 -0.072291426 -0.8496201 115 112 174
0.16893598 -0.073147878 -0.84855229 108 103 157
0.16934811 -0.07411319 -0.84816772 105 101 156
0.17004231 -0.072521083 -0.8498807 117 114 180
0.17057469 -0.072783276 -0.85020751 121 117 179
0.17114592 -0.072666578 -0.85084713 126 123 182
0.17116722 -0.074549437 -0.84920323 113 109 164
0.17152703 -0.07424017 -0.84974194 117 113 168
0.17012137 -0.07470005 -0.84835958 107 103 161
0.17150404 -0.075817868 -0.8482039 103 99 152
0.17269571 -0.074150182 -0.85166425 121 120 168
0.17316763 -0.075567663 -0.85132319 110 110 153
0.17334448 -0.075642861 -0.8516044 110 111 152
0.17259106 -0.074439593 -0.85119826 118 117 166
0.17338534 -0.075478449 -0.85183251 111 112 154
0.17194882 -0.07428129 -0.85007393 118 115 168
0.17330426 -0.076796539 -0.85005498 107 107 150
0.17234704 -0.076190621 -0.84913343 103 101 149
0.17252155 -0.076425128 -0.84910369 104 102 149
0.17332783 -0.077000789 -0.84977585 108 108 150
0.17317116 -0.077455409 -0.84874219 108 108 153
0.17528827 -0.079256736 -0.84902209 118 119 161
0.17566912 -0.079713404 -0.84869385 120 122 161
0.17600381 -0.079713315 -0.8491537 121 122 162
0.17727457 -0.079616047 -0.8510564 124 124 168
0.17717949 -0.079847783 -0.85051483 124 125 167
0.17413281 -0.077140331 -0.85094726 110 112 151
0.17608377 -0.078200668 -0.85180622 118 119 161
0.17528938 -0.07852827 -0.8502419 117 117 160
0.17531459 -0.077524818 -0.85187995 114 116 156
0.17717098 -0.079227775 -0.85158718 123 124 168
0.17447278 -0.077502869 -0.85081261 112 113 153
0.17571893 -0.078910537 -0.85019296 119 119 163
0.17483117 -0.078362413 -0.8499071 115 116 158
0.1777451 -0.080057591 -0.85089606 126 126 169
0.17773236 -0.080330364 -0.85030401 126 128 168
0.17661101 -0.080510169 -0.84837663 124 127 163
0.17797729 -0.080941528 -0.84920168 129 131 168
0.17773823 -0.080718182 -0.84947443 128 130 168
0.17948036 -0.080622166 -0.85125047 129 131 171
0.17878051 -0.080494113 -0.85087526 128 130 170
0.17922273 -0.080803148 -0.85063189 130 132 170
0.17861658 -0.081069961 -0.84951127 130 132 169
0.17924099 -0.080394559 -0.85150927 128 129 171
0.18117829 -0.083030447 -0.84806854 134 134 171
0.18019758 -0.081991345 -0.8491565 133 134 171
0.1802904 -0.081836507 -0.84954047 133 134 171
0.17929333 -0.081659317 -0.84895557 132 134 170
0.18057649 -0.081729174 -0.85001242 133 135 171
0.18006459 -0.082213186 -0.84860635 133 134 170
0.17871252 -0.081808135 -0.84813017 132 134 169
0.18394968 -0.08391989 -0.84871918 133 132 171
0.18418372 -0.083509885 -0.84982175 136 134 172
0.18477149 -0.083380699 -0.8506847 137 135 172
0.18554533 -0.083657011 -0.85073316 137 135 172
0.18235625 -0.083246425 -0.84875929 135 134 172
0.18276647 -0.08314316 -0.849347 136 134 172
0.18208632 -0.083004698 -0.84896928 135 134 172
0.1817746 -0.083203912 -0.84829104 135 134 172
0.18392918 -0.082953095 -0.85081339 137 136 172
0.18221569 -0.08196488 -0.85109156 135 135 173
0.18365164 -0.082251675 -0.85189956 137 136 172
0.18694334 -0.083499514 -0.85036039 136 135 176
0.18653031 -0.083673202 -0.85016143 136 135 174
0.18692517 -0.083522402 -0.8503145 136 135 175
0.18672165 -0.083430365 -0.85064787 137 136 175
0.18750441 -0.083915435 -0.85136712 139 136 174
0.18780585 -0.083957851 -0.8510161 138 136 175
0.18757692 -0.08376734 -0.85072762 138 135 175
0.18782161 -0.083577789 -0.84969759 136 136 178
0.19214803 -0.083790369 -0.8508957 140 139 185
0.19359674 -0.083147697 -0.85078931 151 152 199
0.19409239 -0.083127394 -0.85116166 152 153 200
0.184696 -0.084076002 -0.84885699 134 132 172
0.18813002 -0.084109239 -0.85127228 139 137 176
0.18927017 -0.084492631 -0.85153097 141 139 179
0.18911768 -0.084283262 -0.85061026 139 137 179
0.18714602 -0.083996683 -0.84901947 135 133 176
0.18659742 -0.084299095 -0.84811592 134 133 177
0.18959701 -0.084119007 -0.84929746 136 135 181
0.19052002 -0.084173784 -0.85065436 139 137 181
0.19008708 -0.084085993 -0.84966987 137 135 181
0.18972692 -0.084031314 -0.84895372 136 134 181
0.18971844 -0.072561495 -0.87205499 129 127 164
0.19161773 -0.072874866 -0.87382209 137 137 177
0.19199599 -0.072675496 -0.87430513 138 139 181
0.19212615 -0.074731059 -0.87295538 136 134 176
0.19131689 -0.074671246 -0.87215269 133 131 172
0.19186506 -0.074405767 -0.8729493 135 134 175
0.19119209 -0.073533714 -0.87296158 134 133 173
0.19201854 -0.073950067 -0.87348759 137 136 177
0.19015689 -0.073386312 -0.87199342 131 129 167
0.19142103 -0.074315101 -0.87255675 134 132 173
0.19223931 -0.076043695 -0.87202781 134 130 174
0.19266221 -0.076164991 -0.87243283 134 130 174
0.1938194 -0.075876959 -0.87412745 137 132 176
0.19365476 -0.075869873 -0.87389827 136 132 176
0.19286096 -0.076680809 -0.87213171 137 132 175
0.19333893 -0.077811219 -0.87151736 143 137 178
0.19397248 -0.076684095 -0.87358803 138 133 176
0.19426763 -0.076645657 -0.87404847 138 132 176
0.19611275 -0.077744931 -0.87448674 149 143 182
0.19487862 -0.07721924 -0.87394828 143 137 179
0.19586834 -0.077058785 -0.87519032 145 139 180
0.19540946 -0.07769344 -0.87383455 147 141 181
0.19405961 -0.078064725 -0.87189078 145 139 179
0.19652447 -0.079827569 -0.87162381 146 140 176
0.19624478 -0.079245374 -0.87226427 147 141 178
0.19586469 -0.078305453 -0.87337208 149 143 181
0.1963957 -0.079338871 -0.87227094 147 141 178
0.1959693 -0.078398451 -0.87333173 149 143 181
0.19711679 -0.078908131 -0.87367243 150 144 180
0.19809966 -0.079264857 -0.87414604 152 145 180
0.19921349 -0.080043808 -0.87414724 152 144 178
0.19769686 -0.079379566 -0.87347269 150 144 179
0.19769688 -0.078437127 -0.87507266 153 147 183
0.19861008 -0.07948257 -0.87438303 152 145 179
0.20042473 -0.080310628 -0.87521636 156 146 179
0.19932212 -0.080286741 -0.87394798 153 144 178
0.20032062 -0.080849275 -0.87433666 158 148 181
0.2004793 -0.080750227 -0.87469161 157 147 180
0.200918 -0.081006534 -0.87480807 161 150 182
0.20089468 -0.081796378 -0.87349057 169 160 186
0.19989058 -0.080993727 -0.87357676 159 150 181
0.20083481 -0.081724942 -0.8735342 168 159 186
0.19827044 -0.080999285 -0.87159306 156 150 180
0.20405352 -0.083847232 -0.87352473 183 170 185
0.20206222 -0.083625011 -0.87177563 183 174 190
0.20407555 -0.08372435 -0.87374061 183 171 186
0.20408981 -0.083581224 -0.87396628 184 172 187
0.20218523 -0.083118714 -0.87271363 183 174 192
0.20374706 -0.082878835 -0.87471306 180 169 188
0.20360684 -0.08263202 -0.87497151 178 166 187
0.20178063 -0.082141921 -0.87389123 173 163 188
0.20148489 -0.081061959 -0.87534928 162 151 182
0.20135795 -0.083168626 -0.87178046 184 176 194
0.20135035 -0.081006952 -0.87530053 161 150 182
0.20498876 -0.084165722 -0.87381148 180 166 182
0.20337032 -0.084340192 -0.87162602 177 165 183
0.20290369 -0.084071651 -0.87183887 181 169 185
0.20563073 -0.084354714 -0.8740418 178 164 180
0.20575701 -0.084534205 -0.87371755 175 161 179
0.20644644 -0.08478301 -0.87387097 172 158 175
0.20624828 -0.08462771 -0.87404698 175 160 177
0.20566316 -0.085013591 -0.87234855 167 152 176
0.20672961 -0.084492058 -0.87496662 178 163 177
0.20764908 -0.085237779 -0.87195468 155 139 165
0.20745 -0.085230164 -0.87278754 160 144 168
0.20775484 -0.08524552 -0.87223506 156 140 165
0.2066012 -0.085173286 -0.87156725 158 142 170
0.204142 -0.073379822 -0.88816315 147 139 174
0.20412482 -0.073924735 -0.88753682 150 144 175
0.20447451 -0.074607246 -0.88728791 153 146 174
0.2036992 -0.072491832 -0.88850462 144 136 176
0.20367415 -0.073679127 -0.8871578 151 146 177
0.20459571 -0.073950112 -0.88818812 148 139 173
0.20517626 -0.074405089 -0.88847518 148 138 171
0.20550285 -0.075786822 -0.88715255 154 146 172
0.20540088 -0.075493269 -0.88741058 153 145 172
0.20583907 -0.074029498 -0.88956887 144 132 170
0.20610863 -0.074303225 -0.88972402 146 134 170
0.20610975 -0.07419388 -0.88987279 145 133 170
0.20613453 -0.074042186 -0.89012444 145 132 170
0.2067074 -0.07513845 -0.88976389 150 138 172
0.20600407 -0.074223086 -0.88962883 145 133 170
0.20622703 -0.075094029 -0.88889247 149 139 171
0.2087138 -0.077278204 -0.89056474 164 151 180
0.20892431 -0.07803639 -0.88983923 169 157 182
0.20758596 -0.076339193 -0.88983077 158 145 174
0.2072268 -0.077184223 -0.88787591 162 152 175
0.20776236 -0.076992191 -0.88919985 162 150 176
0.20823917 -0.077186294 -0.88983476 164 151 177
0.20786653 -0.077966027 -0.88795102 168 158 178
0.20640263 -0.076601453 -0.88714683 157 149 173
0.20803258 -0.077785693 -0.88854152 168 156 178
0.20956518 -0.077932484 -0.89077628 164 150 176
0.16668618 -0.075796582 -0.84400922 94 94 145
0.16845194 -0.07765156 -0.84363151 94 93 140
0.16766235 -0.07666111 -0.8439433 94 94 144
0.16867779 -0.077676281 -0.84388459 94 94 141
0.16879292 -0.077775165 -0.84389937 94 94 140
0.16927747 -0.078353584 -0.84374696 93 93 138
0.17596999 -0.083286032 -0.84152383 127 129 164
0.17587607 -0.083555423 -0.84061003 127 129 164
0.17725542 -0.083926566 -0.84217244 130 133 167
0.17695162 -0.083463445 -0.8427186 130 132 167
0.17739847 -0.083343729 -0.84361649 133 133 171
0.17511629 -0.082593106 -0.84170049 125 127 164
0.17692739 -0.082993865 -0.84383571 132 132 170
0.1761068 -0.082667783 -0.84344906 129 130 167
0.17484964 -0.082196049 -0.84274495 124 127 162
0.17401505 -0.081819154 -0.84253353 121 125 159
0.17544624 -0.082599081 -0.84235895 126 128 165
0.17830969 -0.083728537 -0.84401363 133 133 171
0.17738509 -0.084214397 -0.84133321 131 134 167
0.17633936 -0.083989091 -0.84028155 129 132 165
0.17774305 -0.084523894 -0.84075373 132 135 168
0.17955612 -0.084276803 -0.84379148 134 134 172
0.17817847 -0.084514916 -0.84127557 132 135 169
0.18036574 -0.084716931 -0.8430202 135 136 174
0.1783648 -0.084345676 -0.84214735 132 134 169
0.18140593 -0.084656008 -0.84244418 135 133 179
0.18118045 -0.084497966 -0.84069097 132 129 181
0.18112344 -0.084783912 -0.84358966 137 136 176
0.18145657 -0.084784344 -0.84378999 137 136 177
0.18124112 -0.084687337 -0.84266853 135 134 178
0.18206775 -0.084525235 -0.8420704 133 130 181
0.18220371 -0.084503986 -0.84211665 133 130 181
0.18242835 -0.084595978 -0.84349644 134 132 178
0.18336768 -0.084400557 -0.84331739 131 128 179
0.18277086 -0.084495246 -0.84312892 132 130 179
0.17292324 -0.073026426 -0.85258794 129 128 179
0.17309773 -0.073714331 -0.85244161 124 124 172
0.17341018 -0.073055133 -0.85309458 128 128 177
0.1734505 -0.072295472 -0.85350525 133 132 184
0.17612986 -0.075984456 -0.8547408 114 117 157
0.17583255 -0.074055336 -0.85522068 116 118 167
0.17653072 -0.076113485 -0.85514367 115 118 157
0.17458183 -0.07463304 -0.85354728 111 113 159
0.17590486 -0.072998159 -0.85575223 118 119 174
0.17544124 -0.073618263 -0.85495955 115 117 168
0.1760724 -0.075518474 -0.85487312 114 117 159
0.17409606 -0.07554578 -0.85260946 109 111 152
0.1740949 -0.075533256 -0.85261428 109 111 152
0.17498164 -0.072347142 -0.85506046 123 124 179
0.17425653 -0.073106885 -0.85395324 124 124 174
0.17582384 -0.076409876 -0.85407346 114 117 155
0.17756109 -0.077613533 -0.85444713 122 124 164
0.17624311 -0.076847188 -0.8539896 116 119 157
0.17681895 -0.077456824 -0.85378748 119 121 161
0.1768731 -0.077808805 -0.85333747 120 122 162
0.17661363 -0.076728918 -0.85460645 117 120 158
0.17729147 -0.077221863 -0.85469717 121 123 162
0.17614006 -0.077012703 -0.85362405 116 119 157
0.17513268 -0.076551192 -0.85309267 112 115 152
0.18126345 -0.080070317 -0.85516006 132 133 168
0.17960303 -0.079846434 -0.85346925 129 129 169
0.18083316 -0.079946339 -0.85491037 131 132 168
0.17812391 -0.078739144 -0.85347652 125 126 168
0.17778459 -0.079279386 -0.85227811 125 126 170
0.18096291 -0.079690345 -0.85549939 132 133 167
0.18091561 -0.079529576 -0.85567766 131 133 167
0.1807061 -0.079662375 -0.85523146 131 132 168
0.17859372 -0.079299636 -0.8532216 127 127 169
0.17864475 -0.077986538 -0.85520387 125 127 165
0.17967583 -0.079535238 -0.85417837 129 130 168
0.18115208 -0.080975063 -0.85209769 133 134 173
0.18149768 -0.08052896 -0.85401779 133 134 170
0.1810578 -0.08081007 -0.85249549 132 133 172
0.18119618 -0.080208756 -0.85462308 132 133 169
0.18227658 -0.080793552 -0.85403359 134 134 171
0.18462682 -0.080998614 -0.85584998 135 133 171
0.18210864 -0.081004091 -0.85318208 134 135 172
0.18339403 -0.080937579 -0.85474813 134 134 171
0.18475871 -0.081176594 -0.85541838 135 133 172
0.18202262 -0.080171749 -0.85575914 133 133 168
0.18429379 -0.081403382 -0.85434121 135 134 173
0.18402395 -0.082224645 -0.85233659 137 136 172
0.18455483 -0.082536943 -0.85222948 137 136 172
0.18440208 -0.081862479 -0.85348868 136 135 172
0.18330607 -0.081444204 -0.85323375 135 135 173
0.18489859 -0.082722232 -0.8521958 138 136 172
0.18400228 -0.081929065 -0.85293519 136 135 173
0.18634023 -0.083342612 -0.85239184 139 137 173
0.18637688 -0.083417572 -0.85225838 139 137 172
0.18868323 -0.08354073 -0.8544265 141 138 177
0.18732445 -0.083229288 -0.85365373 140 137 175
0.18782538 -0.083606251 -0.85339904 140 137 175
0.18647933 -0.083129138 -0.85298252 139 137 174
0.18578714 -0.082137115 -0.85434598 137 134 173
0.1860406 -0.082366243 -0.85412854 138 135 173
0.18789545 -0.082570538 -0.85563093 139 136 177
0.18712005 -0.082160942 -0.85568404 138 135 176
0.18887584 -0.082969435 -0.8558138 141 138 179
0.19045728 -0.083644524 -0.85425937 141 138 180
0.19120441 -0.083934166 -0.85310185 140 138 180
0.19016743 -0.083397873 -0.8549841 141 138 181
0.1925319 -0.083802901 -0.85235459 141 139 184
0.1901592 -0.083409809 -0.85541165 141 138 181
0.1906964 -0.083806708 -0.85582376 141 136 180
0.19294323 -0.083710261 -0.85257727 141 140 186
0.19138195 -0.083505951 -0.85406798 141 139 183
0.19697122 -0.083012834 -0.85301 159 161 210
0.19613157 -0.083025485 -0.85253352 157 159 206
0.19654465 -0.083118759 -0.85296208 156 158 207
0.19707854 -0.082872987 -0.8528012 161 163 212
0.19718379 -0.083486728 -0.8540616 152 153 206
0.19401661 -0.083570205 -0.85224169 145 145 191
0.1976172 -0.083046868 -0.85367966 158 160 210
0.19749172 -0.083129182 -0.85368758 157 159 210
0.19810328 -0.083199516 -0.85458207 155 155 208
0.19845052 -0.083511248 -0.85567409 151 150 205
0.19920352 -0.082772031 -0.85513294 162 161 211
0.18924601 -0.084073961 -0.8537553 141 138 177
0.18925899 -0.08422257 -0.85321933 142 138 178
0.19219778 -0.084156401 -0.85522282 141 136 182
0.19334869 -0.084547281 -0.8557421 144 136 184
0.19071934 -0.084197544 -0.8525731 141 138 180
0.18997602 -0.08450295 -0.85200089 142 139 180
0.19018467 -0.084047653 -0.85352963 141 138 179
0.19376327 -0.084058478 -0.85337603 140 136 185
0.19439517 -0.084421776 -0.85566199 144 138 189
0.19402482 -0.084055431 -0.85351074 140 137 186
0.1950656 -0.084152207 -0.85462284 142 139 191
0.19456476 -0.084016681 -0.85362566 140 138 189
0.1808484 -0.073151901 -0.86424506 134 134 172
0.18031596 -0.073096976 -0.86378247 131 130 170
0.18104541 -0.072667785 -0.86479747 135 136 174
0.18199317 -0.074105911 -0.86448795 136 137 175
0.18283543 -0.072558418 -0.86616826 136 136 177
0.18231405 -0.072460674 -0.86592597 137 138 177
0.18307139 -0.073186614 -0.86583656 134 134 177
0.18258058 -0.072805755 -0.86582679 136 137 177
0.18477853 -0.072449595 -0.86746842 132 130 178
0.18537758 -0.073369436 -0.86747044 133 130 177
0.18274075 -0.074349262 -0.86484325 135 135 175
0.18333216 -0.075445481 -0.86387789 132 132 172
0.18370153 -0.074263133 -0.8655563 134 133 175
0.18437377 -0.07569968 -0.86410499 130 129 171
0.18465921 -0.075479753 -0.86453092 130 129 172
0.18368962 -0.074736692 -0.86495537 133 132 174
0.18478899 -0.074325301 -0.86604863 132 130 175
0.18530262 -0.07482703 -0.86576492 131 128 174
0.18543814 -0.075606413 -0.86500496 130 127 172
0.18603787 -0.074933149 -0.8664729 131 128 174
0.18675624 -0.075647615 -0.86654925 130 129 172
0.18558845 -0.075210333 -0.86560422 131 128 173
0.18655123 -0.074645869 -0.86743188 131 129 175
0.18659526 -0.076039493 -0.86590642 130 128 171
0.18626259 -0.076353282 -0.86511493 130 128 171
0.18707591 -0.076549813 -0.86587512 131 130 171
0.18705112 -0.076669618 -0.86569816 132 131 172
0.18822438 -0.076568313 -0.86728472 132 132 172
0.18896271 -0.079233944 -0.86433935 137 135 169
0.18853542 -0.077742621 -0.86611927 138 137 173
0.18747312 -0.078065626 -0.86421144 135 133 170
0.18860681 -0.077709645 -0.86626518 138 137 173
0.18834856 -0.078380637 -0.86487055 136 135 171
0.18860406 -0.078893207 -0.86440194 136 135 170
0.18796808 -0.078028791 -0.86492175 136 135 171
0.18863823 -0.077753857 -0.8662371 138 137 173
0.19123688 -0.079982534 -0.86511779 136 133 170
0.19308956 -0.079468317 -0.86727029 137 133 174
0.19011728 -0.078441426 -0.86671531 139 138 174
0.18985401 -0.07944008 -0.86495417 138 136 170
0.18960157 -0.078742526 -0.86586607 139 138 172
0.19233285 -0.079275303 -0.86702091 138 134 174
0.18973051 -0.077737816 -0.86753875 140 140 175
0.19120842 -0.079096302 -0.86648208 138 135 173
0.19024083 -0.079786256 -0.86469239 137 134 169
0.19363318 -0.079865508 -0.86714625 137 131 174
0.19089709 -0.080146283 -0.86459243 137 134 170
0.19289191 -0.08026734 -0.86582834 137 133 174
0.19238423 -0.08073701 -0.8645637 141 137 177
0.19254851 -0.080312528 -0.86549026 138 133 174
0.19158754 -0.080231346 -0.86493826 137 134 172
0.19339517 -0.080249473 -0.8662436 137 132 175
0.19366595 -0.080423787 -0.86619759 139 134 176
0.19491971 -0.080647849 -0.86715853 144 136 178
0.19481014 -0.08062052 -0.86708605 143 136 178
0.19558187 -0.081675932 -0.86599904 152 145 184
0.19639516 -0.08160729 -0.8670398 153 145 183
0.19482152 -0.080575414 -0.86718231 143 136 177
0.19501418 -0.082618289 -0.86389351 155 147 182
0.19635864 -0.082748003 -0.86517566 158 148 181
0.1959755 -0.082127608 -0.86571556 155 147 183
0.19658931 -0.082923315 -0.8651582 159 149 181
0.196677 -0.082921013 -0.86525846 159 149 181
0.19675231 -0.083808213 -0.86396503 163 150 179
0.19715755 -0.083900325 -0.86430472 162 150 178
0.19747519 -0.083787292 -0.86485672 162 151 178
0.19744645 -0.082252569 -0.8671701 157 149 183
0.19833092 -0.082797617 -0.86739254 161 153 182
0.19773735 -0.082884207 -0.86655122 160 151 181
0.19810218 -0.084203593 -0.86491889 166 155 180
0.19942148 -0.084477395 -0.86593115 169 160 183
0.19967987 -0.084114894 -0.86694133 169 161 182
0.19865972 -0.084478609 -0.86464703 165 155 182
0.1999927 -0.084586754 -0.86617893 170 161 184
0.20090035 -0.084686823 -0.86641544 168 161 186
0.19951868 -0.084578395 -0.86471593 163 155 185
0.19814397 -0.084446527 -0.86375654 162 151 182
0.20270455 -0.084538624 -0.86619717 163 154 186
0.2034996 -0.084721968 -0.86684024 162 153 185
0.20500736 -0.084928408 -0.86731321 158 149 183
0.20434862 -0.084659152 -0.86616009 157 147 185
0.2037833 -0.084805697 -0.86716646 162 153 184
0.20344259 -0.084743574 -0.86697781 163 154 185
0.20128198 -0.084768966 -0.86440903 156 151 190
0.20213766 -0.084611207 -0.86545283 161 153 188
0.2016723 -0.084688395 -0.86514771 160 153 188
0.20133542 -0.08472763 -0.865435 162 156 188
0.20390399 -0.08437822 -0.86477959 154 143 188
0.19320326 -0.068661474 -0.88083833 70 71 94
0.19243395 -0.069352165 -0.87960988 86 87 114
0.19324021 -0.068404347 -0.881046 65 66 86
0.1952782 -0.072177708 -0.87943 128 123 179
0.19478494 -0.070499375 -0.88069278 105 101 141
0.19576867 -0.071419246 -0.88071579 121 114 163
0.19423318 -0.070826672 -0.88012028 115 113 154
0.19522005 -0.071207888 -0.88050282 118 114 160
0.196615 -0.071710892 -0.88106716 123 113 167
0.19369732 -0.070019037 -0.88031119 99 99 133
0.19703835 -0.069254763 -0.88258874 137 126 203
0.19503041 -0.068452425 -0.88199329 98 94 141
0.19618611 -0.070069894 -0.88172722 117 109 165
0.19719815 -0.07000912 -0.88227242 138 127 201
0.1971994 -0.07043536 -0.88204849 137 125 196
0.19545482 -0.068515643 -0.88217515 106 101 155
0.19717363 -0.071476854 -0.88148683 133 121 185
0.19756162 -0.071024008 -0.88214797 138 127 194
0.19738199 -0.07058046 -0.88215095 138 127 198
0.19739583 -0.069690816 -0.88263559 141 130 206
0.19835003 -0.071919218 -0.88268661 138 130 187
0.19715361 -0.074298806 -0.87947482 141 132 179
0.19648013 -0.073010266 -0.87982732 134 125 179
0.19721414 -0.072559692 -0.88084763 134 122 180
0.19789432 -0.072916426 -0.88142926 138 129 182
0.19784907 -0.072939821 -0.88135362 138 128 181
0.1979195 -0.072305694 -0.88192385 135 126 182
0.19944051 -0.073240086 -0.88298982 141 133 182
0.19866809 -0.072648674 -0.88261724 140 133 184
0.19930266 -0.073436081 -0.88266575 142 133 181
0.19838649 -0.074518897 -0.88070005 143 134 179
0.20014644 -0.07454183 -0.88268012 144 134 179
0.19952677 -0.073420018 -0.88293415 142 133 181
0.19823578 -0.075270519 -0.87979645 144 137 178
0.19864853 -0.075016715 -0.88054717 144 135 178
0.19881217 -0.075730652 -0.87998354 146 139 177
0.20107779 -0.075554259 -0.88277167 145 135 176
0.20051304 -0.077549636 -0.87967211 160 154 183
0.20049469 -0.077344827 -0.87990481 157 152 182
0.20113711 -0.078240544 -0.87950492 166 161 187
0.20057656 -0.07758297 -0.87970078 160 154 184
0.20125854 -0.078016311 -0.8799141 164 158 186
0.20139074 -0.076500341 -0.88192934 148 139 176
0.20256123 -0.077471212 -0.88209206 160 152 183
0.20196955 -0.077112578 -0.88182127 155 147 181
0.20332175 -0.077454902 -0.88300925 161 153 184
0.2020501 -0.078014933 -0.88084042 165 159 186
0.20262581 -0.0769912 -0.88274068 155 146 181
0.2028041 -0.079393908 -0.8793689 165 156 180
0.20282406 -0.07878039 -0.88074946 173 167 189
0.20391223 -0.079338767 -0.88096875 172 163 185
0.20303099 -0.078867055 -0.88083428 173 166 189
0.20217082 -0.078969188 -0.87946153 167 160 184
0.20480932 -0.079584733 -0.88165683 174 164 184
0.20908077 -0.070730157 -0.89458144 141 136 182
0.2093204 -0.069121487 -0.89401829 144 150 204
0.20855609 -0.073289767 -0.89403844 146 131 167
0.20824197 -0.075649627 -0.89164978 156 141 173
0.20636909 -0.072925642 -0.89168906 140 126 168
0.20830299 -0.073717274 -0.89339292 147 133 168
0.20692371 -0.074069433 -0.89139742 146 132 170
0.20695141 -0.074304484 -0.89123142 147 133 171
0.20826544 -0.073197626 -0.89378905 145 130 166
0.20827897 -0.073255204 -0.89375669 145 131 166
0.20649411 -0.072512612 -0.89219433 139 124 167
0.21001799 -0.075752907 -0.89370793 164 150 177
0.20994918 -0.074782297 -0.89446336 161 146 174
0.20950507 -0.074152552 -0.89441395 156 141 171
0.20911294 -0.07516849 -0.89299631 157 142 174
0.20936058 -0.074547663 -0.89387339 156 142 172
0.20848756 -0.07631854 -0.89132047 159 145 176
0.20950156 -0.077358305 -0.8915779 165 151 180
0.21044166 -0.07658641 -0.89356422 169 156 180
0 0 0 1 0 0 0 1 0 0 0 1 0 0 0 0 0 918 1 0 0
