ply
format ascii 1.0
comment PCL generated
element vertex 795
property float x
property float y
property float z
property uchar red
property uchar green
property uchar blue
element camera 1
property float view_px
property float view_py
property float view_pz
property float x_axisx
property float x_axisy
property float x_axisz
property float y_axisx
property float y_axisy
property float y_axisz
property float z_axisx
property float z_axisy
property float z_axisz
property float focal
property float scalex
property float scaley
property float centerx
property float centery
property int viewportx
property int viewporty
property float k1
property float k2
end_header
0.097958207 0.36644781 -0.81964159 87 80 96
0.097810008 0.36784667 -0.81956673 81 72 83
0.098218061 0.36710033 -0.81997657 89 83 97
0.098548837 0.36535725 -0.82023418 100 96 116
0.098654695 0.36645871 -0.82042545 98 94 111
0.098490745 0.36562508 -0.82018644 98 94 113
0.098340459 0.36909848 -0.82026649 86 78 89
0.098724186 0.36365825 -0.82035047 109 104 126
0.096953928 0.36209524 -0.81828672 81 70 84
0.098249599 0.3628014 -0.81977701 104 97 117
0.097932123 0.36379942 -0.81946582 93 86 103
0.098115042 0.36296651 -0.81963325 100 93 112
0.099030487 0.36184883 -0.82061172 125 117 142
0.097313523 0.36268786 -0.81871861 85 76 92
0.098430425 0.36497867 -0.820081 98 94 114
0.097159639 0.36516252 -0.81866062 79 70 86
0.097955771 0.36517668 -0.81955653 91 85 103
0.096396647 0.36478078 -0.81778491 67 56 69
0.096739389 0.36118096 -0.81799072 81 68 82
0.097459637 0.3592605 -0.81858224 90 78 93
0.096679591 0.35975254 -0.8177591 76 62 74
0.096765414 0.36024755 -0.8179121 79 66 79
0.096647196 0.35896519 -0.81763309 73 59 70
0.096782953 0.35895938 -0.81778538 76 62 74
0.096940152 0.35859826 -0.81792152 78 65 76
0.098010704 0.35862336 -0.81925958 90 78 93
0.098436892 0.35836878 -0.81979126 92 80 96
0.098934412 0.35826319 -0.82041436 96 84 102
0.097889952 0.35904801 -0.81911349 93 81 97
0.098220557 0.35815385 -0.81951702 87 75 90
0.098567881 0.35838774 -0.81995595 93 81 98
0.098283656 0.35911924 -0.81960857 98 87 104
0.097637363 0.35528776 -0.81874847 76 64 78
0.098038957 0.35454383 -0.81914258 77 68 83
0.098663561 0.35522082 -0.81992036 82 74 90
0.099026754 0.35530692 -0.82034498 84 77 94
0.098966815 0.35368603 -0.82013041 81 77 95
0.0969318 0.35357651 -0.81778479 68 58 71
0.097694471 0.35408646 -0.81870604 74 65 80
0.098700367 0.35692564 -0.82010746 85 73 88
0.098122172 0.3571288 -0.81938267 79 66 79
0.097725697 0.35719278 -0.81888539 75 61 73
0.098329544 0.35674682 -0.81964111 82 69 83
0.098501042 0.35685486 -0.81985688 83 71 86
0.099191464 0.34968963 -0.81978154 67 59 72
0.099142358 0.34987119 -0.81975597 67 60 73
0.099310182 0.35098794 -0.82011759 72 67 82
0.097167127 0.35245609 -0.81791711 68 58 71
0.098466471 0.3528246 -0.81945449 76 71 87
0.097579189 0.3529155 -0.81844741 71 63 77
0.098078221 0.35242945 -0.81895953 73 67 81
0.099640705 0.35017505 -0.82037193 70 64 78
0.099249668 0.34946981 -0.81982052 66 59 72
0.099404424 0.34829804 -0.81988561 66 57 71
0.10002971 0.34630486 -0.82054758 67 61 75
0.099770695 0.34810585 -0.82035524 65 58 71
0.10727849 0.38523257 -0.83647174 90 85 105
0.10899209 0.38567442 -0.84008306 115 112 133
0.10780665 0.38576922 -0.83778441 96 92 113
0.10897473 0.38597375 -0.8401193 115 111 133
0.10783676 0.38511658 -0.83769029 97 93 113
0.10915653 0.38491839 -0.84022766 118 115 134
0.10764901 0.38559583 -0.8374266 94 90 110
0.10741821 0.38344559 -0.83669019 90 86 106
0.10802209 0.3820318 -0.83781266 99 96 116
0.10858854 0.38280535 -0.83909249 109 106 126
0.10850571 0.38240123 -0.83895326 107 104 125
0.10837173 0.38123319 -0.83881277 105 102 124
0.10915507 0.38445759 -0.84022784 118 115 134
0.10840142 0.38305804 -0.83859068 106 103 122
0.10750002 0.38374868 -0.83687562 91 88 107
0.10839389 0.38326836 -0.8385911 106 103 122
0.10788101 0.38412896 -0.83764881 98 94 113
0.10881253 0.38425612 -0.83948177 113 109 129
0.10755984 0.37993452 -0.83678967 100 96 117
0.10798858 0.38052687 -0.83789819 102 99 120
0.10774618 0.37951615 -0.83722192 106 102 124
0.10784627 0.37849548 -0.83740234 117 112 134
0.10819271 0.37926474 -0.83831722 116 112 134
0.10865659 0.37913194 -0.83981198 119 116 140
0.10846359 0.37795013 -0.83947772 123 118 143
0.10833769 0.37923864 -0.83870178 118 114 137
0.10819917 0.37882212 -0.83834499 119 115 137
0.10709524 0.37330654 -0.83684886 87 78 102
0.10735 0.37603366 -0.8363983 114 108 129
0.10742606 0.37576959 -0.83684242 114 108 130
0.1077541 0.37400797 -0.83925843 113 106 130
0.10749622 0.3764801 -0.83676797 122 116 138
0.10755224 0.3768031 -0.83675545 123 118 140
0.10769672 0.37509608 -0.8383581 117 111 134
0.10788978 0.37494648 -0.83911026 117 111 135
0.10794454 0.37484765 -0.83936036 117 111 135
0.10788846 0.37491247 -0.83912796 117 111 135
0.10801969 0.37446293 -0.83986598 115 109 134
0.10707893 0.37252259 -0.83699465 84 74 99
0.10732589 0.3721754 -0.83802217 91 81 107
0.10735897 0.37182769 -0.83820087 92 82 108
0.10684761 0.36983708 -0.83707553 95 85 107
0.1070341 0.36937386 -0.83771223 95 85 108
0.10712185 0.37042001 -0.83763194 90 79 104
0.10758876 0.36990634 -0.83942366 95 83 112
0.10774396 0.37072614 -0.83997911 98 87 116
0.10744887 0.3728528 -0.83843213 95 86 111
0.10746145 0.37054953 -0.83880234 95 84 111
0.10762331 0.37105128 -0.83946085 100 91 117
0.10717552 0.36693901 -0.83777958 110 103 126
0.10729198 0.36710995 -0.8381198 108 99 124
0.10667391 0.36880502 -0.83676338 101 94 112
0.10732192 0.36876363 -0.83848494 96 85 112
0.10677824 0.36613011 -0.83673054 103 97 118
0.10656508 0.36812899 -0.83641434 101 94 112
0.10765962 0.36722916 -0.83944124 106 95 125
0.10773367 0.36667389 -0.83963823 116 106 135
0.10753018 0.36618832 -0.8387422 113 105 132
0.10758733 0.36786416 -0.83926225 100 88 118
0.10753187 0.36683679 -0.83886176 107 98 126
0.10701378 0.36505741 -0.83714861 108 102 125
0.10724936 0.36332598 -0.8372221 112 103 129
0.10725464 0.3617464 -0.83680499 110 98 125
0.10773857 0.36283261 -0.83889472 131 122 150
0.10778815 0.36194938 -0.83906633 134 125 155
0.10782318 0.36288851 -0.83934551 135 127 156
0.10782493 0.36367595 -0.83943427 135 127 155
0.1076083 0.36281392 -0.83822453 124 114 141
0.10743949 0.36421037 -0.8379333 119 111 137
0.10753387 0.36437902 -0.83835518 123 116 141
0.10719941 0.36029679 -0.83648056 104 94 120
0.10726152 0.35840276 -0.83637482 106 97 124
0.10783757 0.35929328 -0.83919829 125 116 146
0.10755322 0.35825002 -0.8375169 116 108 136
0.10780614 0.35804158 -0.83905822 111 101 129
0.10797093 0.35786662 -0.84006405 107 96 123
0.10792688 0.36119309 -0.83972234 142 134 165
0.10745801 0.3590762 -0.83708084 112 103 131
0.10745997 0.35994422 -0.83716273 114 104 132
0.10744154 0.35917389 -0.83700222 112 102 130
0.1076903 0.35974059 -0.83835787 126 118 147
0.10734396 0.35621998 -0.83648473 101 94 121
0.1073814 0.35413539 -0.83663929 90 84 110
0.10793016 0.35558197 -0.83940428 95 87 113
0.10747303 0.35383132 -0.83705622 89 82 108
0.10811299 0.35515615 -0.83999485 94 88 112
0.10774566 0.35435402 -0.83829522 91 85 110
0.10809357 0.35564283 -0.84006876 96 88 113
0.10749022 0.35486376 -0.83716977 94 87 113
0.10776052 0.35721004 -0.83880687 103 93 120
0.10770421 0.35643944 -0.83846599 100 90 117
0.10761932 0.35544103 -0.83795196 95 87 113
0.1077816 0.35738388 -0.83893448 104 93 120
0.10790386 0.35312414 -0.83852232 91 87 111
0.10792619 0.35148668 -0.8380816 101 96 121
0.10807371 0.35261098 -0.83903152 95 91 114
0.10755693 0.35229862 -0.8368659 95 89 115
0.10755794 0.35209584 -0.83680499 96 90 116
0.10781384 0.35013029 -0.83734226 107 98 125
0.10777573 0.35003379 -0.83712316 108 99 126
0.10780389 0.34973171 -0.83727056 107 97 125
0.10796846 0.35033309 -0.83822429 101 92 118
0.10779476 0.35032761 -0.83724219 107 99 126
0.10840047 0.3470276 -0.84009647 123 111 138
0.10821304 0.3489612 -0.83969176 92 79 105
0.10827464 0.34791967 -0.83976048 107 95 122
0.10774799 0.34639245 -0.83752167 102 90 121
0.10805401 0.34824958 -0.83897609 93 81 108
0.10817068 0.34826192 -0.83942044 98 86 113
0.10771873 0.34754157 -0.83731097 99 88 117
0.10759755 0.34754598 -0.83662486 103 92 122
0.10807129 0.34934631 -0.83884412 97 85 111
0.10759005 0.34693384 -0.83673835 100 89 119
0.1078071 0.34924632 -0.83737624 105 95 122
0.10759728 0.34403691 -0.83713531 121 111 141
0.10781146 0.34184167 -0.8383379 152 143 170
0.10753808 0.34409839 -0.83689594 120 110 140
0.10806277 0.34264693 -0.83917189 139 131 159
0.10768148 0.34191641 -0.83782262 151 142 169
0.1080737 0.3452369 -0.83873463 126 115 145
0.10821909 0.34228611 -0.839836 145 137 165
0.1081083 0.34402934 -0.83909088 133 123 152
0.10844082 0.34542796 -0.84009117 141 130 159
0.10767692 0.34480605 -0.83731025 111 101 131
0.10731042 0.34099203 -0.83680123 138 127 154
0.10717936 0.34138605 -0.83633989 143 132 159
0.10717112 0.34020695 -0.83667505 124 112 139
0.10787184 0.3391768 -0.8393656 112 99 126
0.1079566 0.3395465 -0.8395797 117 106 133
0.1078191 0.33892667 -0.83923805 108 95 122
0.10789723 0.34171364 -0.83870256 151 142 169
0.10770456 0.33996817 -0.83849317 123 111 138
0.1076139 0.34088036 -0.83786291 138 128 154
0.10750875 0.33948779 -0.83788359 115 102 129
0.10764741 0.34007645 -0.83823907 125 113 140
0.10653532 0.3691799 -0.84581178 86 71 99
0.10707733 0.37053004 -0.8455705 103 89 116
0.10642408 0.36915624 -0.84593618 86 71 99
0.10626088 0.36984387 -0.84633207 96 83 110
0.10759071 0.3700974 -0.8447119 95 79 107
0.10660741 0.36880147 -0.84549862 83 67 95
0.10653968 0.36903659 -0.84572852 85 69 98
0.10639885 0.36823884 -0.84517527 81 66 94
0.10618077 0.36791384 -0.84510303 81 66 93
0.10776924 0.36832824 -0.84425843 95 78 106
0.10606859 0.35810259 -0.84565693 99 95 119
0.1066229 0.35775259 -0.84517556 105 102 126
0.10691548 0.3578414 -0.84481984 108 106 129
0.10715804 0.35991478 -0.84464997 123 114 141
0.10580233 0.35960209 -0.84561175 98 93 115
0.10693309 0.36010435 -0.84481394 120 111 138
0.1071304 0.35862705 -0.84464663 115 111 135
0.10591076 0.35716566 -0.84602082 99 94 120
0.10490885 0.35496381 -0.84612954 90 82 110
0.1061087 0.35530946 -0.84530687 93 86 111
0.10599793 0.35548791 -0.84537256 95 89 114
0.10645416 0.35611281 -0.84506625 101 96 121
0.1057023 0.35463536 -0.84558278 87 78 103
0.10749131 0.35644254 -0.84439158 105 102 124
0.1077593 0.35557315 -0.8442198 100 95 116
0.10833238 0.34589791 -0.84438097 156 148 176
0.10824806 0.34680769 -0.84435058 138 129 155
0.10577394 0.34299925 -0.84649044 107 99 123
0.10403462 0.34477633 -0.8471505 77 71 90
0.10655517 0.34197712 -0.8463465 121 112 137
0.10480653 0.34439966 -0.84657693 90 83 105
0.10572065 0.3447997 -0.84602255 116 108 132
0.10523325 0.34536135 -0.84620416 108 101 123
0.10625567 0.34318277 -0.84596562 118 108 134
0.10476504 0.34446967 -0.84658235 90 83 104
0.10703521 0.34355351 -0.84549451 140 130 157
0.10543035 0.34458524 -0.84620887 107 100 123
0.10745873 0.34202155 -0.84546179 138 127 156
0.10787993 0.34295177 -0.8448332 144 134 163
0.1081225 0.34406298 -0.84449857 151 141 171
0.10822749 0.34328136 -0.84441495 146 135 166
0.10636549 0.34150118 -0.84661412 117 108 133
0.10598097 0.34086719 -0.84690112 110 100 123
0.10613714 0.34093121 -0.84674591 113 103 127
0.10729379 0.34081802 -0.84555978 134 125 153
0.1066409 0.34028953 -0.84612632 122 112 137
0.1070063 0.33833155 -0.84558129 130 124 149
0.10724479 0.34060639 -0.84558487 134 124 152
0.10585679 0.33873498 -0.84671378 107 98 120
0.10786214 0.33913547 -0.84468585 138 131 158
0.10797987 0.34112391 -0.8447929 136 126 156
0.10830058 0.34019172 -0.84429479 136 127 157
0.10654218 0.33739313 -0.84605366 122 115 139
0.10812023 0.33789089 -0.84421873 138 133 159
0.10541812 0.38906759 -0.83171701 79 70 92
0.10577082 0.38572314 -0.83241493 85 78 99
0.10562237 0.38823026 -0.83206755 78 68 92
0.10532702 0.38648242 -0.83135575 78 69 91
0.10520379 0.38591772 -0.83105922 78 70 90
0.10514271 0.38086292 -0.83096415 78 75 89
0.10466219 0.38125759 -0.82983816 74 70 85
0.10537124 0.38292819 -0.83148754 82 77 94
0.10565744 0.38247648 -0.8321594 84 79 96
0.10554723 0.38129142 -0.83190799 81 78 93
0.1046995 0.38222575 -0.82992017 76 70 86
0.10542468 0.38456219 -0.83158982 84 76 95
0.1048891 0.38397387 -0.83032531 78 70 88
0.10552527 0.38452297 -0.83183151 85 78 97
0.1058831 0.37735173 -0.83224124 105 101 121
0.10592976 0.3776572 -0.83237553 104 100 119
0.10472526 0.37833601 -0.82994717 82 76 90
0.10544653 0.37771672 -0.83137548 96 92 109
0.10464641 0.37705916 -0.82962817 88 82 97
0.1045947 0.37738398 -0.82955974 85 79 94
0.10432918 0.37762284 -0.8290168 80 74 88
0.10481153 0.37946233 -0.83017033 79 74 88
0.10504571 0.37986273 -0.83072358 80 76 90
0.10489846 0.37920213 -0.83037007 80 76 90
0.10512459 0.37966251 -0.83090532 81 77 91
0.1043807 0.38012591 -0.82917178 74 69 83
0.10574564 0.3745397 -0.83222848 96 90 111
0.10497921 0.37470448 -0.83020329 95 89 109
0.1055662 0.37568042 -0.83154875 102 96 117
0.10460146 0.37312585 -0.82951474 85 79 99
0.10579029 0.37496904 -0.8322646 99 92 114
0.1055047 0.37499306 -0.83151692 98 92 113
0.10512965 0.37535423 -0.83054316 97 91 111
0.10458413 0.37660876 -0.82946843 88 81 98
0.10472721 0.37633637 -0.8297531 90 84 101
0.10450614 0.37408555 -0.8291806 88 82 101
0.10464874 0.375496 -0.82954788 89 83 101
0.10439621 0.3747282 -0.82898337 86 79 98
0.10464586 0.36969045 -0.83024383 92 86 106
0.10495135 0.3698535 -0.83098072 92 86 104
0.10491094 0.36927623 -0.83096218 92 86 104
0.10511956 0.37093443 -0.83124566 91 84 104
0.10549283 0.37114051 -0.83214504 90 83 102
0.10478044 0.37259692 -0.83008277 87 80 101
0.10415755 0.37101543 -0.82876956 90 83 104
0.10445855 0.37206277 -0.82934904 87 81 102
0.1051465 0.37274963 -0.83100569 88 80 102
0.10423809 0.37216476 -0.8287555 86 80 101
0.10429436 0.37128353 -0.82907337 89 83 104
0.10348949 0.36529309 -0.82852727 137 127 167
0.10423861 0.36775652 -0.82955396 99 92 116
0.10401434 0.36642504 -0.8293919 115 107 138
0.10492984 0.3660104 -0.83149564 98 90 115
0.10455059 0.36541075 -0.83081436 111 103 134
0.10425934 0.36705825 -0.8297714 104 97 123
0.10379709 0.36789319 -0.82855493 108 101 128
0.10548235 0.36907631 -0.83241218 91 86 101
0.10489219 0.36772525 -0.83113664 94 88 108
0.10509217 0.3658317 -0.83190429 96 88 113
0.10497718 0.36869189 -0.83121026 92 87 105
0.10478896 0.36856106 -0.8307606 93 87 106
0.10506443 0.36622617 -0.831779 96 88 112
0.10386028 0.36483032 -0.82929152 128 119 155
0.10394915 0.36376563 -0.82932264 123 117 148
0.10431724 0.36305711 -0.83001727 112 109 134
0.10438789 0.36297876 -0.83015943 110 107 132
0.104154 0.36475489 -0.8299216 121 113 146
0.10478403 0.36444271 -0.8312487 105 99 125
0.10531199 0.36175716 -0.83225447 125 120 141
0.10409252 0.36208349 -0.82938659 116 114 139
0.10470589 0.36335996 -0.8309437 109 104 128
0.10478012 0.36154845 -0.83097565 124 120 143
0.10504071 0.36448625 -0.83182788 101 95 119
0.10524328 0.36316279 -0.83220327 113 107 130
0.10477305 0.35860854 -0.83098322 101 91 120
0.10362612 0.35756704 -0.82889867 87 81 107
0.103597 0.35765058 -0.82882732 88 82 108
0.10425161 0.35847738 -0.82997829 97 90 117
0.10405202 0.35866809 -0.82955337 98 92 119
0.10485248 0.35809237 -0.83122587 96 86 115
0.10536121 0.35764995 -0.83232367 94 81 112
0.10476777 0.35936952 -0.83092171 107 100 127
0.10517578 0.35950282 -0.8318904 111 102 128
0.10431767 0.36015475 -0.82985646 112 108 134
0.10535101 0.35854471 -0.83230275 103 91 120
0.10525134 0.3579295 -0.83206397 96 84 114
0.10479998 0.35732397 -0.83120912 90 79 108
0.10453101 0.35624239 -0.83035767 89 79 106
0.10460082 0.35662514 -0.83061194 89 79 107
0.10412885 0.35591674 -0.82947302 87 80 105
0.10375686 0.35672638 -0.82899749 86 79 104
0.10493644 0.35717273 -0.83143532 91 79 108
0.10527189 0.35560969 -0.83172899 93 83 110
0.1056124 0.3536993 -0.83204603 95 90 115
0.10499658 0.3554734 -0.83109605 91 82 109
0.10558982 0.3540239 -0.83206934 95 89 114
0.1054101 0.35394356 -0.83165807 94 88 113
0.10543091 0.35418266 -0.83175719 94 88 113
0.10547826 0.35285473 -0.83179903 95 89 114
0.10496066 0.35123599 -0.8307426 96 90 115
0.10456153 0.35068324 -0.83000612 92 85 110
0.10550021 0.35029691 -0.83154857 113 109 134
0.1051685 0.35047433 -0.83100808 105 100 125
0.1056191 0.35184741 -0.83192372 105 100 125
0.10444364 0.3535046 -0.82944918 90 85 107
0.10459931 0.35161647 -0.8300721 90 82 107
0.10431449 0.35131982 -0.82949322 88 80 105
0.10407883 0.35232452 -0.82882726 87 81 103
0.10405725 0.3522301 -0.82879424 87 81 103
0.10486502 0.35256898 -0.83051115 91 85 109
0.10542965 0.34732816 -0.83116305 111 106 135
0.10592394 0.34775355 -0.83225012 113 108 138
0.10547956 0.34662205 -0.83133054 105 98 130
0.10550771 0.3465423 -0.83140051 104 97 129
0.10598718 0.34843463 -0.83234084 119 114 143
0.10525334 0.3490406 -0.83094227 114 110 135
0.10500189 0.34839004 -0.83038944 111 106 132
0.10403227 0.34741294 -0.82855904 94 87 114
0.10547443 0.34865499 -0.83123988 119 116 142
0.10560361 0.34912521 -0.83155066 121 118 143
0.10406289 0.34954625 -0.82903063 91 82 107
0.10489096 0.34812814 -0.83015043 109 105 131
0.10565299 0.34427434 -0.8320995 91 83 115
0.10519716 0.3424567 -0.83137727 86 81 105
0.10556767 0.34287831 -0.83234346 88 81 107
0.10585522 0.34534714 -0.83232427 94 85 121
0.10436074 0.34338722 -0.82891494 91 87 111
0.10426499 0.34376469 -0.82869011 92 89 113
0.1043456 0.34560376 -0.82883435 100 95 124
0.10483789 0.34346381 -0.82999438 89 84 111
0.10474616 0.34356996 -0.82978433 90 85 111
0.10502637 0.34457931 -0.83039814 93 87 117
0.10121024 0.37491503 -0.82394367 95 89 109
0.10151338 0.37331235 -0.82428241 98 91 113
0.10130528 0.37418261 -0.82404006 96 89 110
0.10097899 0.37384924 -0.82358772 90 83 103
0.10130957 0.37536198 -0.82409614 97 92 112
0.10032935 0.37458712 -0.82274747 78 72 90
0.099407218 0.37018782 -0.82143611 84 76 90
0.099276401 0.3694306 -0.82127476 89 82 94
0.09910509 0.36977094 -0.82110476 87 80 92
0.10102766 0.36934012 -0.8235153 105 96 112
0.10157435 0.37054357 -0.82428032 108 98 117
0.10022866 0.36998481 -0.82246864 95 87 103
0.10119036 0.37118408 -0.82378709 102 93 113
0.10129567 0.3714703 -0.8239361 102 94 113
0.099941567 0.37043789 -0.82209575 88 80 96
0.10014951 0.37095276 -0.82238781 88 81 97
0.10116439 0.37211064 -0.82377928 98 90 111
0.10028813 0.37071851 -0.82256806 92 85 101
0.098989092 0.36830071 -0.82091969 94 88 102
0.099051148 0.36824897 -0.82098281 94 88 102
0.098868623 0.36820626 -0.82078135 95 89 103
0.10172413 0.36860049 -0.82444412 112 102 120
0.10071289 0.36713666 -0.82299256 109 103 123
0.10108072 0.3662428 -0.82359558 104 95 114
0.10011404 0.36537975 -0.82217973 103 99 120
0.10113171 0.36722666 -0.82362092 108 100 119
0.10151424 0.36858287 -0.82413083 113 103 122
0.099684082 0.36704805 -0.82161373 99 94 112
0.10148436 0.36859569 -0.82409161 113 103 121
0.10117504 0.36867929 -0.82368314 109 100 117
0.10078031 0.3675063 -0.82309866 109 102 121
0.099203475 0.36422369 -0.82092083 113 109 132
0.099268265 0.36278725 -0.82092959 121 116 141
0.1009894 0.3635588 -0.82348371 107 96 118
0.10103635 0.36222172 -0.82369304 102 93 117
0.10006522 0.36160988 -0.82203531 121 113 140
0.099858351 0.36157382 -0.82167327 126 117 145
0.10093243 0.36230236 -0.82350183 105 95 119
0.099964462 0.36491954 -0.82194781 105 101 123
0.09992861 0.36197779 -0.82176709 125 116 143
0.10131548 0.36512974 -0.82399911 99 88 107
0.10059163 0.3643257 -0.82287025 107 98 120
0.10034534 0.36480081 -0.82251841 105 98 119
0.099549294 0.35974318 -0.82115704 113 103 127
0.099245697 0.35801601 -0.82078975 95 84 102
0.099951029 0.35743216 -0.82174879 83 71 87
0.10133056 0.35987052 -0.82420903 82 72 93
0.1015159 0.36096302 -0.82459652 87 78 102
0.10129707 0.35986325 -0.82415318 82 72 93
0.10151903 0.36002493 -0.82453185 80 71 92
0.099688321 0.36052904 -0.82138121 120 111 137
0.10048941 0.36075824 -0.82280064 105 96 121
0.10003806 0.36013132 -0.82199162 108 99 123
0.10099445 0.36066413 -0.82369113 93 84 108
0.10046332 0.36129904 -0.82276469 112 103 130
0.099592 0.35360041 -0.8208254 85 83 102
0.10096456 0.35398197 -0.82306451 85 82 101
0.10049346 0.35499704 -0.82242399 75 71 87
0.10126988 0.35586983 -0.82376933 71 64 79
0.101417 0.35390431 -0.82378173 87 84 104
0.10124413 0.35542664 -0.8236776 74 68 85
0.10163544 0.3537052 -0.82410961 90 86 107
0.099690653 0.35424888 -0.82103598 84 81 99
0.10018971 0.35495555 -0.82192314 78 73 90
0.10048408 0.35582864 -0.822487 74 68 83
0.10035647 0.3549968 -0.82220227 76 71 88
0.099912241 0.35700846 -0.82164723 83 73 89
0.10180394 0.3534568 -0.8243503 92 88 110
0.10085422 0.35339049 -0.82281697 88 85 106
0.10080174 0.35295808 -0.82267094 86 83 102
0.10077461 0.35195702 -0.82246882 81 76 94
0.10147229 0.35287648 -0.82372874 88 83 104
0.10043396 0.35082862 -0.82174593 74 68 84
0.10047586 0.35090154 -0.82182443 75 69 85
0.10118352 0.34974086 -0.82298779 70 62 77
0.10106785 0.3505502 -0.82283425 74 67 83
0.10146995 0.35204235 -0.8236441 83 78 97
0.10073059 0.35005531 -0.8222034 71 64 78
0.10134276 0.35074523 -0.82333499 76 69 85
0.10041569 0.35037759 -0.82166475 72 65 80
0.1008715 0.34669757 -0.82208771 75 68 84
0.10068995 0.34648168 -0.8217265 72 66 81
0.10044106 0.34622136 -0.82123321 69 63 78
0.10021567 0.346403 -0.82085484 68 62 77
0.10089829 0.34952945 -0.82246262 68 61 75
0.10004932 0.34766033 -0.82071835 68 61 75
0.10010377 0.34950191 -0.82104784 67 60 73
0.10015012 0.34757414 -0.82088649 68 61 75
0.10075671 0.34790391 -0.82200569 69 62 76
0.10032781 0.34367609 -0.8213141 76 70 84
0.10644193 0.38934699 -0.83462977 85 78 102
0.10685303 0.38874879 -0.83584911 87 80 106
0.10657765 0.38976413 -0.83511227 87 80 104
0.10649727 0.3893382 -0.83480328 86 78 102
0.10586207 0.38942376 -0.83285689 82 73 96
0.10704366 0.38541052 -0.83587211 89 84 105
0.10707542 0.38611344 -0.83607429 89 84 105
0.106815 0.38595152 -0.83536106 88 83 104
0.10640354 0.38669038 -0.83440191 88 81 104
0.1071109 0.38575244 -0.8361069 89 84 105
0.10672383 0.38565826 -0.8350715 88 83 104
0.10599574 0.38648817 -0.83312541 85 78 100
0.10586245 0.38534209 -0.83270025 87 80 100
0.10609629 0.38707742 -0.83344501 85 77 100
0.10631645 0.38659945 -0.83413774 87 81 103
0.10606422 0.38711354 -0.83334398 84 76 100
0.10703268 0.38097569 -0.83555806 87 85 103
0.10701913 0.3831155 -0.83564502 88 85 103
0.10684414 0.38149786 -0.83512163 87 84 102
0.10723432 0.38410723 -0.83623248 89 85 104
0.10732439 0.38091192 -0.83627516 88 85 105
0.10585743 0.38135332 -0.83265978 83 81 96
0.10597 0.38140205 -0.83295602 83 81 96
0.10583113 0.38335347 -0.83257848 86 81 98
0.10637274 0.38262075 -0.83400941 86 83 99
0.1064707 0.38363239 -0.8342613 87 83 101
0.10624652 0.38279742 -0.83367586 86 82 99
0.10703875 0.37819225 -0.83529633 109 105 125
0.10722543 0.38044575 -0.83597231 91 88 108
0.1073838 0.37826034 -0.83621734 112 107 128
0.10633644 0.37727728 -0.83335936 110 105 126
0.10737498 0.37706575 -0.83609825 122 117 138
0.10617086 0.378227 -0.83304435 102 97 117
0.10655762 0.37934917 -0.83416098 96 92 111
0.10595544 0.38029572 -0.83280921 87 84 100
0.10586722 0.37972218 -0.83250886 90 88 104
0.10614442 0.37973493 -0.83319557 91 88 106
0.10676115 0.38027853 -0.83479732 90 87 106
0.10742474 0.37719658 -0.83624393 121 116 137
0.10689497 0.37685466 -0.83485943 117 112 133
0.10613754 0.37690386 -0.83282548 110 105 126
0.10699621 0.37503892 -0.8357895 100 93 115
0.10670538 0.37503219 -0.83501571 98 90 113
0.10670017 0.37469566 -0.83512306 94 86 109
0.10722847 0.37568927 -0.83617502 109 103 124
0.105993 0.37484372 -0.83290768 97 90 112
0.1064067 0.37379208 -0.83447874 88 80 103
0.1058348 0.37316978 -0.83278495 88 80 102
0.10596564 0.37314263 -0.83321154 87 79 101
0.10637692 0.37370464 -0.83440322 88 79 102
0.10642954 0.370296 -0.83558685 93 85 103
0.10665049 0.37070119 -0.8362723 92 84 103
0.10632963 0.37024763 -0.83521748 92 85 103
0.10588358 0.36922136 -0.83392549 94 88 104
0.10612096 0.37082052 -0.8341493 86 79 98
0.10650261 0.37207136 -0.83513731 83 75 96
0.10559042 0.3705273 -0.83249032 90 84 101
0.10574522 0.37275991 -0.83257812 88 80 102
0.10577149 0.37162167 -0.83287132 88 81 101
0.10670292 0.3729797 -0.8356142 82 72 96
0.10587514 0.36645809 -0.83428866 98 91 112
0.10647982 0.36628976 -0.83599049 98 92 112
0.10561708 0.36540008 -0.83343893 97 89 113
0.10540822 0.36555663 -0.83286184 97 89 113
0.1062159 0.36573097 -0.83517867 98 91 113
0.10538473 0.36619988 -0.83266973 96 88 111
0.10560747 0.36779028 -0.83318412 95 88 107
0.10562592 0.36655715 -0.83353263 97 90 112
0.10581005 0.36899829 -0.83370543 94 88 104
0.10595251 0.36889422 -0.83428568 96 90 106
0.10639255 0.36337957 -0.83526266 107 100 123
0.1063574 0.36236882 -0.83490998 111 103 126
0.10585286 0.36250138 -0.83378565 119 112 134
0.10674755 0.36237299 -0.83580804 105 95 119
0.1063979 0.36359656 -0.83533329 106 99 122
0.10567464 0.36159265 -0.83313149 124 118 139
0.10542489 0.36288098 -0.83264953 116 110 132
0.10621604 0.36392912 -0.83500028 108 102 124
0.10542046 0.36329192 -0.83267611 113 106 129
0.1056307 0.36212099 -0.83316255 123 117 138
0.10550641 0.36194339 -0.83279204 124 118 140
0.1062585 0.3647477 -0.83519918 101 95 117
0.10563454 0.35747683 -0.83290488 94 81 111
0.10701252 0.35889471 -0.83589554 103 94 121
0.10589529 0.35760272 -0.83345556 96 84 114
0.10720624 0.35801384 -0.8362003 105 97 124
0.10681071 0.35784853 -0.83536774 103 93 121
0.1063683 0.3591513 -0.8345958 99 86 115
0.10670716 0.3613016 -0.83543402 108 98 123
0.10672526 0.36124319 -0.83547539 108 97 122
0.10568418 0.35921171 -0.83307481 105 94 121
0.10615105 0.35929531 -0.83414841 98 85 114
0.10597149 0.35898465 -0.83373451 98 85 114
0.1058984 0.36126262 -0.83357447 121 113 136
0.1066201 0.3545545 -0.83460045 96 90 116
0.10688792 0.35589385 -0.83527339 101 95 121
0.10725737 0.35495341 -0.83631623 94 87 113
0.10664608 0.35509598 -0.83464879 99 93 119
0.1071675 0.35567835 -0.83604217 98 91 118
0.10637089 0.3538754 -0.83395088 94 89 114
0.10560796 0.35610425 -0.83256626 94 84 112
0.10658214 0.35695696 -0.8347531 101 93 120
0.10620513 0.35609749 -0.83379507 99 90 118
0.1063413 0.3564789 -0.83415604 100 91 119
0.10645702 0.35731527 -0.83457088 100 90 119
0.10615599 0.3564491 -0.83376801 98 89 117
0.10733818 0.3522746 -0.8361001 97 90 117
0.10713411 0.35192877 -0.83552468 102 96 122
0.10727021 0.35147607 -0.8356455 106 99 126
0.10728149 0.35103953 -0.83550954 110 103 130
0.10693015 0.35081178 -0.83468688 113 108 134
0.10626492 0.35162261 -0.8333351 110 106 131
0.10629353 0.35145912 -0.83338332 111 107 132
0.1064847 0.35331517 -0.83423865 93 88 113
0.10638593 0.35204524 -0.83374047 105 101 126
0.10665286 0.35272706 -0.83458936 97 92 117
0.10595717 0.35244554 -0.83264744 105 100 125
0.10745393 0.35068113 -0.83585292 110 103 130
0.10689691 0.34888113 -0.83433926 120 115 142
0.1071383 0.34800184 -0.83504337 113 106 135
0.10733207 0.3464075 -0.83580661 102 93 124
0.10715376 0.34782207 -0.83511597 112 105 134
0.10672028 0.3487612 -0.83399433 120 115 142
0.10636611 0.34712163 -0.83339179 108 101 132
0.10612569 0.34613988 -0.83287418 99 90 125
0.10610174 0.34922361 -0.83255172 125 122 148
0.10615692 0.34901065 -0.83270782 124 120 147
0.10691304 0.34705251 -0.83476532 108 100 130
0.10758739 0.3487795 -0.83626789 110 100 129
0.10733512 0.34562838 -0.8359499 98 87 120
0.10737441 0.34431434 -0.83628732 117 106 136
0.10729817 0.34343889 -0.83624303 128 117 147
0.10605907 0.34548157 -0.83278382 99 89 125
0.10727398 0.34478503 -0.83595556 110 99 131
0.10653149 0.34493306 -0.83406389 107 97 130
0.10642173 0.34302837 -0.83422303 118 109 138
0.1061806 0.34351844 -0.83355731 108 99 130
0.10604278 0.344116 -0.83309275 102 93 125
0.1061026 0.34505787 -0.83297646 103 93 128
0.10650341 0.34229457 -0.83459884 122 113 140
0.10647324 0.34250444 -0.83447623 121 112 139
0.10679802 0.34031075 -0.83550489 125 115 140
0.10684142 0.34070978 -0.83549726 132 122 147
0.1025884 0.37873584 -0.82607162 79 73 90
0.10324632 0.37839016 -0.82691836 85 79 96
0.10239182 0.37716645 -0.82569855 99 95 114
0.10275897 0.37766841 -0.82625443 91 86 104
0.10216656 0.3786909 -0.82546383 81 76 93
0.10376492 0.37747422 -0.82780761 88 83 99
0.10399976 0.37916103 -0.82830161 77 72 86
0.10361197 0.37900102 -0.82746416 82 76 92
0.10391282 0.37975392 -0.82812834 77 72 87
0.10293697 0.37673676 -0.82644564 100 95 114
0.10264415 0.37512514 -0.8258568 105 99 123
0.10281941 0.376665 -0.82626951 100 96 115
0.10347035 0.37533087 -0.82706362 101 95 116
0.10246629 0.37537637 -0.82562792 105 100 123
0.10215183 0.37339425 -0.82512724 104 96 120
0.10243261 0.37330809 -0.82548946 104 97 121
0.1028298 0.37394172 -0.82603306 105 99 123
0.10296717 0.3741748 -0.8262217 106 99 124
0.10397226 0.3757363 -0.82810551 87 80 98
0.10379416 0.37354666 -0.82756764 97 89 113
0.10360648 0.37465474 -0.82724094 100 93 116
0.10368048 0.37639564 -0.82757264 94 88 106
0.10317047 0.37025398 -0.82674956 110 102 125
0.10323859 0.37126684 -0.82672596 109 101 125
0.10315356 0.37226173 -0.82650489 107 99 124
0.10315748 0.37039855 -0.8267166 110 102 125
0.10326265 0.3694796 -0.82692212 112 104 126
0.10223711 0.37167466 -0.82532912 106 98 120
0.10204098 0.37173277 -0.82501137 106 98 120
0.10221639 0.37031174 -0.82524586 110 101 122
0.1039528 0.37087676 -0.82822967 94 87 108
0.10357848 0.37170097 -0.82718521 107 99 124
0.1037068 0.37144917 -0.82751286 103 95 119
0.10367367 0.37302765 -0.82726049 101 94 119
0.10218184 0.36895025 -0.82520968 115 105 125
0.10307761 0.36720955 -0.82724297 125 115 146
0.10335283 0.36718231 -0.82770073 125 115 147
0.10300422 0.36687678 -0.82723266 127 117 149
0.10267422 0.36559841 -0.82670921 120 109 139
0.10271413 0.3658773 -0.82677627 122 111 141
0.10197458 0.36854672 -0.82492721 115 104 124
0.1026185 0.36662233 -0.8265062 123 112 141
0.10213637 0.36736512 -0.82537788 114 103 125
0.1021226 0.36572105 -0.8254745 108 96 119
0.10367546 0.36880884 -0.82790309 107 100 124
0.1022727 0.36174315 -0.82598108 103 96 122
0.10278116 0.36345094 -0.82708418 119 110 143
0.10313725 0.36304969 -0.82764262 122 115 147
0.10232902 0.36192226 -0.8261019 105 97 125
0.10321129 0.36447084 -0.82796031 130 121 158
0.10213241 0.36194953 -0.82576752 102 94 121
0.10190839 0.36508623 -0.82505387 101 88 109
0.10242067 0.36499199 -0.82620293 113 101 129
0.10246191 0.36452678 -0.82634979 114 103 132
0.10178073 0.36237577 -0.82509243 96 87 113
0.10245018 0.3636232 -0.82643116 113 103 134
0.10309913 0.36510724 -0.8276962 129 118 154
0.10341018 0.3601833 -0.8280713 108 105 130
0.10340444 0.36063087 -0.82798707 112 109 134
0.10239725 0.36022419 -0.82632303 93 87 112
0.10306358 0.36000255 -0.82750547 102 97 122
0.10272492 0.35912451 -0.82705677 89 82 108
0.10340229 0.3575826 -0.82846367 86 80 106
0.1028059 0.35832757 -0.82722801 83 76 101
0.10234774 0.35807699 -0.82617146 75 66 86
0.10250124 0.35893887 -0.82660431 84 76 101
0.10163162 0.36091816 -0.82484794 88 79 104
0.10241011 0.35765976 -0.82626951 72 64 82
0.10270855 0.35875082 -0.82705182 85 78 103
0.10284846 0.3553122 -0.82682866 88 83 107
0.10328897 0.35697359 -0.82814032 85 79 105
0.10273182 0.35410628 -0.82627165 89 84 107
0.10295873 0.35403362 -0.826693 88 83 106
0.10305092 0.35484678 -0.82709497 87 82 105
0.10251927 0.35685641 -0.82640082 76 68 88
0.10195132 0.35554814 -0.82491374 77 70 88
0.10278119 0.35676256 -0.82697529 80 74 96
0.10236456 0.35569185 -0.82586676 82 76 97
0.10253131 0.35581979 -0.82626247 84 78 100
0.10381529 0.35361391 -0.82818747 87 82 103
0.10326257 0.35332799 -0.8271603 87 81 103
0.10291837 0.35271323 -0.82655025 87 81 104
0.10326104 0.35214159 -0.82727176 85 78 101
0.10336833 0.35226068 -0.82746899 85 78 100
0.10265508 0.34989876 -0.82596672 76 67 86
0.10282534 0.35043716 -0.82642287 80 72 93
0.10211489 0.35296074 -0.82493329 90 85 107
0.10249164 0.35057017 -0.82563186 79 71 90
0.10250065 0.35205349 -0.82578224 87 81 104
0.1038115 0.35050812 -0.82851398 85 76 100
0.10378771 0.35310903 -0.82815111 86 80 102
0.10275877 0.34859604 -0.82594895 85 77 97
0.10327911 0.34902909 -0.82730383 84 75 98
0.10224602 0.34860656 -0.8248316 84 77 93
0.10395785 0.34779662 -0.82850713 92 85 111
0.10385963 0.3483274 -0.82843131 91 83 109
0.10360313 0.3490822 -0.82807302 86 77 102
0.1039032 0.34362176 -0.82787722 92 89 113
0.103961 0.34407708 -0.82799792 94 91 116
0.1036386 0.34483272 -0.8273263 107 104 129
0.10382123 0.34425184 -0.82770133 98 95 119
0.10935014 0.38649681 -0.84087843 120 116 139
0.10941505 0.3861903 -0.84092623 121 118 140
0.10916217 0.38090941 -0.840864 119 115 139
0.10945144 0.38336101 -0.84091598 124 121 143
0.1094184 0.38066083 -0.84163773 124 120 146
0.10895569 0.37991193 -0.84054005 119 116 140
0.10880303 0.37908828 -0.84030342 120 116 141
0.10844865 0.37429023 -0.84172857 118 112 138
0.10810816 0.37317508 -0.84137946 118 112 137
0.10855117 0.37599134 -0.84075981 123 117 144
0.10887918 0.37548795 -0.84249043 123 117 143
0.10816694 0.37445375 -0.84039885 116 110 135
0.10786782 0.36959031 -0.84094644 95 80 112
0.10777239 0.36927393 -0.84392142 84 66 95
0.10788754 0.36969456 -0.84135473 96 81 113
0.10792004 0.36986437 -0.84197456 97 82 113
0.10798923 0.37252167 -0.8409825 113 105 131
0.10798464 0.37212926 -0.84100145 111 102 129
0.10793151 0.37053123 -0.84089983 102 89 120
0.10816093 0.37097973 -0.84204137 113 102 132
0.10776281 0.36902344 -0.84217477 87 70 101
0.10777371 0.36877748 -0.84217477 90 74 104
0.10780869 0.36807764 -0.84170067 100 86 116
0.10781761 0.36790702 -0.84154028 103 89 119
0.10782979 0.36782259 -0.84053981 106 93 124
0.10776591 0.36867088 -0.843656 89 71 100
0.10802601 0.36149803 -0.84043419 147 139 171
0.10780916 0.3613638 -0.84288508 139 127 159
0.10792574 0.35770312 -0.8415693 109 99 126
0.10775787 0.35956094 -0.84402937 127 118 146
0.10782956 0.35855931 -0.84310693 119 111 138
0.1078181 0.35940322 -0.84283328 121 110 139
0.10777917 0.35907084 -0.84387392 125 117 144
0.10800114 0.35961196 -0.84034914 127 117 147
0.10793693 0.3584159 -0.84103596 111 99 127
0.10790011 0.36083201 -0.84168196 137 126 157
0.10795286 0.35986596 -0.84095925 128 117 147
0.10798357 0.36006284 -0.84060031 131 122 152
0.10787291 0.35621455 -0.84391201 108 104 127
0.10787468 0.35582751 -0.84402084 104 99 121
0.10794606 0.35441008 -0.84372842 91 85 105
0.10814279 0.35440588 -0.84163547 95 92 114
0.10814649 0.35359091 -0.84186482 87 82 103
0.10809179 0.35387108 -0.84235471 89 84 105
0.10813392 0.35541254 -0.84065276 97 91 115
0.10791256 0.35666582 -0.84329683 113 110 134
0.10807025 0.35570323 -0.8415305 102 98 121
0.10799847 0.3572697 -0.84043717 102 91 117
0.10786546 0.35717764 -0.84344721 115 112 136
0.10814697 0.35478914 -0.84142107 99 96 119
0.1082866 0.35290134 -0.84044307 89 85 107
0.10828524 0.35347795 -0.84041512 89 87 109
0.1085646 0.34674627 -0.84364182 138 129 156
0.10863401 0.34630835 -0.8438108 146 138 166
0.1083978 0.34778368 -0.8432036 119 108 133
0.10842774 0.34701985 -0.84203911 128 116 142
0.10850012 0.34644425 -0.8419593 137 126 154
0.10847137 0.34729156 -0.84332263 128 118 144
0.10841058 0.34689271 -0.84128582 127 115 142
0.10830522 0.34842947 -0.84265131 107 95 119
0.1082397 0.34948844 -0.84335744 94 81 103
0.10828245 0.3488349 -0.84284484 102 90 113
0.10829838 0.34918195 -0.84183794 97 84 108
0.10830615 0.34847409 -0.84255856 107 95 118
0.10861821 0.34296209 -0.84379387 143 133 164
0.1084872 0.34337386 -0.84195358 153 146 174
0.10862466 0.34309843 -0.84381878 143 134 165
0.10849345 0.34324813 -0.84208608 151 144 172
0.10869092 0.34485596 -0.84392333 153 146 175
0.10846809 0.34469935 -0.84064108 146 136 164
0.10853815 0.3454214 -0.84119457 147 136 165
0.10853969 0.34560621 -0.84107375 146 135 164
0.1085522 0.34456581 -0.84209287 152 144 172
0.10847344 0.34437314 -0.84098339 148 139 167
0.10814908 0.33860931 -0.84168774 111 100 127
0.1083291 0.33996356 -0.84240192 118 105 135
0.10834341 0.33961871 -0.8435787 131 121 151
0.10816783 0.33822131 -0.84307134 127 119 145
0.10826796 0.33889225 -0.84367239 132 125 152
0.10837413 0.34121707 -0.84173298 136 127 156
0.10842757 0.34066626 -0.84294063 124 112 142
0.10823305 0.34020501 -0.84090692 126 115 143
0.10832351 0.34101924 -0.84127825 135 126 154
0.10844849 0.34100571 -0.84288168 129 117 148
0 0 0 1 0 0 0 1 0 0 0 1 0 0 0 0 0 795 1 0 0
