ply
format ascii 1.0
comment PCL generated
element vertex 972
property float x
property float y
property float z
property uchar red
property uchar green
property uchar blue
element camera 0
property float view_px
property float view_py
property float view_pz
property float x_axisx
property float x_axisy
property float x_axisz
property float y_axisx
property float y_axisy
property float y_axisz
property float z_axisx
property float z_axisy
property float z_axisz
property float focal
property float scalex
property float scaley
property float centerx
property float centery
property int viewportx
property int viewporty
property float k1
property float k2
end_header
-0.06918586 -0.38236564 -0.6769278 195 193 195
-0.068792567 -0.38101819 -0.67676437 191 191 192
-0.065962754 -0.38243145 -0.67647719 187 179 184
-0.064662099 -0.38372484 -0.67636025 209 207 209
-0.066439725 -0.38409358 -0.67663437 207 203 203
-0.065863959 -0.38318205 -0.67650324 197 192 194
-0.066694506 -0.38446125 -0.67669052 211 207 207
-0.067946211 -0.38115185 -0.67664504 190 188 189
-0.067045189 -0.38237488 -0.67661303 191 186 188
-0.068045631 -0.38368666 -0.67683101 202 197 196
-0.068170376 -0.38357967 -0.67683971 202 198 197
-0.067574672 -0.38306376 -0.67672807 197 192 192
-0.063876338 -0.38427791 -0.67632622 216 213 216
-0.063509271 -0.38394758 -0.67628706 211 205 210
-0.063327998 -0.3837733 -0.67626715 209 201 206
-0.063233383 -0.38328224 -0.67623538 202 192 199
-0.063515663 -0.38440689 -0.67631197 217 212 216
-0.030083325 -0.38442126 -0.67618322 165 151 170
-0.029225148 -0.38390955 -0.67623162 159 147 164
-0.069433227 -0.38718784 -0.67720968 218 207 218
-0.070033967 -0.38669959 -0.6773507 215 205 215
-0.069245532 -0.38751718 -0.67716634 220 208 221
-0.069530755 -0.38802251 -0.67723608 222 209 224
-0.06875138 -0.38802311 -0.67705077 223 210 224
-0.06957417 -0.38555112 -0.67721111 210 202 207
-0.070354335 -0.38567948 -0.67735791 208 201 208
-0.066894352 -0.38782662 -0.67676759 224 215 227
-0.065604553 -0.38727367 -0.67660522 221 216 227
-0.064666077 -0.38813475 -0.6765337 216 211 227
-0.067820042 -0.38817689 -0.67688245 226 214 228
-0.065120459 -0.38597986 -0.67650425 223 221 226
-0.064999104 -0.38850811 -0.67658412 217 210 228
-0.066512376 -0.38562441 -0.67668402 220 216 218
-0.068091266 -0.38524827 -0.67690849 212 205 206
-0.067694172 -0.38567102 -0.6768533 215 209 211
-0.068114661 -0.38686222 -0.67691809 219 209 217
-0.067268729 -0.38625902 -0.67679471 220 213 218
-0.067363463 -0.38594836 -0.67680711 218 211 215
-0.062794879 -0.38494709 -0.67629921 221 214 219
-0.061589461 -0.38665888 -0.6763258 221 223 228
-0.060856041 -0.3854706 -0.67621547 219 205 215
-0.062225375 -0.38648149 -0.67635298 222 226 229
-0.060927842 -0.38627371 -0.67626524 220 214 222
-0.062001646 -0.38778025 -0.67640239 222 229 235
-0.061606303 -0.3876633 -0.67638278 223 233 236
-0.063789412 -0.3863422 -0.67641848 221 223 228
-0.063578844 -0.38803768 -0.67647284 218 217 230
-0.062890328 -0.38643622 -0.67638719 223 229 231
-0.06231799 -0.38790199 -0.67641908 221 227 234
-0.05753753 -0.38855118 -0.67626822 198 200 212
-0.05737149 -0.38797933 -0.67623407 194 195 205
-0.058460794 -0.38747257 -0.67624378 202 202 211
-0.060209207 -0.38636509 -0.67623723 216 208 218
-0.060093313 -0.38619247 -0.6762237 215 205 216
-0.059782874 -0.38765538 -0.67629671 214 217 225
-0.059709582 -0.38751268 -0.67628628 213 215 223
-0.055950396 -0.3879841 -0.67618322 189 185 198
-0.029970882 -0.38615096 -0.67628372 173 162 181
-0.029747985 -0.38532102 -0.67625314 168 155 176
-0.030352324 -0.3883808 -0.67636859 182 181 191
-0.032161057 -0.38812929 -0.67618924 184 183 188
-0.030328508 -0.38746074 -0.67632151 178 173 187
-0.030377381 -0.38606408 -0.67624217 173 163 180
-0.029207453 -0.38503781 -0.67627949 164 151 173
-0.069629535 -0.38897863 -0.67725128 227 214 230
-0.069408022 -0.38966224 -0.67717445 231 220 233
-0.064581744 -0.389135 -0.67657053 215 209 227
-0.066873983 -0.39246607 -0.67701995 232 228 234
-0.06503468 -0.3913092 -0.67674315 216 208 223
-0.065632008 -0.39206755 -0.67685419 220 213 226
-0.065280713 -0.39054942 -0.67672962 220 213 228
-0.064680517 -0.38877571 -0.67656136 216 210 228
-0.0667364 -0.39000952 -0.67686284 229 222 234
-0.067034498 -0.38907892 -0.67683899 225 215 230
-0.066311151 -0.3900815 -0.6768204 228 223 234
-0.061012946 -0.38943112 -0.67643571 221 230 237
-0.063643679 -0.3918201 -0.67667222 211 204 220
-0.061476637 -0.38975936 -0.67647332 219 226 234
-0.060973667 -0.38935608 -0.6764304 221 231 237
-0.061709214 -0.39184585 -0.67657679 222 220 230
-0.063573509 -0.39038938 -0.67659098 213 209 225
-0.063282639 -0.38966289 -0.67653954 215 214 228
-0.06311772 -0.38999763 -0.6765517 215 214 228
-0.063211903 -0.39029923 -0.67657202 214 212 226
-0.063750111 -0.39037862 -0.67659724 213 208 224
-0.05985485 -0.39202765 -0.67650175 223 221 229
-0.05945304 -0.39228961 -0.67649508 221 213 227
-0.06006293 -0.392304 -0.67652071 225 223 231
-0.056675058 -0.3896316 -0.67628056 194 185 206
-0.056688048 -0.38967928 -0.67628288 194 185 206
-0.059893213 -0.39027569 -0.67642683 220 225 232
-0.059399877 -0.39103031 -0.67644292 218 218 227
-0.058909252 -0.39009705 -0.67638475 212 214 224
-0.058645491 -0.38893718 -0.67632449 208 213 223
-0.059725046 -0.38992292 -0.67640549 218 224 231
-0.060247134 -0.3916789 -0.67650092 226 227 233
-0.055646595 -0.38876626 -0.67621261 192 189 204
-0.053011946 -0.38968015 -0.67617762 194 186 200
-0.055379484 -0.38960055 -0.67625844 193 190 204
-0.052960731 -0.38999054 -0.67619622 194 186 200
-0.05459816 -0.39117345 -0.67632091 195 187 204
-0.056594219 -0.39194182 -0.67636567 200 171 206
-0.055080093 -0.39244521 -0.67637265 199 177 204
-0.056533482 -0.39161795 -0.67635304 199 174 206
-0.055701975 -0.39097577 -0.67632228 196 182 205
-0.050026886 -0.39171439 -0.67624611 182 172 187
-0.050252609 -0.39181712 -0.67625678 183 173 189
-0.051155981 -0.3925252 -0.67631197 188 178 193
-0.052097224 -0.39064926 -0.67622066 192 183 197
-0.051787455 -0.39178044 -0.67629015 191 183 196
-0.052529003 -0.39217997 -0.6763292 194 187 200
-0.051947784 -0.39210737 -0.67631453 191 184 197
-0.048234399 -0.39231157 -0.67623889 179 165 183
-0.045935165 -0.39087594 -0.67619449 178 171 187
-0.046180137 -0.39132607 -0.67620581 181 174 190
-0.045848168 -0.39133781 -0.67620432 184 177 194
-0.045689832 -0.39036179 -0.67617714 176 171 186
-0.047533114 -0.39065704 -0.67617679 176 168 183
-0.048053585 -0.39196897 -0.67622793 177 165 182
-0.041599434 -0.39158365 -0.67621297 201 184 209
-0.042273965 -0.39144877 -0.67619866 202 188 211
-0.044205036 -0.39251876 -0.67623186 203 195 215
-0.042565838 -0.39090994 -0.67618251 197 185 206
-0.044655878 -0.39115965 -0.67619455 189 184 201
-0.043303393 -0.39093217 -0.67618531 193 184 203
-0.044633482 -0.39087576 -0.67618811 186 181 198
-0.040596139 -0.39243308 -0.67625165 197 178 206
-0.040808108 -0.39176542 -0.67622322 199 180 207
-0.035154924 -0.39097354 -0.67617339 185 186 198
-0.033965524 -0.39101347 -0.67625922 189 185 196
-0.033576198 -0.39090812 -0.6762777 190 185 195
-0.033669896 -0.39182079 -0.67634517 191 183 196
-0.033006899 -0.38966027 -0.6762206 189 187 192
-0.031578638 -0.38995448 -0.67637557 187 183 193
-0.032035425 -0.38940942 -0.67628956 187 185 192
-0.032104071 -0.39063248 -0.67638224 189 183 194
-0.032123886 -0.39075214 -0.67639011 189 183 194
-0.030083727 -0.39006671 -0.67649186 181 175 189
-0.029757425 -0.39035174 -0.67651474 177 169 185
-0.029759722 -0.38914338 -0.6764763 182 181 193
-0.032490212 -0.392241 -0.6764586 190 178 193
-0.031786181 -0.39234766 -0.67649192 184 170 187
-0.027363945 -0.3925091 -0.67667156 148 125 152
-0.027223229 -0.39208117 -0.67668408 147 126 150
-0.028464943 -0.39197758 -0.67664403 157 139 158
-0.028226594 -0.39172071 -0.67665672 155 138 156
-0.028745247 -0.39027217 -0.67657799 167 158 172
-0.028271139 -0.39117715 -0.67664641 157 143 158
-0.028929643 -0.3908104 -0.67657959 167 155 172
-0.065090686 -0.39501786 -0.6769101 228 216 229
-0.064878099 -0.39426205 -0.67685783 222 210 224
-0.065802485 -0.39524904 -0.67698872 232 222 232
-0.064695172 -0.39399043 -0.67682874 219 207 222
-0.0664583 -0.39347512 -0.67699873 228 222 230
-0.064752705 -0.39284167 -0.67678678 211 200 217
-0.061517965 -0.39357251 -0.67664117 232 227 235
-0.061949875 -0.39574045 -0.67674929 240 234 241
-0.060815301 -0.39288706 -0.67657721 230 228 235
-0.063157082 -0.39607862 -0.676826 239 229 238
-0.063651882 -0.39599568 -0.67684871 237 225 236
-0.060557969 -0.39569634 -0.67667454 243 243 246
-0.064306229 -0.39610383 -0.67688674 235 221 233
-0.061968088 -0.39282748 -0.6766324 223 219 229
-0.062682308 -0.39333481 -0.67668939 223 216 227
-0.063604809 -0.39526218 -0.67681634 233 221 233
-0.063692555 -0.39286789 -0.6767202 214 205 220
-0.058231886 -0.39629814 -0.67653632 235 233 237
-0.058664281 -0.39493197 -0.67655599 227 214 231
-0.057291392 -0.39569941 -0.67646337 226 219 229
-0.05737552 -0.3937479 -0.67645293 213 189 217
-0.057413951 -0.39524579 -0.67646831 224 213 227
-0.059449006 -0.39580229 -0.67661995 237 231 240
-0.05953712 -0.39433309 -0.67657858 230 221 234
-0.060398437 -0.39598107 -0.67667907 243 242 247
-0.059662454 -0.39408904 -0.67657411 230 222 234
-0.059592556 -0.39423573 -0.67657703 230 221 234
-0.059240874 -0.3929635 -0.67651236 222 210 227
-0.053256046 -0.39318004 -0.67636442 200 194 205
-0.053206969 -0.39588782 -0.67625636 200 190 206
-0.053814925 -0.39498425 -0.67632514 205 198 210
-0.056118451 -0.39642268 -0.67639649 224 223 227
-0.054040655 -0.39460933 -0.6763522 207 201 212
-0.054769281 -0.39384532 -0.67638582 207 197 212
-0.055763252 -0.39361677 -0.67639184 207 188 212
-0.055879552 -0.3936764 -0.67639327 208 189 212
-0.054958694 -0.39326787 -0.67638248 204 187 209
-0.053592134 -0.39282638 -0.67636794 199 188 204
-0.054828189 -0.39259756 -0.67637581 199 178 204
-0.051087189 -0.3954114 -0.67624676 190 177 196
-0.049641892 -0.39478102 -0.67629391 185 173 191
-0.04884794 -0.39629576 -0.67639261 188 178 195
-0.048956137 -0.39436471 -0.67631161 183 170 188
-0.049668465 -0.39444584 -0.67627949 184 171 189
-0.051607836 -0.39542913 -0.67622161 191 178 197
-0.051497467 -0.39519742 -0.67622197 190 177 196
-0.049990252 -0.39315864 -0.67625844 183 169 187
-0.051466051 -0.39421564 -0.67625922 190 178 196
-0.052272841 -0.39338595 -0.67631441 194 184 199
-0.050377231 -0.39291573 -0.67627889 185 172 189
-0.050352506 -0.39300081 -0.67627484 185 172 189
-0.045167614 -0.39540687 -0.67620349 197 192 210
-0.045415476 -0.39482617 -0.6762256 198 192 211
-0.045050517 -0.39327484 -0.67622513 202 197 215
-0.047403812 -0.39517856 -0.67633593 194 186 203
-0.046585273 -0.39627373 -0.67627406 193 186 203
-0.045112733 -0.39327443 -0.67622876 202 196 215
-0.04799417 -0.39271611 -0.67624897 183 171 189
-0.047074798 -0.39407399 -0.67629713 193 185 203
-0.046627946 -0.39312136 -0.67625743 194 185 203
-0.046401575 -0.39359349 -0.67627472 197 189 207
-0.045388762 -0.39287716 -0.67624122 201 195 214
-0.04767156 -0.39444679 -0.67631495 190 181 199
-0.043880548 -0.39560288 -0.67618972 195 186 207
-0.042425059 -0.39401668 -0.67623377 197 181 207
-0.043577682 -0.39389879 -0.67622423 199 188 210
-0.043964889 -0.39504147 -0.67620474 197 188 209
-0.043807678 -0.39395675 -0.67622089 199 189 211
-0.044433542 -0.39494279 -0.67620087 198 191 211
-0.042002145 -0.39294037 -0.67625433 199 181 208
-0.040895458 -0.39260098 -0.67626536 198 177 205
-0.038588341 -0.3929823 -0.67618001 187 181 204
-0.033787847 -0.39511845 -0.67630345 186 178 200
-0.034253638 -0.39444128 -0.67629641 186 179 200
-0.033274826 -0.39637813 -0.676292 185 176 200
-0.034174051 -0.39343059 -0.67633969 189 181 199
-0.033426549 -0.39353868 -0.67638755 191 180 198
-0.034876827 -0.39598081 -0.67617637 180 171 194
-0.03334469 -0.39635563 -0.67628771 184 176 200
-0.030306982 -0.39635259 -0.67648327 165 145 166
-0.031244028 -0.39555603 -0.67643416 173 157 179
-0.030144606 -0.39536363 -0.67650849 166 145 167
-0.030388996 -0.3960605 -0.67648226 166 146 168
-0.029350273 -0.39347947 -0.67658812 163 142 163
-0.032139551 -0.39563647 -0.67637473 179 166 190
-0.031109076 -0.39307442 -0.67650944 177 160 180
-0.031162046 -0.39432916 -0.67646027 174 159 182
-0.032721255 -0.39435938 -0.67639291 186 174 194
-0.030847138 -0.39277962 -0.67653161 176 158 178
-0.032564029 -0.39494699 -0.67637759 183 172 193
-0.028940549 -0.39303851 -0.67661017 161 139 162
-0.029282551 -0.39411643 -0.67658263 162 139 161
-0.028306955 -0.3936474 -0.67662257 154 131 155
-0.064993076 -0.39992222 -0.67704755 230 225 238
-0.066361301 -0.3984918 -0.67721176 229 221 235
-0.066212796 -0.39800754 -0.6771723 232 222 236
-0.066597834 -0.39824837 -0.6772241 231 223 236
-0.061942857 -0.39999324 -0.67683011 233 227 240
-0.061475847 -0.39897195 -0.67679018 237 233 242
-0.06353502 -0.39952788 -0.67691678 234 231 241
-0.060657945 -0.40001413 -0.67675573 234 227 240
-0.061078142 -0.40011004 -0.67678136 233 226 239
-0.062503465 -0.39765972 -0.67682904 240 236 243
-0.062296569 -0.39812213 -0.6768266 240 237 244
-0.064014241 -0.39901084 -0.67693287 234 228 239
-0.062754065 -0.3970243 -0.67683065 240 233 242
-0.063473269 -0.39735928 -0.67687452 238 229 239
-0.056979544 -0.39728352 -0.67645615 225 224 230
-0.058237448 -0.39964104 -0.67657346 219 214 229
-0.059025563 -0.40009782 -0.67663699 222 216 232
-0.058104184 -0.39797896 -0.67654735 230 227 233
-0.058227502 -0.39884141 -0.67656493 224 220 231
-0.057335284 -0.39997077 -0.67650896 208 204 223
-0.057827197 -0.39705381 -0.67651576 232 231 235
-0.060165845 -0.39764753 -0.67669207 241 238 244
-0.057823867 -0.3968088 -0.67651248 233 232 235
-0.059281264 -0.39799383 -0.67663258 235 232 239
-0.060384665 -0.40010288 -0.67673868 233 225 239
-0.060217816 -0.39753264 -0.67669439 241 239 245
-0.05310192 -0.39905205 -0.67626524 198 184 204
-0.053177428 -0.39899379 -0.67626804 198 184 205
-0.054764558 -0.39881352 -0.67634368 198 190 211
-0.055237912 -0.39901116 -0.67637014 198 191 213
-0.052754149 -0.39802629 -0.6762321 197 183 203
-0.056285087 -0.39901999 -0.67642802 207 203 220
-0.05566011 -0.39760175 -0.67637962 212 208 220
-0.053301997 -0.39649838 -0.67623854 201 190 207
-0.055704623 -0.3967213 -0.67637354 219 216 223
-0.056300003 -0.40003195 -0.67643863 199 195 217
-0.051440433 -0.39980164 -0.67629635 195 180 200
-0.05059186 -0.3991563 -0.67632067 193 179 199
-0.051786773 -0.40035418 -0.67627996 196 180 201
-0.049748149 -0.39743501 -0.67636901 191 179 197
-0.049931232 -0.39969257 -0.67631656 191 176 197
-0.052569792 -0.39860204 -0.67624825 197 183 203
-0.050764684 -0.3973169 -0.67631781 193 181 199
-0.051425103 -0.39774135 -0.67629164 194 182 200
-0.051016591 -0.39824954 -0.67631984 194 181 200
-0.0495864 -0.39700273 -0.67637146 190 179 197
-0.047075499 -0.39912078 -0.67625087 189 176 198
-0.048244424 -0.39993361 -0.67629308 189 174 197
-0.045792907 -0.39939317 -0.67620295 184 169 192
-0.046008669 -0.3999255 -0.67621017 183 165 189
-0.045975558 -0.39852569 -0.67621106 189 177 198
-0.048335653 -0.39844033 -0.67632896 189 177 197
-0.047770184 -0.39893082 -0.67628527 190 178 199
-0.046907552 -0.39723757 -0.67627311 192 183 202
-0.048826452 -0.39749336 -0.67637843 189 177 196
-0.048015952 -0.39725792 -0.67633677 190 180 198
-0.047746263 -0.39827803 -0.67629844 190 179 199
-0.033876304 -0.39813817 -0.67625517 179 163 186
-0.033520103 -0.39984334 -0.67630833 179 158 179
-0.034102675 -0.3989636 -0.67625242 181 163 185
-0.035118967 -0.39885139 -0.67618108 188 172 193
-0.034612693 -0.40020996 -0.67624056 187 167 187
-0.031874783 -0.40000644 -0.6764425 165 143 164
-0.031937823 -0.39770171 -0.67638993 174 155 177
-0.032769483 -0.39911154 -0.67635274 177 157 178
-0.031679165 -0.3978343 -0.67640835 172 152 173
-0.033112299 -0.39694053 -0.6763044 183 172 196
-0.03311995 -0.39697313 -0.67630428 183 172 196
-0.015286515 -0.40002102 -0.67771304 144 124 150
-0.015532818 -0.39937136 -0.67766863 145 126 148
-0.015041326 -0.39994264 -0.6777401 144 125 151
-0.015768463 -0.3980653 -0.67761755 148 132 149
-0.012552475 -0.3994115 -0.67799264 150 131 158
-0.013443825 -0.40031382 -0.67792922 148 128 160
-0.061302558 -0.40210837 -0.67686445 219 207 225
-0.061184667 -0.40304318 -0.67686325 214 199 222
-0.06120633 -0.40194219 -0.67685109 220 208 227
-0.060587075 -0.40258339 -0.67678779 220 205 229
-0.061099652 -0.40081435 -0.67681628 228 219 234
-0.063854277 -0.40039191 -0.67694622 231 226 238
-0.057662629 -0.40171376 -0.67656231 201 192 218
-0.057782315 -0.40258932 -0.67660075 199 187 215
-0.056897961 -0.40349194 -0.67658854 189 177 206
-0.060339648 -0.40413347 -0.67678928 210 190 221
-0.057176843 -0.40310267 -0.67658854 193 181 209
-0.060161728 -0.40306202 -0.67676061 214 198 225
-0.060466647 -0.40042973 -0.67674851 232 224 238
-0.058775838 -0.40125 -0.67663252 213 204 226
-0.05965155 -0.40071306 -0.67669111 223 215 233
-0.059801191 -0.40161878 -0.67671442 219 208 229
-0.060083617 -0.40080556 -0.67672473 226 217 234
-0.055462494 -0.40404519 -0.67654598 186 171 199
-0.055030048 -0.40347236 -0.67650223 188 173 199
-0.053085487 -0.40118879 -0.67631888 196 180 201
-0.052740384 -0.40321663 -0.67639846 191 174 195
-0.053974334 -0.40380725 -0.67647523 188 172 196
-0.055190742 -0.402661 -0.67647302 190 176 202
-0.056329615 -0.40368041 -0.67656684 187 173 202
-0.05568298 -0.40201172 -0.67647344 193 182 207
-0.053844899 -0.40095007 -0.6763435 197 183 204
-0.055108372 -0.40201646 -0.67644519 193 180 205
-0.051885035 -0.40389568 -0.67640173 188 170 192
-0.050167549 -0.40356934 -0.67628956 186 167 191
-0.05254747 -0.40426245 -0.67643577 188 170 192
-0.051182926 -0.40419388 -0.67633933 186 168 191
-0.049340747 -0.40243796 -0.67627287 186 169 192
-0.052647766 -0.40370747 -0.67642182 190 172 194
-0.050594334 -0.40209115 -0.67637157 189 172 194
-0.051818285 -0.40303341 -0.67640054 189 172 194
-0.051705524 -0.40222195 -0.67636448 191 174 196
-0.050481863 -0.40175408 -0.67635733 189 173 195
-0.047380045 -0.40418205 -0.67622417 185 169 191
-0.046542149 -0.40401685 -0.67626262 186 173 193
-0.046646778 -0.40264174 -0.67631131 188 176 195
-0.046773538 -0.40254751 -0.67631006 188 176 195
-0.048601516 -0.40291396 -0.6762259 185 167 191
-0.048070092 -0.40411547 -0.67620021 184 167 190
-0.047081463 -0.40181142 -0.6763019 188 174 194
-0.04605573 -0.40229329 -0.67628175 186 172 193
-0.04729161 -0.40058723 -0.67626435 185 167 191
-0.045850679 -0.40312168 -0.67630482 188 176 195
-0.045002822 -0.40381899 -0.67629921 187 177 194
-0.041937862 -0.40350839 -0.67625833 193 184 201
-0.04417228 -0.40402231 -0.67629719 189 180 196
-0.042645827 -0.40368751 -0.6762712 192 183 199
-0.042469606 -0.4028706 -0.67623961 190 180 195
-0.044668838 -0.40406719 -0.67630327 188 179 195
-0.044796918 -0.4025318 -0.67624748 184 169 190
-0.044169232 -0.40373236 -0.67628652 188 179 195
-0.04482739 -0.4009254 -0.67618823 179 160 184
-0.044235904 -0.40265501 -0.67624718 185 173 191
-0.039671462 -0.40367824 -0.6761781 198 187 202
-0.033585265 -0.40122545 -0.67633784 176 148 172
-0.033495691 -0.40096936 -0.67633659 177 150 173
-0.033449251 -0.40173745 -0.6763618 172 140 166
-0.034730058 -0.40312657 -0.6762861 178 144 170
-0.033859495 -0.40328476 -0.67637753 168 125 157
-0.035379089 -0.4010154 -0.67620575 191 168 189
-0.035783943 -0.40295637 -0.67617548 191 167 187
-0.031948976 -0.40363598 -0.67652988 149 109 140
-0.031590685 -0.40417367 -0.67655796 145 108 138
-0.031638198 -0.40318707 -0.67654693 147 110 140
-0.031886835 -0.40392199 -0.67653626 148 108 140
-0.032908022 -0.40346125 -0.67645371 158 114 147
-0.032010339 -0.40240213 -0.67650145 153 118 147
-0.03300051 -0.40386188 -0.67645711 157 110 144
-0.031249333 -0.40051019 -0.67651349 154 134 155
-0.0319972 -0.40142441 -0.67647457 158 130 155
-0.014928073 -0.40348682 -0.67788178 130 100 138
-0.015532539 -0.40345678 -0.67782366 133 103 138
-0.013781208 -0.40284321 -0.67797196 128 102 144
-0.015507204 -0.40267649 -0.6778037 139 111 142
-0.01606488 -0.40375209 -0.6777817 134 103 135
-0.016149251 -0.40067863 -0.67763513 140 119 146
-0.015241701 -0.40172324 -0.67779607 143 118 147
-0.01607113 -0.40166992 -0.67769563 141 116 144
-0.014400866 -0.40108019 -0.67786181 145 122 153
-0.011686685 -0.40287527 -0.67813891 147 127 157
-0.0098483805 -0.40267372 -0.67827958 163 153 165
-0.01025665 -0.40322825 -0.67826396 154 142 157
-0.011925607 -0.40370771 -0.67814541 136 115 147
-0.012334219 -0.40352401 -0.67810708 135 112 148
-0.013357054 -0.40303996 -0.67801249 130 103 145
-0.012945668 -0.40109155 -0.67798859 149 128 160
-0.012631063 -0.40286317 -0.67806387 139 115 152
-0.012900718 -0.40104389 -0.67799073 150 129 161
-0.013166555 -0.40103063 -0.67796969 147 126 159
-0.0088891387 -0.40344581 -0.67842847 138 125 133
-0.0086329645 -0.40367413 -0.6785059 131 117 124
-0.0079366025 -0.40262616 -0.67853999 128 110 115
-0.0069430568 -0.40380034 -0.67887092 96 79 77
-0.0090323472 -0.40261289 -0.67838192 150 137 146
-0.0093360879 -0.40354171 -0.67837 146 135 144
-0.072540678 -0.40740442 -0.67855394 187 177 188
-0.072577588 -0.4080584 -0.67859495 188 178 186
-0.072390981 -0.40679875 -0.6784972 189 178 191
-0.07128863 -0.40766817 -0.67833179 188 176 188
-0.07188417 -0.40799057 -0.67846578 190 180 188
-0.070817359 -0.40799579 -0.67825145 190 174 188
-0.072063208 -0.40669778 -0.67843258 189 179 192
-0.065325767 -0.4069075 -0.67739898 195 177 202
-0.067636564 -0.40808341 -0.67768151 193 166 192
-0.065901712 -0.40735132 -0.67747176 195 175 201
-0.064521953 -0.40814027 -0.6773259 200 185 216
-0.065312669 -0.40732303 -0.67740387 196 178 205
-0.067531385 -0.40724698 -0.67765296 190 165 188
-0.061484005 -0.4068827 -0.67698181 215 205 222
-0.062626012 -0.40641525 -0.67708027 205 188 219
-0.062184751 -0.40708688 -0.67705792 211 199 220
-0.062694609 -0.40710533 -0.67710918 208 194 219
-0.060683452 -0.40454605 -0.67682749 211 191 221
-0.063882016 -0.40670723 -0.67722982 199 184 212
-0.063699946 -0.40728599 -0.6772176 202 186 216
-0.062899351 -0.40572363 -0.67710072 202 185 213
-0.063306458 -0.40699738 -0.67716753 203 187 218
-0.062909514 -0.40530461 -0.67709547 200 184 210
-0.06298437 -0.40665323 -0.67712486 204 187 218
-0.058750074 -0.40727478 -0.67681044 208 199 212
-0.057128061 -0.40714458 -0.67672545 193 170 199
-0.057426348 -0.40671936 -0.67672586 195 177 202
-0.056824733 -0.40708837 -0.67670846 190 165 197
-0.060342249 -0.40814582 -0.67691892 224 224 223
-0.058966979 -0.40750888 -0.67682904 211 202 213
-0.060503762 -0.40594894 -0.67685664 217 206 223
-0.05824551 -0.40475029 -0.67670208 197 183 209
-0.059641376 -0.40667754 -0.6768356 214 208 218
-0.059127104 -0.40479913 -0.67674899 203 188 214
-0.060298976 -0.40512735 -0.6768198 212 197 221
-0.05321449 -0.40593955 -0.67650318 186 165 192
-0.054521047 -0.40684274 -0.67659301 187 162 193
-0.054564878 -0.40643659 -0.67658865 188 164 193
-0.053524703 -0.40595996 -0.67652124 187 165 192
-0.053291917 -0.4057118 -0.67650372 187 166 192
-0.054906297 -0.40622282 -0.6766004 189 165 193
-0.055052236 -0.40578791 -0.67659152 188 166 195
-0.05468905 -0.40468478 -0.67653966 187 169 196
-0.054628156 -0.40509272 -0.67655098 188 168 195
-0.054361366 -0.40527266 -0.67654639 188 168 194
-0.052302022 -0.40431595 -0.67641693 188 170 192
-0.049679793 -0.40592802 -0.67625266 187 172 189
-0.048894197 -0.40801555 -0.67622972 189 180 188
-0.049509443 -0.40471947 -0.67622042 184 166 189
-0.050814312 -0.40457952 -0.67631298 186 168 191
-0.049793132 -0.4050858 -0.67624706 185 169 189
-0.049809624 -0.408077 -0.67629772 187 175 189
-0.051815167 -0.40614364 -0.67641193 187 170 191
-0.050227292 -0.40688327 -0.67630816 189 177 189
-0.05120118 -0.4061431 -0.67636698 188 173 190
-0.049364123 -0.40773311 -0.67625928 189 179 188
-0.048799355 -0.40749928 -0.67621762 188 177 188
-0.048113015 -0.40470937 -0.67619848 184 168 189
-0.048355915 -0.40735638 -0.67623228 189 179 189
-0.047025155 -0.40531972 -0.6762501 187 175 191
-0.046767026 -0.40603167 -0.67627156 189 179 192
-0.04818118 -0.40670738 -0.6762284 188 176 189
-0.046536729 -0.40797889 -0.6761933 194 180 189
-0.045636691 -0.40676737 -0.67622602 193 180 191
-0.045077994 -0.40607673 -0.67624378 193 180 192
-0.046183765 -0.40703201 -0.6762256 193 180 190
-0.047915794 -0.4078564 -0.67622483 191 180 188
-0.04591966 -0.40633041 -0.67624944 191 180 192
-0.041772604 -0.40572995 -0.67622977 202 189 206
-0.041348197 -0.40584263 -0.67622322 204 190 209
-0.043509144 -0.40693364 -0.67619455 200 184 197
-0.041728392 -0.40527475 -0.67624652 200 188 206
-0.044834279 -0.40536585 -0.67626923 192 180 194
-0.043789867 -0.40533951 -0.67626095 194 182 197
-0.04485964 -0.40580907 -0.67625123 193 180 193
-0.044058897 -0.40627658 -0.67622483 196 182 195
-0.043874927 -0.40558583 -0.67625159 195 182 197
-0.039453633 -0.40769908 -0.67619067 200 184 205
-0.039729655 -0.4072144 -0.676202 200 185 206
-0.040992025 -0.40447745 -0.67627287 199 190 209
-0.04095928 -0.40610486 -0.67621297 206 192 211
-0.039891951 -0.40561637 -0.67625761 195 184 204
-0.038324732 -0.40572849 -0.67618775 194 182 201
-0.038484253 -0.40571809 -0.67619663 194 182 201
-0.039292034 -0.40582868 -0.67624867 193 182 202
-0.038617242 -0.40574592 -0.67620564 194 182 201
-0.036331702 -0.40526277 -0.67617255 189 168 188
-0.034980223 -0.40450576 -0.67627704 177 143 169
-0.035172243 -0.40536794 -0.67629772 175 143 170
-0.035475418 -0.40530667 -0.67626333 179 150 175
-0.035989158 -0.4069837 -0.67628896 177 152 178
-0.034478717 -0.4065879 -0.6763925 164 131 162
-0.035790116 -0.40736923 -0.67631114 174 150 177
-0.033961128 -0.40553334 -0.67641503 162 121 154
-0.03465588 -0.40804729 -0.67639881 162 139 168
-0.035346601 -0.40743077 -0.67634284 170 145 173
-0.032199733 -0.40768659 -0.67656565 147 123 150
-0.03241685 -0.4076401 -0.67654866 146 122 150
-0.031492796 -0.4078126 -0.67662054 148 126 150
-0.031493388 -0.40511265 -0.67657578 143 112 140
-0.032616951 -0.40744993 -0.6765312 147 120 150
-0.032964323 -0.40443626 -0.67646956 155 107 142
-0.031660616 -0.40573871 -0.67657274 143 114 143
-0.031437296 -0.40534598 -0.67658252 142 113 141
-0.027631953 -0.4065406 -0.67690915 148 136 149
-0.026467964 -0.40672931 -0.6770187 153 140 155
-0.027389213 -0.40702173 -0.6769408 152 138 152
-0.027875395 -0.40678757 -0.67689198 149 136 149
-0.027776884 -0.40742859 -0.67691368 152 138 153
-0.028006451 -0.40627542 -0.67686945 145 132 147
-0.023280265 -0.40713432 -0.6772694 153 136 154
-0.022403335 -0.40721512 -0.67734361 150 132 148
-0.022773786 -0.40590468 -0.67725641 146 131 152
-0.023921747 -0.40682918 -0.67720431 154 138 158
-0.023696618 -0.40679041 -0.67722076 153 137 157
-0.023328982 -0.40547365 -0.67720866 145 132 152
-0.02523434 -0.4055717 -0.67710239 151 139 153
-0.025206175 -0.40585449 -0.6771096 153 140 155
-0.023429176 -0.40611994 -0.67721587 149 135 155
-0.024606926 -0.40519321 -0.67713046 148 136 151
-0.018398955 -0.40813449 -0.67764199 164 157 159
-0.018560424 -0.40631276 -0.67761528 150 127 142
-0.017761441 -0.40564337 -0.67765599 148 124 140
-0.018245542 -0.40742111 -0.67764431 160 147 153
-0.019340461 -0.40775934 -0.67758304 157 142 150
-0.018804183 -0.4059093 -0.67759711 146 118 136
-0.019686263 -0.40594187 -0.67752957 143 117 136
-0.019844826 -0.40600172 -0.67751741 144 118 137
-0.020228308 -0.4059459 -0.67747921 143 120 139
-0.021270839 -0.40692082 -0.67742479 146 126 142
-0.020535342 -0.40699369 -0.67749649 147 123 138
-0.014265207 -0.40713802 -0.67809254 128 107 140
-0.015532818 -0.40762439 -0.67794311 144 130 150
-0.015797418 -0.40752283 -0.67790109 146 134 152
-0.014970345 -0.40738177 -0.67800796 137 120 146
-0.015398917 -0.40811673 -0.67798764 143 129 149
-0.01570487 -0.40495062 -0.67783761 133 106 138
-0.014568128 -0.40453231 -0.67794132 123 94 136
-0.015546759 -0.40491819 -0.67785227 132 105 138
-0.016645934 -0.40568078 -0.67775542 144 122 143
-0.016606396 -0.40656546 -0.67776752 150 135 151
-0.012421186 -0.40740019 -0.67829436 129 112 139
-0.01179738 -0.4077847 -0.67837799 130 116 138
-0.010754095 -0.4077335 -0.6784718 134 123 138
-0.010069013 -0.40489286 -0.67834729 144 134 146
-0.012280029 -0.40798119 -0.67834598 128 112 137
-0.012585098 -0.40639475 -0.678222 128 109 139
-0.012474203 -0.40604523 -0.67821229 128 109 140
-0.01274681 -0.40431857 -0.67809904 124 99 138
-0.012459487 -0.40455309 -0.67813444 126 103 139
-0.01284704 -0.40495881 -0.67812496 124 100 138
-0.010944566 -0.40506428 -0.6782825 139 125 144
-0.0063146208 -0.40781766 -0.67906004 107 77 65
-0.0061412877 -0.4077419 -0.67908382 105 74 61
-0.0067392779 -0.40604389 -0.67901725 93 74 68
-0.0066708373 -0.40724638 -0.67901689 104 79 70
-0.0080531174 -0.40758464 -0.67882919 118 101 100
-0.0095117548 -0.40643415 -0.67853063 136 128 135
-0.0090922164 -0.40534592 -0.67854577 131 121 127
-0.0083082523 -0.40627205 -0.6787703 113 101 104
-0.0062008807 -0.40449381 -0.67909092 76 59 52
-0.0076133246 -0.40567324 -0.67887521 101 87 87
-0.0083307298 -0.40616861 -0.67875874 113 102 105
-0.0055002747 -0.40626776 -0.67915863 89 62 52
-0.00550615 -0.40708852 -0.67915165 97 66 54
-0.072903246 -0.40991539 -0.67872757 184 176 185
-0.073270239 -0.4102796 -0.67880058 178 170 181
-0.072804101 -0.41183135 -0.67879856 189 184 192
-0.073088996 -0.40990409 -0.6787557 181 172 182
-0.074635625 -0.41086295 -0.67903769 156 145 164
-0.074146137 -0.40982464 -0.67891747 164 152 169
-0.073628165 -0.40859851 -0.67878824 174 161 176
-0.073991597 -0.4092457 -0.67887115 168 155 172
-0.074450716 -0.40990904 -0.67897016 160 147 166
-0.071149975 -0.4112986 -0.67847234 197 187 198
-0.069685593 -0.41133171 -0.67820567 195 178 199
-0.068920612 -0.41107747 -0.67804939 194 173 198
-0.069705978 -0.40990138 -0.67811972 194 175 193
-0.070944071 -0.4119305 -0.67847419 197 187 200
-0.071367025 -0.40894026 -0.67840439 193 180 191
-0.071572401 -0.41038662 -0.67851084 195 186 195
-0.071972251 -0.40930691 -0.67854267 193 185 192
-0.070039622 -0.40918157 -0.67814821 193 174 191
-0.071378514 -0.41057909 -0.67848051 196 186 196
-0.065369613 -0.41059443 -0.67747307 200 185 212
-0.067526713 -0.41152 -0.67786223 195 175 205
-0.06598489 -0.40991431 -0.67758936 198 180 211
-0.067675829 -0.41184741 -0.67788762 195 175 205
-0.064700879 -0.40987313 -0.67735487 201 188 215
-0.066825047 -0.41024452 -0.67771852 196 176 207
-0.065294586 -0.40863514 -0.67744237 199 182 212
-0.067303196 -0.40877712 -0.67768121 194 170 198
-0.065589786 -0.40831399 -0.67745608 198 179 208
-0.066073313 -0.40927935 -0.67757195 197 178 209
-0.067759633 -0.40859127 -0.67772174 193 167 193
-0.062331755 -0.41048723 -0.677082 212 208 219
-0.061558537 -0.40969896 -0.67701006 217 215 221
-0.062913969 -0.41167217 -0.67711693 205 198 217
-0.060796559 -0.41188312 -0.67684281 202 197 221
-0.061556377 -0.40922529 -0.67702514 220 219 222
-0.062211957 -0.40993398 -0.67708492 216 212 220
-0.062917441 -0.40858072 -0.67716432 211 203 219
-0.063793592 -0.40921 -0.67724782 205 195 217
-0.060798109 -0.40840587 -0.67695487 225 225 224
-0.064373128 -0.41033927 -0.67729902 202 191 215
-0.063989155 -0.41029972 -0.67726111 205 195 216
-0.06388323 -0.41047612 -0.67724955 205 196 216
-0.057538029 -0.4103744 -0.67675006 195 176 207
-0.058006097 -0.40993139 -0.67675978 194 174 205
-0.05723023 -0.40912452 -0.67674649 192 166 200
-0.056783784 -0.4108094 -0.67673498 196 177 208
-0.05784015 -0.41178578 -0.67675328 199 186 215
-0.058564734 -0.41030526 -0.67676967 195 178 208
-0.058268018 -0.40924525 -0.67678392 198 179 206
-0.059937056 -0.40997729 -0.67684299 209 202 218
-0.057857089 -0.40837011 -0.67679197 200 179 203
-0.05853907 -0.40893847 -0.67680734 203 186 208
-0.060395669 -0.41069832 -0.67684233 208 204 221
-0.05374356 -0.41095173 -0.67657071 196 182 210
-0.052855741 -0.40985268 -0.67652154 190 173 204
-0.05427457 -0.40985563 -0.67659926 189 170 201
-0.052976042 -0.40946159 -0.67652792 188 169 200
-0.055113174 -0.41144559 -0.67664593 197 183 212
-0.053484038 -0.40865752 -0.67655605 183 161 194
-0.053737279 -0.40851054 -0.67657071 184 160 194
-0.0549675 -0.4093678 -0.67663938 189 166 199
-0.056334615 -0.41067457 -0.67671508 195 176 207
-0.05500723 -0.41035184 -0.67663991 191 173 204
-0.055471059 -0.40853831 -0.67666966 188 161 195
-0.050562352 -0.41093874 -0.67639816 202 194 212
-0.051013391 -0.41052321 -0.67639482 198 190 207
-0.04936051 -0.41044742 -0.67633957 203 194 208
-0.050403614 -0.4099991 -0.67635351 197 188 203
-0.048955008 -0.41137499 -0.67636597 210 200 217
-0.052641727 -0.40976104 -0.67650807 190 173 203
-0.049898025 -0.4092328 -0.6763069 193 184 196
-0.051166575 -0.40944159 -0.67639989 191 179 199
-0.05114489 -0.40855569 -0.6763978 186 170 192
-0.051899534 -0.41036761 -0.67645401 195 183 207
-0.046257492 -0.40979126 -0.67625386 190 174 194
-0.044978019 -0.41018173 -0.67624772 192 172 195
-0.047217205 -0.40892276 -0.67623115 191 177 190
-0.044994626 -0.41131428 -0.67630172 188 168 199
-0.048122812 -0.41070038 -0.67632353 201 189 207
-0.047454644 -0.4101966 -0.67629284 192 179 198
-0.046402823 -0.41163659 -0.67633891 194 177 206
-0.045990158 -0.41128477 -0.67631823 188 170 200
-0.046691295 -0.41168419 -0.67634493 196 180 208
-0.042600937 -0.41138062 -0.6763041 181 161 189
-0.043945771 -0.41177216 -0.6763221 184 163 197
-0.04169257 -0.40994763 -0.67622709 195 175 199
-0.041716833 -0.40962756 -0.67620933 199 180 203
-0.044865619 -0.41189286 -0.67632759 186 165 201
-0.044872135 -0.4108209 -0.6762768 190 170 198
-0.041444246 -0.40902048 -0.6761784 203 184 204
-0.043833774 -0.41079172 -0.67627144 192 172 201
-0.044295482 -0.40896767 -0.6761868 198 178 194
-0.040208548 -0.40934166 -0.67621565 192 174 196
-0.040227536 -0.40878096 -0.67618406 200 182 203
-0.037761722 -0.40831679 -0.67622 187 172 195
-0.039568078 -0.41009706 -0.67627364 177 160 182
-0.038158577 -0.40836447 -0.67621273 189 174 197
-0.038788911 -0.41067523 -0.67630756 175 159 180
-0.039599925 -0.41140914 -0.67632973 170 153 174
-0.039063524 -0.41036153 -0.67629635 172 156 178
-0.03826436 -0.40982762 -0.6762808 177 162 184
-0.040497538 -0.41189533 -0.67634332 164 146 168
-0.034468953 -0.41051444 -0.67652452 162 139 163
-0.033558443 -0.40868458 -0.67649734 153 127 156
-0.033261862 -0.40938056 -0.67657316 149 123 151
-0.033963721 -0.41205224 -0.67667681 155 131 153
-0.035550158 -0.41156876 -0.67648345 173 154 173
-0.03637604 -0.40959594 -0.67632741 179 163 184
-0.034794416 -0.40866035 -0.67640644 164 142 169
-0.036602095 -0.41066915 -0.67634737 183 168 186
-0.035655763 -0.41024336 -0.67639911 174 156 176
-0.036358681 -0.40937093 -0.67632115 179 163 184
-0.031586979 -0.41098168 -0.67678946 149 128 148
-0.029604714 -0.40925333 -0.67681545 152 137 151
-0.030304849 -0.4103964 -0.67682558 152 135 150
-0.032372333 -0.4114002 -0.67676944 148 124 146
-0.030402144 -0.41172585 -0.67686951 154 138 152
-0.033092741 -0.41073313 -0.67667598 148 122 148
-0.031178961 -0.40934852 -0.67672682 149 129 149
-0.030254951 -0.40871489 -0.6767537 150 133 150
-0.031041501 -0.40826258 -0.67666584 150 130 152
-0.03167187 -0.40910462 -0.67667437 149 128 150
-0.025924385 -0.41049817 -0.67709571 162 149 167
-0.027344503 -0.41141194 -0.67702436 160 147 162
-0.026955087 -0.41192898 -0.67703468 159 148 165
-0.026123865 -0.41122198 -0.67707849 161 149 167
-0.026509089 -0.41012287 -0.67707539 162 148 164
-0.027810751 -0.40877813 -0.676947 157 142 157
-0.028544575 -0.4108257 -0.67695469 158 145 157
-0.028882546 -0.40947303 -0.67687482 154 141 154
-0.02919586 -0.40981132 -0.67685866 154 140 153
-0.028803276 -0.40930817 -0.67687607 154 140 154
-0.024684291 -0.41167757 -0.67715889 159 147 166
-0.02251314 -0.40981597 -0.6773538 154 136 149
-0.024680853 -0.41172799 -0.67715812 159 147 166
-0.021491481 -0.41048661 -0.6774143 150 135 142
-0.024965208 -0.41188177 -0.67713439 159 149 168
-0.023306167 -0.40887609 -0.677306 157 138 153
-0.024956437 -0.41126803 -0.67714417 160 148 167
-0.023509843 -0.40862751 -0.67729259 158 139 154
-0.024414245 -0.41023192 -0.67720038 159 145 162
-0.024413651 -0.40974307 -0.67720628 160 144 162
-0.019426778 -0.41093424 -0.67757928 150 137 142
-0.01783037 -0.41081259 -0.67776334 141 122 130
-0.01923286 -0.41106305 -0.6776073 147 132 139
-0.019547198 -0.41031212 -0.67754066 157 149 151
-0.018075254 -0.40872276 -0.67765254 166 162 161
-0.018398402 -0.41208902 -0.67774618 131 105 117
-0.019800387 -0.4091534 -0.6775409 158 147 151
-0.020844277 -0.41128713 -0.67743629 153 143 146
-0.021076974 -0.41076246 -0.67743319 152 139 144
-0.020926023 -0.41112721 -0.67743474 152 141 145
-0.020116685 -0.40874639 -0.67753053 157 143 149
-0.01465491 -0.41114143 -0.67824274 138 126 138
-0.014591736 -0.41133708 -0.67826343 140 130 140
-0.015569967 -0.41208869 -0.67815387 139 125 133
-0.015045714 -0.41152811 -0.67820376 138 125 136
-0.01515648 -0.4099566 -0.67809892 126 103 128
-0.017470611 -0.41021711 -0.67778474 145 128 136
-0.016393498 -0.41074282 -0.67795426 127 101 121
-0.016290886 -0.40963873 -0.67792517 138 119 135
-0.017155459 -0.41093123 -0.67785627 133 110 124
-0.015720323 -0.40888831 -0.67797464 139 123 142
-0.011305567 -0.41011804 -0.67855895 142 136 143
-0.01272504 -0.41130683 -0.67849267 148 147 149
-0.010236528 -0.41163087 -0.678747 135 111 134
-0.011147736 -0.41093668 -0.67862087 140 128 141
-0.010039249 -0.41191372 -0.67878193 134 107 132
-0.010566568 -0.41185343 -0.67872852 137 114 136
-0.013276098 -0.41068041 -0.67840612 142 137 147
-0.0127202 -0.41063169 -0.67845523 144 141 147
-0.013641088 -0.40865225 -0.67825896 126 108 138
-0.010880893 -0.40927875 -0.67855114 140 136 142
-0.010565308 -0.40894985 -0.67856222 139 134 141
-0.010614663 -0.40862989 -0.67853975 137 129 139
-0.0088392626 -0.4120329 -0.67892587 129 102 118
-0.0088808136 -0.41204992 -0.67892164 130 102 119
-0.008547104 -0.41133395 -0.67893106 126 96 110
-0.0062641948 -0.40848812 -0.67908013 110 76 64
-0.0084140608 -0.40952361 -0.67885172 125 100 107
-0.0083431657 -0.40930793 -0.67884886 125 101 106
-0.0071003549 -0.4087418 -0.67898268 116 87 81
-0.0094719557 -0.40876722 -0.67866677 134 121 130
-0.0087211402 -0.40868863 -0.67876267 128 111 115
-0.069226749 -0.41442451 -0.67818594 177 159 190
-0.068403579 -0.41426986 -0.67802209 187 169 194
-0.068732359 -0.41451305 -0.67808771 183 165 192
-0.068592094 -0.41292843 -0.67805821 189 168 198
-0.070802562 -0.41380647 -0.67848724 170 153 189
-0.069198735 -0.41237906 -0.67816949 190 171 200
-0.069477037 -0.41300175 -0.67823082 181 161 196
-0.07059136 -0.41231209 -0.678424 193 181 200
-0.0715532 -0.41350085 -0.67861998 176 164 191
-0.064581953 -0.41225588 -0.67732131 202 193 213
-0.065750249 -0.41563153 -0.67761689 184 170 188
-0.06741707 -0.41592994 -0.67787319 183 169 187
-0.066520371 -0.41594747 -0.67774183 182 168 186
-0.065331489 -0.4148829 -0.67752784 188 175 193
-0.066154331 -0.41547769 -0.67767072 185 171 189
-0.068305433 -0.41232395 -0.67800146 193 172 202
-0.065820642 -0.41247645 -0.6775474 198 186 208
-0.067276686 -0.41279685 -0.67781383 194 177 203
-0.066560417 -0.41245905 -0.67768258 197 181 206
-0.067915067 -0.41425288 -0.67793202 189 172 196
-0.062643915 -0.4144468 -0.67715496 189 179 199
-0.060670454 -0.41273877 -0.67684418 198 192 216
-0.061188955 -0.41393816 -0.67695558 194 184 206
-0.060955323 -0.41313866 -0.67689514 197 189 213
-0.061575927 -0.41366422 -0.67699242 194 185 207
-0.063394994 -0.41468862 -0.6772579 187 176 196
-0.063139185 -0.41390532 -0.67719692 192 182 202
-0.062483184 -0.41271985 -0.67707074 198 190 213
-0.061771784 -0.41218567 -0.67696142 201 194 218
-0.062576443 -0.4140754 -0.67713213 190 181 202
-0.058150508 -0.41476759 -0.67684901 191 180 201
-0.056844655 -0.41297433 -0.67675948 196 184 211
-0.057975192 -0.41508296 -0.67685181 189 180 200
-0.057175081 -0.41503084 -0.67682487 189 182 201
-0.057554185 -0.41307729 -0.67678493 197 183 209
-0.057040486 -0.41426927 -0.67680025 192 183 205
-0.060381483 -0.41267833 -0.67682344 199 192 217
-0.060486563 -0.41566789 -0.67694408 190 176 193
-0.058680177 -0.41400343 -0.67684376 194 181 203
-0.059218373 -0.41444108 -0.6768713 193 180 201
-0.057996321 -0.41303787 -0.6767925 197 184 210
-0.05396045 -0.41353181 -0.67662472 196 189 212
-0.053748231 -0.41338977 -0.67661065 197 189 212
-0.053662315 -0.41552657 -0.67670435 181 161 191
-0.054545142 -0.41573682 -0.67674571 181 167 193
-0.053819563 -0.41347444 -0.67661703 196 188 212
-0.054550942 -0.41314584 -0.67664313 198 190 213
-0.055127311 -0.41353855 -0.67668515 196 188 211
-0.053873967 -0.41257611 -0.67659086 201 192 217
-0.054784462 -0.41381738 -0.67667377 195 189 210
-0.055229925 -0.41238752 -0.67666012 200 189 216
-0.056023691 -0.41366979 -0.67673773 194 186 209
-0.051104974 -0.41549999 -0.67662203 187 167 194
-0.049530491 -0.41600537 -0.67660224 196 183 201
-0.048828587 -0.41418755 -0.67649406 208 198 214
-0.050288629 -0.41595945 -0.67662138 191 174 197
-0.051564842 -0.41528279 -0.67662442 185 162 193
-0.052114062 -0.41269073 -0.67652285 201 190 215
-0.052408699 -0.41550258 -0.67665952 179 154 188
-0.052330282 -0.41502571 -0.67663544 183 160 193
-0.052434146 -0.41467604 -0.67662287 185 164 196
-0.050971635 -0.41378868 -0.67653662 196 179 206
-0.045842141 -0.41493186 -0.67647362 178 161 182
-0.047247149 -0.41496393 -0.67650551 191 177 198
-0.045463484 -0.41549069 -0.67648828 171 154 172
-0.045569755 -0.41334623 -0.67640275 185 166 196
-0.045283549 -0.4132098 -0.67639095 183 163 194
-0.048723429 -0.41534233 -0.67654878 202 192 207
-0.048733074 -0.41365013 -0.67646658 209 199 216
-0.047149118 -0.41259557 -0.67639297 201 186 212
-0.04845003 -0.41256937 -0.67641002 211 200 220
-0.048334964 -0.41383499 -0.67646998 205 194 213
-0.041515678 -0.41340217 -0.67641497 160 140 160
-0.04223254 -0.41387805 -0.67642802 161 141 161
-0.043369364 -0.41564038 -0.67650837 161 141 157
-0.041737847 -0.4146865 -0.67648625 159 138 155
-0.04185053 -0.41401666 -0.67644429 160 140 159
-0.044791915 -0.41337991 -0.67639041 177 157 187
-0.044482734 -0.41275832 -0.67636585 179 159 191
-0.0432023 -0.4124108 -0.67635518 173 153 182
-0.044368252 -0.41482377 -0.67645073 166 147 168
-0.044559769 -0.41279104 -0.67636693 179 159 191
-0.04488457 -0.41555747 -0.67647934 165 147 165
-0.038896244 -0.41497988 -0.67653304 165 146 163
-0.039479401 -0.41524041 -0.67654437 163 142 159
-0.039098963 -0.41498783 -0.67653149 165 145 162
-0.037163205 -0.41487247 -0.67654401 165 149 172
-0.037752047 -0.41470125 -0.67652643 167 150 170
-0.040847942 -0.41354322 -0.67643428 161 140 159
-0.038898982 -0.41274506 -0.67639256 176 159 175
-0.038689665 -0.41251159 -0.67637932 177 161 178
-0.039373145 -0.41211841 -0.67635417 173 156 175
-0.039432053 -0.41281024 -0.67639494 172 154 171
-0.034100536 -0.41574478 -0.67678046 164 154 167
-0.034670591 -0.41532519 -0.676741 160 146 164
-0.033837844 -0.41486534 -0.67677754 160 146 161
-0.034168921 -0.41361263 -0.67673469 152 130 153
-0.033288285 -0.41398773 -0.67679036 157 140 156
-0.035166223 -0.41393429 -0.67667991 152 130 156
-0.035644457 -0.41257536 -0.67654043 169 151 170
-0.03601107 -0.41412303 -0.67660642 160 141 164
-0.036084641 -0.41345498 -0.67655432 167 148 169
-0.036316678 -0.41494501 -0.6766302 156 137 163
-0.03680101 -0.41470265 -0.67656463 164 146 170
-0.031844988 -0.41597676 -0.6769008 160 149 162
-0.029823041 -0.41344485 -0.67693925 156 143 156
-0.029768713 -0.41410798 -0.67695791 153 139 154
-0.031189311 -0.4156245 -0.67692459 157 145 159
-0.029451368 -0.41308755 -0.67694896 155 142 155
-0.031642091 -0.41497275 -0.67688662 162 153 163
-0.030297622 -0.41302031 -0.67690611 160 149 159
-0.032595888 -0.41410026 -0.67682445 159 146 159
-0.031763744 -0.41225979 -0.67682546 151 131 150
-0.029727038 -0.41246575 -0.67692077 158 147 157
-0.030194372 -0.41263291 -0.67690307 158 145 156
-0.025755417 -0.41412652 -0.67716378 142 126 148
-0.027409548 -0.41461673 -0.6770829 147 130 153
-0.027334383 -0.41438559 -0.67707759 149 133 156
-0.028049363 -0.41511139 -0.67706484 145 128 151
-0.026830411 -0.41408941 -0.67709589 149 133 156
-0.027774837 -0.41501048 -0.67707741 145 127 151
-0.027373897 -0.4127275 -0.67702961 157 144 162
-0.029249139 -0.41234922 -0.6769408 157 144 155
-0.028133236 -0.4134191 -0.67701399 154 140 158
-0.028032193 -0.41313681 -0.67701149 155 141 159
-0.027657116 -0.41357949 -0.67703807 153 139 160
-0.022365807 -0.41568321 -0.67753404 126 110 125
-0.021599587 -0.41291654 -0.67742431 144 132 139
-0.022340396 -0.41392332 -0.67742026 137 123 133
-0.023234641 -0.41426319 -0.67735761 134 118 131
-0.021664131 -0.41518551 -0.67756802 130 116 127
-0.024014484 -0.41458988 -0.67730606 131 114 130
-0.025101783 -0.41469589 -0.67723191 133 116 136
-0.024544217 -0.4129844 -0.67719817 149 136 154
-0.023988092 -0.41230005 -0.6772089 155 144 159
-0.023918269 -0.41223821 -0.67721128 155 144 159
-0.023575842 -0.41250345 -0.67724752 151 140 153
-0.01800767 -0.41328815 -0.67787564 128 102 118
-0.018835528 -0.41433793 -0.6778484 129 107 122
-0.020128259 -0.41586086 -0.6777975 129 113 128
-0.019774847 -0.4158904 -0.67784363 131 114 130
-0.01778926 -0.41334149 -0.67790663 129 103 119
-0.0183082 -0.41588679 -0.67802584 136 118 136
-0.020167079 -0.41374868 -0.67764604 131 112 124
-0.019067561 -0.41288573 -0.67771912 130 106 119
-0.021393333 -0.41347736 -0.67748308 141 128 135
-0.021427443 -0.41593704 -0.67764151 126 110 123
-0.020796616 -0.41213697 -0.67746514 145 131 137
-0.014729927 -0.41501835 -0.67844963 142 139 152
-0.015031815 -0.41396034 -0.67835993 145 141 149
-0.016448611 -0.41558829 -0.67825276 140 128 145
-0.01438474 -0.41389862 -0.67844135 146 144 152
-0.013714085 -0.41289413 -0.67848086 149 151 154
-0.014160731 -0.4130452 -0.67842984 148 148 152
-0.017281231 -0.41289827 -0.67794693 130 105 120
-0.016468024 -0.41400072 -0.67815244 139 124 137
-0.015833072 -0.41298136 -0.67817724 140 127 136
-0.016825007 -0.41342708 -0.67805576 135 115 129
-0.017321968 -0.41328934 -0.6779688 131 107 122
-0.014881578 -0.41326675 -0.6783452 147 143 149
-0.010158944 -0.41282678 -0.67882395 131 104 130
-0.010701514 -0.4131051 -0.6787793 133 111 136
-0.012464336 -0.41590902 -0.67877132 128 123 138
-0.010444514 -0.41416922 -0.67888677 123 100 121
-0.011443058 -0.41437995 -0.67878282 131 115 136
-0.010985903 -0.41380394 -0.67879575 131 111 134
-0.011793725 -0.41382387 -0.67870855 137 123 144
-0.012545292 -0.41303942 -0.67860001 143 136 148
-0.011528437 -0.41378862 -0.67873198 135 120 143
-0.01346495 -0.41455746 -0.67858517 142 143 155
-0.013046131 -0.41216007 -0.67851073 148 145 150
-0.0093846293 -0.41244414 -0.6788885 129 100 122
-0.0089059556 -0.41257367 -0.67895466 126 100 115
-0.066455781 -0.4162733 -0.67774689 180 165 184
-0.061164778 -0.41800043 -0.6771279 177 166 185
-0.061790943 -0.41742706 -0.67719263 177 160 186
-0.062837102 -0.4186894 -0.67739224 166 148 183
-0.063131899 -0.41935486 -0.67746127 162 144 181
-0.063107952 -0.41756123 -0.67736572 173 155 184
-0.06410262 -0.41735137 -0.67747581 172 155 183
-0.063525692 -0.41679269 -0.67737174 177 161 184
-0.063997425 -0.41731134 -0.67746049 172 155 183
-0.064001277 -0.41841877 -0.67752647 165 145 182
-0.059557512 -0.4161481 -0.67693281 187 176 192
-0.058566932 -0.41633925 -0.67690897 185 178 194
-0.056818549 -0.41617087 -0.67684603 184 182 198
-0.052871868 -0.41807589 -0.67677581 164 137 175
-0.052938271 -0.41688144 -0.67673391 170 143 179
-0.052778751 -0.41755298 -0.67675233 166 139 177
-0.053149559 -0.41840976 -0.67679983 162 136 173
-0.0531528 -0.41848186 -0.67680264 162 136 173
-0.053194325 -0.417676 -0.67677426 166 140 176
-0.056545589 -0.41649151 -0.67685097 181 177 194
-0.055265203 -0.41641116 -0.67680138 178 166 189
-0.056600045 -0.41613594 -0.67683768 184 181 197
-0.056191035 -0.41721994 -0.67686957 176 165 186
-0.053894293 -0.41702148 -0.67677814 171 146 178
-0.048912622 -0.41647714 -0.67661148 196 186 202
-0.048896246 -0.41904807 -0.67676806 171 163 189
-0.050423458 -0.41872829 -0.67675561 170 155 184
-0.048967738 -0.41859517 -0.67674083 175 166 191
-0.049809612 -0.41810918 -0.67671508 178 165 190
-0.051069405 -0.41753817 -0.67670304 177 158 186
-0.051262956 -0.41658637 -0.67667288 181 160 189
-0.052272703 -0.41830456 -0.67676556 165 141 177
-0.052087087 -0.4172655 -0.67672151 172 148 182
-0.052245233 -0.41830924 -0.67676497 165 141 177
-0.048129857 -0.41689754 -0.6766215 185 174 192
