ply
format ascii 1.0
comment PCL generated
element vertex 1048
property float x
property float y
property float z
property uchar red
property uchar green
property uchar blue
element camera 0
property float view_px
property float view_py
property float view_pz
property float x_axisx
property float x_axisy
property float x_axisz
property float y_axisx
property float y_axisy
property float y_axisz
property float z_axisx
property float z_axisy
property float z_axisz
property float focal
property float scalex
property float scaley
property float centerx
property float centery
property int viewportx
property int viewporty
property float k1
property float k2
end_header
-0.14874043 -0.41353723 -0.72134882 125 116 113
-0.15003601 -0.41444045 -0.72270924 113 104 103
-0.15033422 -0.41331717 -0.72295475 111 106 102
-0.14959 -0.41436264 -0.72225279 117 107 107
-0.1496281 -0.41472235 -0.72230971 117 106 106
-0.14979288 -0.41274917 -0.72237664 116 112 106
-0.14959568 -0.41528562 -0.72230482 117 104 106
-0.14894508 -0.41494223 -0.72160941 124 110 109
-0.14938548 -0.41567823 -0.72208029 120 105 103
-0.15018575 -0.42284262 -0.72293597 135 93 103
-0.15014063 -0.4215048 -0.72297251 123 88 97
-0.15048108 -0.42908528 -0.72232944 158 138 131
-0.15061495 -0.43018869 -0.72218782 161 141 137
-0.15075372 -0.42955235 -0.7225973 160 139 133
-0.1503315 -0.4313947 -0.72140682 164 144 144
-0.15218563 -0.43494672 -0.72293115 138 129 138
-0.15156743 -0.43276921 -0.72277462 157 140 141
-0.15161091 -0.434257 -0.72234106 145 133 140
-0.1516889 -0.43458831 -0.7223655 143 132 140
-0.15041552 -0.43312868 -0.72109741 158 142 147
-0.15095389 -0.43345448 -0.72169763 153 138 144
-0.15086126 -0.43344936 -0.72158319 153 139 145
-0.15147434 -0.4366689 -0.72190195 143 133 146
-0.15221567 -0.43577212 -0.72281504 135 127 138
-0.15187764 -0.4376139 -0.72241789 143 132 146
-0.15061502 -0.43577623 -0.72081763 147 136 150
-0.15082222 -0.43647477 -0.72108167 147 136 150
-0.15036699 -0.43637308 -0.72047704 150 138 152
-0.15232576 -0.44071239 -0.72274888 141 126 143
-0.15224795 -0.43982655 -0.72281879 145 131 147
-0.15230086 -0.43960482 -0.72293425 145 132 148
-0.15215746 -0.44003633 -0.72265488 145 131 147
-0.1625658 -0.40507412 -0.73811024 92 73 77
-0.1627982 -0.40664712 -0.73848647 94 79 84
-0.16233175 -0.40810126 -0.73766506 94 81 86
-0.16211075 -0.40576857 -0.73737627 92 73 77
-0.16102132 -0.40673974 -0.73602748 105 83 85
-0.16147158 -0.40584129 -0.73660743 99 77 80
-0.16063015 -0.40786389 -0.73550785 110 89 90
-0.16107824 -0.40777472 -0.73604786 105 86 88
-0.16190994 -0.40780553 -0.73704118 95 81 84
-0.16262433 -0.40823758 -0.73817998 94 83 89
-0.16310742 -0.41123092 -0.73861748 83 68 68
-0.1627937 -0.41153607 -0.73808414 81 66 64
-0.16219878 -0.41086775 -0.73723036 83 68 66
-0.16079305 -0.41197386 -0.73582315 87 69 70
-0.16105467 -0.41042334 -0.73615891 91 75 78
-0.16105299 -0.41132173 -0.73610145 88 71 72
-0.16101532 -0.41178221 -0.73603833 86 69 69
-0.16005197 -0.40990269 -0.73499686 105 84 87
-0.16008286 -0.41093779 -0.73515332 97 78 82
-0.16007319 -0.41028655 -0.73506659 102 82 85
-0.16108911 -0.40978992 -0.73622435 94 78 83
-0.16039856 -0.40893063 -0.73529917 108 87 89
-0.16218594 -0.4125244 -0.73721635 77 61 56
-0.16229653 -0.41309109 -0.73749542 77 60 56
-0.16230471 -0.41316888 -0.7375232 77 59 56
-0.1624801 -0.41581112 -0.73824251 78 56 56
-0.16220385 -0.4148308 -0.73758185 79 59 58
-0.16167459 -0.41296872 -0.73662549 77 58 55
-0.16189809 -0.41369414 -0.73699242 78 59 57
-0.16091084 -0.41564971 -0.73610067 78 52 54
-0.16178215 -0.4126606 -0.73670918 77 59 55
-0.16177985 -0.41350111 -0.73682529 78 59 56
-0.16168593 -0.41235855 -0.73662573 79 62 59
-0.16074011 -0.41264281 -0.73575473 84 65 65
-0.15983054 -0.41327441 -0.73490936 87 64 69
-0.16007482 -0.41346687 -0.73512852 85 62 65
-0.16235913 -0.41869432 -0.73847312 83 62 59
-0.16245338 -0.41745436 -0.73845208 80 59 57
-0.16216023 -0.41848248 -0.73801583 84 64 61
-0.1609427 -0.41832858 -0.7361306 87 60 61
-0.16148764 -0.41960454 -0.73711503 88 65 62
-0.16152757 -0.4195489 -0.73716748 88 65 62
-0.16179127 -0.41847435 -0.73741984 85 63 61
-0.16159041 -0.41718525 -0.73694861 84 60 60
-0.16167814 -0.4176954 -0.73714745 84 61 61
-0.16155052 -0.416621 -0.73688155 82 58 59
-0.15992682 -0.41770729 -0.73491085 83 51 55
-0.16029651 -0.41856804 -0.73530889 87 57 60
-0.15994392 -0.41961813 -0.73484367 90 59 62
-0.15993161 -0.41798669 -0.73490375 84 52 56
-0.1623676 -0.42100105 -0.73863566 80 61 57
-0.16224739 -0.42308438 -0.7382375 70 55 54
-0.16108648 -0.42214191 -0.73658752 81 62 63
-0.16047245 -0.42269811 -0.73573273 82 61 65
-0.1600792 -0.42359552 -0.73515344 79 59 65
-0.16086163 -0.42221335 -0.73628223 82 62 64
-0.16181786 -0.4211399 -0.73762554 82 64 61
-0.16153637 -0.42319202 -0.73712784 73 56 58
-0.1610176 -0.4213371 -0.73650235 85 63 64
-0.16103883 -0.42092043 -0.73651981 86 63 64
-0.16155902 -0.42015064 -0.73727179 88 65 63
-0.15983745 -0.42376113 -0.73481977 80 59 66
-0.1599766 -0.42247385 -0.73498362 83 59 65
-0.16030042 -0.42090911 -0.73541427 88 61 64
-0.16247687 -0.42532641 -0.73848224 76 62 61
-0.16218515 -0.42652282 -0.73750895 86 72 71
-0.16217512 -0.42466846 -0.73785728 72 59 58
-0.16241653 -0.42744064 -0.7379182 92 78 76
-0.16208418 -0.42666465 -0.73725682 88 73 73
-0.16069968 -0.42754847 -0.73551935 97 76 81
-0.16195509 -0.42561346 -0.73732346 80 65 65
-0.16199888 -0.42631516 -0.73723119 85 70 70
-0.16180687 -0.42622578 -0.73703301 85 69 70
-0.16104117 -0.42549297 -0.73627687 81 63 66
-0.16047612 -0.42395952 -0.73565918 76 57 63
-0.16114379 -0.42420429 -0.73653084 73 57 60
-0.16024265 -0.42385319 -0.73535627 77 57 64
-0.16010962 -0.42700246 -0.73489326 95 73 79
-0.16238837 -0.42874572 -0.73780793 96 80 77
-0.16242513 -0.42810178 -0.73788887 95 80 78
-0.16237018 -0.42923257 -0.73777151 97 79 77
-0.16248736 -0.43033487 -0.73809844 98 79 75
-0.16257961 -0.43107533 -0.73835438 99 78 74
-0.16204649 -0.42800495 -0.73699844 97 81 80
-0.16107245 -0.43014258 -0.73580158 96 80 80
-0.16199124 -0.43125975 -0.73707736 102 85 80
-0.16141725 -0.42976937 -0.73624325 97 81 80
-0.1608441 -0.42879406 -0.73559016 97 78 81
-0.16048877 -0.42911363 -0.73517358 97 78 81
-0.16106838 -0.42942253 -0.73581046 96 79 81
-0.16045222 -0.43117827 -0.73502648 95 79 81
-0.16249323 -0.43358457 -0.7384553 95 74 71
-0.16230956 -0.43249089 -0.73785627 99 81 75
-0.16228458 -0.43361208 -0.73795867 96 77 73
-0.16225509 -0.43527535 -0.73812234 87 67 65
-0.16148387 -0.43455473 -0.73678988 92 72 70
-0.1614053 -0.43511221 -0.73675883 90 69 68
-0.16131048 -0.43442643 -0.73652905 94 73 72
-0.16127637 -0.43469042 -0.73651874 92 72 71
-0.16097669 -0.43403527 -0.73600668 97 77 76
-0.16114974 -0.43190598 -0.73600227 99 82 80
-0.16022855 -0.43383512 -0.73497623 96 76 78
-0.16112213 -0.43243527 -0.73602051 99 81 79
-0.16156431 -0.43215749 -0.73658043 101 84 79
-0.16263157 -0.43877015 -0.73859936 91 66 76
-0.16220599 -0.43794757 -0.7377128 89 67 73
-0.16256665 -0.43903685 -0.73840928 91 67 77
-0.16140255 -0.4390004 -0.73640674 96 77 83
-0.161458 -0.43896496 -0.73648518 95 76 82
-0.16093777 -0.4391889 -0.73576307 100 82 87
-0.16065797 -0.4393068 -0.73537499 102 86 89
-0.16048242 -0.43742862 -0.73534173 98 79 81
-0.16145034 -0.43582183 -0.73685604 88 68 67
-0.16119635 -0.43670347 -0.73641288 92 73 73
-0.16162342 -0.43619847 -0.73706073 88 69 68
-0.1609191 -0.43767405 -0.7359283 96 79 79
-0.16224657 -0.44253936 -0.73838341 89 52 90
-0.16262066 -0.44002613 -0.7386241 92 64 81
-0.16211325 -0.44214714 -0.73801613 88 53 89
-0.1619316 -0.44294697 -0.73793983 88 50 93
-0.16131769 -0.441645 -0.7366159 94 70 90
-0.16162841 -0.44206014 -0.73722076 92 62 90
-0.16110948 -0.44157615 -0.73626667 96 74 90
-0.16143733 -0.44149935 -0.73676705 94 69 89
-0.16161186 -0.4407346 -0.73683983 93 71 86
-0.16022189 -0.4421531 -0.73509723 102 84 96
-0.16149919 -0.43965772 -0.73649973 96 76 85
-0.16053414 -0.43947852 -0.73519385 103 87 91
-0.16189291 -0.4398286 -0.73704416 93 72 82
-0.16055705 -0.4417648 -0.735497 100 81 93
-0.16201662 -0.44568419 -0.73867142 87 52 93
-0.16115569 -0.4446291 -0.73709965 93 64 95
-0.16180009 -0.4437992 -0.737939 89 51 94
-0.16190237 -0.44354159 -0.73804426 88 49 94
-0.17291935 -0.39915785 -0.7540105 69 39 37
-0.17303039 -0.39911634 -0.75419122 70 39 37
-0.17241272 -0.3987444 -0.7532053 66 38 39
-0.17187597 -0.39996183 -0.75229949 68 38 41
-0.17251615 -0.39827994 -0.75338715 65 38 39
-0.17248115 -0.39950523 -0.75329161 69 38 39
-0.17218609 -0.4019821 -0.75374383 71 42 45
-0.17253116 -0.40144011 -0.75401151 72 41 42
-0.1721694 -0.40092051 -0.75292033 70 40 41
-0.16993095 -0.4156498 -0.75108737 75 48 59
-0.1701722 -0.41593367 -0.75206649 73 50 57
-0.17007627 -0.41461107 -0.75104249 75 45 60
-0.17034534 -0.41275778 -0.75103158 75 43 61
-0.17062707 -0.41505358 -0.75317889 70 50 57
-0.17023541 -0.41482189 -0.75170201 73 47 59
-0.17068547 -0.41508117 -0.75339669 70 51 56
-0.17070334 -0.41681868 -0.75378561 73 57 59
-0.1701397 -0.41641462 -0.75192279 75 52 59
-0.17016444 -0.41643557 -0.75200403 75 53 59
-0.17077051 -0.41698161 -0.753986 73 58 59
-0.1706831 -0.41950157 -0.75351256 86 68 70
-0.17033747 -0.41782621 -0.75246638 80 59 65
-0.16992538 -0.41740921 -0.751531 80 55 63
-0.16923159 -0.41889581 -0.75096476 86 58 67
-0.16932975 -0.41955486 -0.75121605 89 61 69
-0.16963978 -0.41752723 -0.75119877 81 54 63
-0.16962516 -0.41671383 -0.75097853 77 51 60
-0.16964987 -0.41606858 -0.7507503 75 49 58
-0.17035744 -0.42345586 -0.75420421 76 54 53
-0.17012757 -0.42045844 -0.75264025 87 63 69
-0.17074493 -0.41999814 -0.7537511 87 70 71
-0.17073564 -0.42004591 -0.75374925 87 70 71
-0.16997573 -0.42243081 -0.75317788 79 55 59
-0.16946828 -0.42180786 -0.75214422 85 60 65
-0.16934349 -0.42252791 -0.7522651 82 58 63
-0.16949029 -0.42294562 -0.75266778 80 56 59
-0.16960025 -0.42366624 -0.75314516 76 53 55
-0.16859949 -0.42359266 -0.75159514 83 59 63
-0.1684842 -0.42102888 -0.75054663 90 62 69
-0.16810326 -0.42305484 -0.75062966 89 63 69
-0.16847467 -0.4205589 -0.7504065 90 61 69
-0.16862226 -0.42429322 -0.75190049 83 57 60
-0.16933598 -0.42692688 -0.75394237 80 49 48
-0.16953237 -0.42592305 -0.75387478 78 49 49
-0.1681155 -0.42423037 -0.75110877 86 61 65
-0.16859214 -0.42455482 -0.75195003 83 57 60
-0.16816789 -0.42562294 -0.75094521 86 60 61
-0.16828638 -0.42702365 -0.75054818 85 61 58
-0.16893977 -0.42763698 -0.75268227 82 53 50
-0.16886489 -0.42772302 -0.75234258 83 54 51
-0.16887206 -0.42753485 -0.75248444 83 54 51
-0.16841955 -0.42728177 -0.75090212 84 59 56
-0.16910689 -0.43140537 -0.75267071 67 48 49
-0.16968104 -0.4308973 -0.75388741 62 41 41
-0.16975993 -0.43063372 -0.75411606 62 41 40
-0.16923587 -0.43043169 -0.75320101 70 47 47
-0.16857114 -0.43045175 -0.75195485 79 55 57
-0.16940109 -0.42855278 -0.75409049 76 47 45
-0.16832948 -0.42905393 -0.75083631 83 59 58
-0.16828199 -0.429003 -0.7506327 83 60 59
-0.16817814 -0.42988592 -0.7506054 83 60 61
-0.16830096 -0.43050608 -0.75133729 81 58 60
-0.16854563 -0.42985493 -0.75200242 81 56 57
-0.16803937 -0.43096426 -0.75052619 82 61 64
-0.16972326 -0.43223849 -0.75427526 57 39 39
-0.16898578 -0.43314224 -0.75363487 67 47 50
-0.16813509 -0.4330982 -0.75198787 78 58 63
-0.16965275 -0.43217704 -0.75409693 58 40 40
-0.16912012 -0.43321025 -0.75394553 65 46 48
-0.16860031 -0.43342271 -0.75313765 72 52 56
-0.16859679 -0.4340964 -0.75368983 72 51 56
-0.16779536 -0.4341245 -0.75059789 85 62 62
-0.16815586 -0.43524233 -0.75336552 78 56 61
-0.16805632 -0.4351925 -0.75271213 80 57 61
-0.16797014 -0.43311331 -0.75127542 81 60 63
-0.16816813 -0.43480811 -0.75325781 78 56 61
-0.16784552 -0.43838948 -0.75245911 71 40 50
-0.16790482 -0.43828979 -0.75266606 70 40 50
-0.16842647 -0.43943173 -0.75418514 64 32 41
-0.16823924 -0.4377256 -0.75383335 70 42 50
-0.16736701 -0.43925837 -0.75077963 71 37 49
-0.16824175 -0.43688256 -0.75396734 72 46 54
-0.16741018 -0.43801931 -0.75041205 77 46 53
-0.16798416 -0.4365072 -0.75304699 75 50 57
-0.16736491 -0.43842614 -0.75039643 76 44 51
-0.16772655 -0.43729439 -0.75193697 76 47 55
-0.1677563 -0.43609568 -0.75132489 82 57 58
-0.16791736 -0.44287992 -0.75412989 67 41 53
-0.16795692 -0.44270495 -0.75417352 67 41 53
-0.1678994 -0.44240466 -0.75387388 66 38 51
-0.16723062 -0.44290665 -0.75209057 63 30 51
-0.16669838 -0.44334346 -0.75068712 60 24 51
-0.16762155 -0.44096699 -0.75240231 63 28 45
-0.16767876 -0.44057363 -0.75237262 64 30 45
-0.16730395 -0.44166037 -0.75175244 62 27 47
-0.16814776 -0.44008568 -0.75362498 63 30 42
-0.16697049 -0.44175255 -0.75072283 64 28 49
-0.16757339 -0.44666705 -0.7536931 70 42 64
-0.16789243 -0.44348565 -0.75427794 68 43 56
-0.16775924 -0.44475138 -0.75384772 69 43 59
-0.16764887 -0.44542512 -0.7523756 70 46 61
-0.16763668 -0.44612411 -0.75407124 70 42 63
-0.16696373 -0.44476077 -0.75061297 64 33 57
-0.16763502 -0.44368219 -0.75328946 66 40 56
-0.16741847 -0.44685581 -0.75066578 71 48 65
-0.1673182 -0.44543341 -0.75125241 68 41 60
-0.1673598 -0.44640684 -0.75077033 70 46 63
-0.16749357 -0.44362524 -0.75290251 65 38 55
-0.16732748 -0.45020708 -0.75314236 71 53 65
-0.16756445 -0.44994912 -0.75378639 71 52 64
-0.16724846 -0.44838047 -0.75334203 71 45 67
-0.1675574 -0.448755 -0.75402755 71 47 65
-0.16723323 -0.44912323 -0.75314331 71 48 67
-0.1668056 -0.45018038 -0.75185311 72 53 69
-0.16742457 -0.44756788 -0.75348675 71 43 66
-0.16726905 -0.44783396 -0.7509675 71 49 67
-0.16751121 -0.44727436 -0.75359094 71 42 66
-0.16662441 -0.45005533 -0.75052851 72 55 70
-0.16669126 -0.44991338 -0.75136459 72 53 70
-0.16684367 -0.44939852 -0.75156111 72 51 69
-0.16647162 -0.45188087 -0.75180215 73 59 69
-0.16635674 -0.45297116 -0.75300264 77 64 68
-0.16625494 -0.4523477 -0.75190389 75 61 70
-0.16675054 -0.4527888 -0.75372398 76 63 66
-0.16714245 -0.45218602 -0.75386852 74 61 64
-0.1665016 -0.45318866 -0.75365514 78 65 67
-0.16771369 -0.45118675 -0.75391293 71 57 63
-0.16581854 -0.45305252 -0.75191593 73 60 67
-0.16530806 -0.45396838 -0.75147426 83 68 75
-0.16561756 -0.4543142 -0.75322527 75 62 63
-0.16498323 -0.45469782 -0.75143468 89 73 79
-0.16560608 -0.45353734 -0.7519027 77 63 70
-0.16534933 -0.45337412 -0.75065374 84 67 78
-0.16585159 -0.4529829 -0.75191027 73 60 67
-0.16599315 -0.45227322 -0.75117695 74 60 71
-0.1647101 -0.45770621 -0.752617 62 50 50
-0.16449058 -0.45842934 -0.75368023 73 56 60
-0.16471617 -0.45774099 -0.75417829 76 60 63
-0.16525593 -0.456038 -0.75374156 70 58 56
-0.16517864 -0.45628998 -0.75404185 73 60 59
-0.1646533 -0.45597786 -0.7510373 81 67 71
-0.16506353 -0.45548332 -0.75247365 79 66 67
-0.16485204 -0.45581681 -0.75175381 79 65 68
-0.16534643 -0.45565286 -0.75359833 70 59 56
-0.16510539 -0.45618856 -0.75281888 67 56 54
-0.16452439 -0.45804244 -0.75108802 52 43 42
-0.1640458 -0.45962024 -0.75083911 56 34 50
-0.16414562 -0.45936617 -0.75134015 57 39 49
-0.16403212 -0.4596571 -0.75083816 57 33 51
-0.16412911 -0.45946914 -0.75331229 77 50 67
-0.16427428 -0.4590036 -0.75080484 47 38 38
-0.16378157 -0.46032092 -0.75045788 63 26 60
-0.17846033 -0.39096671 -0.7661019 71 49 60
-0.17799988 -0.40001929 -0.76988417 72 46 45
-0.17685007 -0.39688045 -0.76724589 67 45 47
-0.1766504 -0.39859822 -0.76685405 72 45 45
-0.1770182 -0.39914358 -0.76619643 72 44 45
-0.17731695 -0.39853254 -0.76604176 70 43 45
-0.17565846 -0.39703766 -0.76865983 70 48 46
-0.17619887 -0.39810696 -0.76759714 72 46 45
-0.1763766 -0.39868706 -0.76716548 73 46 45
-0.17586362 -0.39777419 -0.76963431 72 48 46
-0.177239 -0.3989706 -0.76991361 72 48 48
-0.1751247 -0.39706621 -0.76938796 72 50 46
-0.17616494 -0.39836964 -0.76916367 72 47 45
-0.17702648 -0.40013701 -0.76728177 75 45 43
-0.17663059 -0.39992958 -0.76665539 76 45 44
-0.17686072 -0.40033546 -0.766316 76 44 43
-0.17755099 -0.40107056 -0.76913214 74 44 43
-0.17768154 -0.40091693 -0.76934695 73 44 43
-0.17738636 -0.40123233 -0.76883692 75 45 43
-0.17715836 -0.40126875 -0.76823127 76 45 43
-0.17732632 -0.40041313 -0.76754737 74 44 43
-0.17679968 -0.40056077 -0.76623505 77 45 44
-0.17692897 -0.40079755 -0.76692945 76 45 44
-0.17544276 -0.40367258 -0.76618659 80 49 48
-0.17601116 -0.40351614 -0.76783389 81 48 46
-0.1756946 -0.40314451 -0.76626688 79 48 47
-0.17672722 -0.40078604 -0.76632285 77 45 44
-0.17620042 -0.40312594 -0.76790369 80 48 46
-0.17635123 -0.40396637 -0.76958948 82 48 45
-0.17554699 -0.40687707 -0.76903325 67 43 51
-0.17520958 -0.40755481 -0.76976037 61 42 56
-0.17542957 -0.40723103 -0.76900065 65 43 52
-0.17611825 -0.40490338 -0.76980031 79 47 47
-0.17531458 -0.40740746 -0.76938039 63 42 54
-0.17571242 -0.40659529 -0.76855463 70 44 48
-0.17522517 -0.40521699 -0.766047 77 48 48
-0.17539015 -0.40613741 -0.76628113 73 46 46
-0.1758756 -0.40563127 -0.76804674 76 46 45
-0.17559578 -0.40460917 -0.76746917 80 48 47
-0.17541525 -0.40490824 -0.76677537 78 48 48
-0.17522085 -0.40459767 -0.76624036 79 49 49
-0.17590679 -0.41159201 -0.76840699 63 42 60
-0.17550381 -0.41007277 -0.76920748 61 42 61
-0.17522632 -0.40898925 -0.76983827 61 42 62
-0.17556086 -0.41079023 -0.76802492 54 38 55
-0.1757538 -0.41075182 -0.76927149 66 45 63
-0.17521638 -0.40880901 -0.76833349 56 39 53
-0.17548107 -0.40919816 -0.76659811 57 39 46
-0.17524938 -0.40892389 -0.76813763 56 39 52
-0.17513722 -0.40861577 -0.76882851 56 40 55
-0.17529559 -0.40836781 -0.76764095 60 41 50
-0.17623788 -0.41363543 -0.7698496 77 51 76
-0.17615567 -0.41368636 -0.76883137 69 47 63
-0.17602991 -0.41572413 -0.76887095 65 46 69
-0.17598629 -0.41470802 -0.76748055 56 41 49
-0.17598832 -0.41519234 -0.76790112 58 42 56
-0.17612907 -0.41527468 -0.7697829 73 50 79
-0.17590395 -0.41448945 -0.76693273 51 37 45
-0.17605643 -0.41227847 -0.76818466 64 43 60
-0.17574899 -0.41290402 -0.76623482 45 32 44
-0.1757784 -0.41467375 -0.76614726 43 33 39
-0.17594628 -0.41426665 -0.76722175 54 39 48
-0.17552201 -0.41965264 -0.76702315 75 46 49
-0.1758496 -0.41756815 -0.76868778 74 49 68
-0.1758053 -0.41815794 -0.76869774 72 48 65
-0.17561013 -0.41941643 -0.76771843 73 46 53
-0.17566754 -0.41984162 -0.76861376 68 46 56
-0.1756956 -0.41711146 -0.76620913 53 38 39
-0.1756708 -0.41779938 -0.76677483 64 42 47
-0.17580605 -0.41681203 -0.7672475 59 41 51
-0.17579198 -0.41747051 -0.7679137 70 46 61
-0.17573485 -0.41678989 -0.76630116 51 37 40
-0.1744509 -0.42366287 -0.76649868 79 52 71
-0.17485353 -0.42304665 -0.76783758 82 58 75
-0.17489317 -0.42374 -0.76843417 95 71 85
-0.17453647 -0.42381632 -0.76695848 84 58 76
-0.17570278 -0.42021248 -0.76971596 64 47 63
-0.17563637 -0.41996109 -0.76847333 68 46 55
-0.17534235 -0.42078796 -0.76783603 71 46 57
-0.17562838 -0.42019436 -0.76903844 66 46 59
-0.17453638 -0.42320853 -0.76651442 75 49 68
-0.17542008 -0.41994864 -0.76628911 77 46 44
-0.17453529 -0.42464048 -0.7684412 94 68 83
-0.17442861 -0.42566884 -0.76961333 98 70 87
-0.17441545 -0.42553413 -0.76935256 97 69 86
-0.17424837 -0.42488647 -0.76768929 87 60 77
-0.17431824 -0.42553693 -0.76897299 94 66 83
-0.17477995 -0.42450136 -0.76919192 100 75 89
-0.17411071 -0.42465743 -0.76678705 81 54 72
-0.17429712 -0.42428508 -0.76684701 82 56 74
-0.17396489 -0.43083081 -0.76835561 84 57 63
-0.17416759 -0.4310917 -0.76874912 80 54 60
-0.17399605 -0.42919493 -0.76966804 88 57 73
-0.17240298 -0.42997181 -0.7695964 114 85 85
-0.17210837 -0.43101737 -0.76902133 117 90 82
-0.1722066 -0.43048063 -0.76935357 117 88 84
-0.17163447 -0.43066588 -0.76961523 127 99 89
-0.17376947 -0.4285714 -0.769687 93 60 78
-0.1736092 -0.42948836 -0.76911408 93 63 74
-0.17223653 -0.4296211 -0.76939577 116 87 87
-0.17263754 -0.43118942 -0.76685411 101 76 72
-0.17180678 -0.43021682 -0.76919359 122 94 88
-0.17130066 -0.43088996 -0.76899207 129 103 90
-0.17089882 -0.43074524 -0.769705 138 112 95
-0.17214005 -0.43130419 -0.76735896 110 86 77
-0.17197309 -0.43110001 -0.76784033 115 90 80
-0.17227717 -0.42954779 -0.76943678 116 86 87
-0.17274296 -0.42957723 -0.7687881 106 77 81
-0.17260848 -0.42888936 -0.76647377 98 73 74
-0.17282453 -0.43057483 -0.76640999 96 71 70
-0.17325194 -0.42941651 -0.76805484 95 66 75
-0.17259531 -0.4297148 -0.76611173 97 73 71
-0.17288159 -0.4306168 -0.76655203 95 71 70
-0.17439018 -0.43334609 -0.76903176 74 52 59
-0.17463827 -0.43492487 -0.76979536 68 50 60
-0.17405468 -0.43165845 -0.76801151 81 55 58
-0.17458776 -0.43425044 -0.76963019 69 51 59
-0.17417394 -0.43538198 -0.76896679 76 54 67
-0.17393136 -0.43515927 -0.76846755 80 56 70
-0.17409289 -0.43335623 -0.76828593 78 56 61
-0.17158498 -0.43423826 -0.76731312 109 83 81
-0.17078924 -0.43377504 -0.76809347 112 90 80
-0.17116365 -0.43354738 -0.76795113 122 96 87
-0.17100741 -0.4349561 -0.76734763 85 67 65
-0.17249599 -0.43358555 -0.76624483 95 70 71
-0.17142066 -0.43201387 -0.76779646 122 98 84
-0.17051505 -0.43204883 -0.76895899 141 116 94
-0.17204677 -0.43380561 -0.76680005 103 78 77
-0.1708896 -0.43191609 -0.76849073 134 109 90
-0.1713312 -0.43320039 -0.76778573 120 94 85
-0.1714725 -0.43328634 -0.76968992 118 95 85
-0.17082489 -0.43251696 -0.76985496 133 109 91
-0.17277658 -0.4350419 -0.76962906 80 61 68
-0.17356984 -0.43455654 -0.76830167 87 62 72
-0.17278473 -0.43165725 -0.76808679 104 78 71
-0.1711351 -0.43258455 -0.76948458 133 107 92
-0.17233568 -0.43166989 -0.76840413 112 86 76
-0.17322101 -0.43451217 -0.76853383 93 68 76
-0.17323163 -0.43387321 -0.76835805 94 68 73
-0.17845315 -0.43531901 -0.78286535 45 42 34
-0.17878936 -0.43505287 -0.78227699 48 45 37
-0.17793861 -0.43432048 -0.78245622 57 51 46
-0.17795579 -0.43587902 -0.78326696 41 40 31
-0.1791037 -0.43614891 -0.78184897 41 40 31
-0.17815265 -0.43660012 -0.78238469 40 39 30
-0.15490839 -0.40212226 -0.72779715 133 120 119
-0.15452281 -0.4009321 -0.72725916 134 127 123
-0.15601096 -0.40407413 -0.72926062 126 103 110
-0.15568477 -0.40267161 -0.72878498 126 109 112
-0.15496194 -0.40297261 -0.7279073 135 118 119
-0.15560648 -0.40419117 -0.7287668 131 108 113
-0.15638702 -0.4040651 -0.72972488 122 98 106
-0.15472533 -0.40081543 -0.72751266 131 124 120
-0.15727651 -0.40378082 -0.7308448 110 84 97
-0.15501763 -0.40125877 -0.72789234 129 120 118
-0.15657724 -0.40124753 -0.72996598 108 86 98
-0.15650028 -0.4029856 -0.72982877 117 97 104
-0.15537502 -0.40118474 -0.72836894 124 112 113
-0.15651047 -0.40649256 -0.7301805 120 100 103
-0.15711011 -0.40454072 -0.73066276 114 89 100
-0.15688294 -0.40450048 -0.73037672 117 92 102
-0.15605816 -0.40668848 -0.72964752 125 106 107
-0.15638672 -0.40717989 -0.73011869 121 103 104
-0.1571541 -0.4046323 -0.73072928 114 89 99
-0.15526956 -0.40512186 -0.72846526 134 113 115
-0.15488793 -0.40662658 -0.72808999 138 113 115
-0.15520403 -0.40593463 -0.72847307 135 114 115
-0.15460677 -0.40692821 -0.72773021 141 113 116
-0.15575072 -0.40666902 -0.72925276 129 109 109
-0.15496473 -0.40609413 -0.72816092 138 114 116
-0.15443574 -0.40523228 -0.72739732 144 120 121
-0.15398148 -0.40718412 -0.72702211 145 114 118
-0.15407428 -0.40537247 -0.72699988 145 119 122
-0.15646678 -0.4108125 -0.73066443 122 102 97
-0.15522546 -0.40948135 -0.72881377 135 107 107
-0.15662988 -0.40867752 -0.73059273 119 100 99
-0.15505308 -0.408521 -0.72845107 136 107 109
-0.15501598 -0.40835413 -0.72837842 137 107 110
-0.15620677 -0.41094398 -0.73033273 125 104 99
-0.15491287 -0.40982363 -0.72841018 137 108 108
-0.15434705 -0.41025025 -0.72762442 139 109 109
-0.15621656 -0.41177285 -0.73045111 125 104 97
-0.1547057 -0.40894446 -0.72804111 140 108 111
-0.15529151 -0.41177949 -0.72911215 130 107 101
-0.15438694 -0.40882593 -0.72757018 142 109 112
-0.15384158 -0.41120729 -0.72709954 137 112 107
-0.15423776 -0.40878695 -0.7273683 143 110 113
-0.15377323 -0.41095364 -0.72701353 137 112 108
-0.15548681 -0.41228613 -0.72937983 127 105 97
-0.15528417 -0.41228089 -0.72908759 128 105 98
-0.15575165 -0.41401881 -0.72936195 114 88 79
-0.15624417 -0.41467145 -0.72992396 107 80 70
-0.15642861 -0.4134078 -0.73048371 114 92 82
-0.15465499 -0.41387647 -0.72798991 114 84 86
-0.15455991 -0.41460156 -0.72780782 105 73 80
-0.15588588 -0.41557115 -0.72937703 96 65 64
-0.15618332 -0.41527873 -0.72977376 100 72 65
-0.15542501 -0.41589543 -0.72877377 91 58 64
-0.15628867 -0.41501945 -0.7299279 104 76 67
-0.15424611 -0.4145754 -0.72742671 105 72 82
-0.1539986 -0.41438514 -0.72716802 108 76 84
-0.15400887 -0.41427416 -0.72718889 109 78 85
-0.15676329 -0.41662303 -0.73051453 92 63 56
-0.1556322 -0.41788346 -0.72927338 88 56 64
-0.15684298 -0.4173961 -0.73071814 91 63 57
-0.1563846 -0.41927835 -0.73039997 89 59 61
-0.15585306 -0.41621509 -0.72932404 91 58 61
-0.15634599 -0.41770676 -0.73013997 90 60 60
-0.15435632 -0.41954389 -0.72751421 105 81 79
-0.15450124 -0.41784185 -0.72768676 95 64 73
-0.15449898 -0.41708195 -0.72766781 91 57 71
-0.15489465 -0.41800311 -0.72825438 93 61 70
-0.15471198 -0.41708833 -0.7279734 90 55 69
-0.1558253 -0.41889504 -0.72960758 90 60 65
-0.15409401 -0.41805825 -0.72718483 98 68 76
-0.15625426 -0.42206568 -0.72971678 106 82 78
-0.15645085 -0.42055497 -0.73037034 95 68 66
-0.15663248 -0.42274186 -0.73009282 108 83 79
-0.15599988 -0.42054233 -0.72972667 98 72 70
-0.1557547 -0.42155135 -0.72912681 107 83 79
-0.15613875 -0.4207657 -0.72987086 99 73 70
-0.15498289 -0.42093349 -0.72820437 108 85 81
-0.15482122 -0.4237422 -0.72800785 106 85 87
-0.15559827 -0.42234841 -0.72889018 108 85 82
-0.15436687 -0.4229897 -0.72749996 106 85 87
-0.15659155 -0.42370585 -0.73000205 109 85 81
-0.15434307 -0.42072529 -0.72748482 107 85 82
-0.15416284 -0.42285857 -0.72727197 107 86 87
-0.15395328 -0.4219107 -0.72705126 108 86 86
-0.15501198 -0.42444721 -0.72823226 108 89 89
-0.15695699 -0.42692393 -0.73046297 115 101 92
-0.15730365 -0.42398936 -0.73080599 110 85 80
-0.15637387 -0.4247984 -0.72977185 110 90 86
-0.15579346 -0.42417541 -0.7291081 108 87 85
-0.15713976 -0.42488372 -0.73063588 111 90 84
-0.15638052 -0.42574784 -0.72979468 112 95 90
-0.15574211 -0.42679727 -0.72904658 111 94 93
-0.15513252 -0.42664796 -0.72833043 108 90 92
-0.15572016 -0.42609164 -0.72903907 111 95 92
-0.15473664 -0.42476904 -0.72791177 107 88 90
-0.15529118 -0.42695174 -0.7285099 109 91 92
-0.15485105 -0.42587861 -0.72801799 107 88 91
-0.15409149 -0.42661521 -0.72710735 105 84 91
-0.1540674 -0.4252274 -0.72711986 106 85 91
-0.15639198 -0.42982307 -0.72956496 115 98 95
-0.15726964 -0.4290846 -0.7306813 118 105 95
-0.15555407 -0.42844233 -0.72872376 110 92 94
-0.15513787 -0.42838219 -0.72823858 109 89 94
-0.15554321 -0.42810529 -0.72874719 110 92 94
-0.15622221 -0.4296791 -0.72937995 114 97 95
-0.1552157 -0.43099675 -0.72808981 109 88 94
-0.15549384 -0.43008867 -0.72849327 110 91 94
-0.15578955 -0.42975709 -0.72886574 112 93 95
-0.15454413 -0.4313373 -0.72728068 105 82 93
-0.15430017 -0.42893854 -0.72721142 104 82 93
-0.15438618 -0.43131533 -0.72709942 104 80 93
-0.1546668 -0.43126979 -0.72742891 106 83 93
-0.15428817 -0.43145478 -0.7269724 104 80 93
-0.15422019 -0.42911682 -0.72710282 104 82 93
-0.1558975 -0.43293974 -0.72824007 112 93 97
-0.15586786 -0.43371645 -0.72785699 112 93 98
-0.15592685 -0.43342033 -0.72805834 112 93 98
-0.15616021 -0.43404192 -0.72804987 113 95 99
-0.15722361 -0.43204525 -0.73017955 119 104 97
-0.15533833 -0.43169644 -0.72814977 109 88 94
-0.15607139 -0.43261036 -0.72858959 113 94 97
-0.15740103 -0.43507904 -0.73051369 102 86 103
-0.15665102 -0.43422258 -0.72878039 113 96 100
-0.15727314 -0.43250293 -0.73006356 119 104 98
-0.15735576 -0.43315434 -0.73028988 114 99 99
-0.15703945 -0.43386537 -0.72962713 113 96 100
-0.15823564 -0.43787196 -0.73082078 100 88 102
-0.15668234 -0.43855217 -0.72884262 115 98 111
-0.15704834 -0.43842086 -0.72929549 111 96 109
-0.1571001 -0.43884447 -0.72923225 113 97 110
-0.15783954 -0.43753091 -0.73046678 102 88 104
-0.1572267 -0.43703461 -0.72997963 106 89 107
-0.15658492 -0.43755171 -0.72909546 113 94 111
-0.15601842 -0.43650258 -0.7277509 113 94 106
-0.15624952 -0.43677124 -0.7283532 113 94 108
-0.1558549 -0.43830162 -0.72795403 122 101 115
-0.15592223 -0.436744 -0.72761196 115 96 107
-0.15605862 -0.43711996 -0.72803622 116 96 109
-0.15728301 -0.43593994 -0.73040354 102 84 105
-0.15820359 -0.44051439 -0.73052454 105 97 102
-0.15805553 -0.44238019 -0.73076761 105 104 97
-0.15601236 -0.44006896 -0.72795767 124 106 115
-0.15731305 -0.44066951 -0.72956383 112 102 107
-0.15695684 -0.44125926 -0.7292884 115 106 106
-0.15617335 -0.43973491 -0.7280674 122 104 115
-0.15793088 -0.44068795 -0.7302686 107 98 104
-0.1574454 -0.44062033 -0.72970325 111 101 106
-0.15578566 -0.44056129 -0.72768152 125 107 114
-0.15550917 -0.44101414 -0.72713369 126 105 115
-0.15554093 -0.44147938 -0.7271077 125 104 114
-0.15653305 -0.44156611 -0.72877914 118 107 107
-0.1562566 -0.44140556 -0.72833681 120 107 110
-0.15549235 -0.44091305 -0.72712249 126 105 115
-0.15802717 -0.44454399 -0.73053491 100 92 94
-0.1573683 -0.44451362 -0.72983783 105 99 94
-0.16656855 -0.41209567 -0.74404532 71 56 61
-0.16715153 -0.41145983 -0.74511552 73 51 57
-0.16723926 -0.41107529 -0.74520314 73 50 56
-0.16689473 -0.41145366 -0.74454498 72 52 59
-0.1673643 -0.41163534 -0.74563551 73 49 56
-0.16759999 -0.41197002 -0.74625051 73 48 54
-0.16690151 -0.40946364 -0.74405789 74 50 58
-0.16684076 -0.40909043 -0.74385983 74 49 59
-0.16740224 -0.41051215 -0.74556231 72 46 55
-0.16662216 -0.41421264 -0.74387455 68 48 54
-0.16723435 -0.41305012 -0.74536699 70 47 54
-0.1663346 -0.41373128 -0.74331629 68 51 57
-0.16612794 -0.41549015 -0.74262267 65 46 53
-0.1669115 -0.4140296 -0.74452901 69 46 53
-0.16671064 -0.41482753 -0.74418765 68 47 52
-0.16664191 -0.41519642 -0.74414784 68 47 51
-0.16701159 -0.41584885 -0.74616772 74 54 49
-0.1671703 -0.4134241 -0.7451821 70 47 53
-0.16697499 -0.41558975 -0.74583453 73 53 50
-0.16613385 -0.41888511 -0.74361718 75 58 64
-0.16610064 -0.41966659 -0.74382442 77 61 67
-0.16604869 -0.41830072 -0.74319202 73 56 62
-0.16656175 -0.41843355 -0.74450123 75 54 60
-0.16625759 -0.41746294 -0.74339557 71 51 58
-0.1664404 -0.41765752 -0.74391747 71 51 57
-0.16668366 -0.41684753 -0.74480903 71 51 53
-0.16704479 -0.41814551 -0.74622399 77 56 56
-0.16641027 -0.41673854 -0.7436561 68 48 53
-0.16683291 -0.41850069 -0.74528921 75 54 58
-0.16641983 -0.41604486 -0.74376178 68 48 51
-0.1668117 -0.41606659 -0.74542707 72 53 49
-0.16584751 -0.41764769 -0.74269158 71 53 60
-0.16546081 -0.41952842 -0.74297655 77 62 65
-0.1667985 -0.42135009 -0.7459113 78 59 63
-0.16690315 -0.42154977 -0.7462073 78 58 62
-0.16701658 -0.42124963 -0.74642742 79 58 62
-0.16683215 -0.4208968 -0.74590558 79 59 63
-0.16671225 -0.42104104 -0.74563926 78 59 64
-0.16631545 -0.42239055 -0.74506503 74 56 64
-0.166399 -0.42379823 -0.74567789 72 51 62
-0.16625898 -0.42143822 -0.74465054 76 59 66
-0.16449307 -0.42332122 -0.74287629 73 49 62
-0.16596343 -0.42251411 -0.74449128 72 52 64
-0.16504169 -0.42203459 -0.74315667 75 54 65
-0.16571675 -0.42349559 -0.74449694 70 48 62
-0.16419955 -0.42357117 -0.74259478 73 49 62
-0.16513315 -0.42165861 -0.74316025 75 56 65
-0.16623199 -0.42433587 -0.74533176 70 47 59
-0.16607757 -0.42405453 -0.74507779 69 46 60
-0.16612799 -0.42702791 -0.74433208 73 45 44
-0.16637842 -0.42523009 -0.74550354 70 45 54
-0.16690634 -0.42725259 -0.74626029 72 43 44
-0.16605099 -0.42464584 -0.74483669 70 46 57
-0.16600755 -0.42414683 -0.74488449 69 46 60
-0.16591267 -0.42584929 -0.74427563 72 46 51
-0.16583493 -0.42428809 -0.74464041 70 47 60
-0.16545467 -0.42397496 -0.74423361 70 47 61
-0.16477679 -0.42667985 -0.74268425 80 53 51
-0.16476808 -0.42538688 -0.74299967 76 50 56
-0.16654927 -0.42863834 -0.7451809 77 48 46
-0.16624601 -0.4277522 -0.74442595 74 44 40
-0.16697906 -0.42861176 -0.74628288 76 47 47
-0.16642356 -0.42883649 -0.74485385 78 50 47
-0.16698433 -0.43134779 -0.74623966 86 62 63
-0.16621862 -0.42906803 -0.74440676 77 49 47
-0.16697264 -0.4314822 -0.74623126 86 62 64
-0.16551919 -0.42995286 -0.74358678 72 45 50
-0.16533104 -0.43141401 -0.74356401 70 46 57
-0.16506872 -0.43006629 -0.7431398 69 42 50
-0.16493686 -0.42789587 -0.74264371 81 53 47
-0.16482262 -0.42954251 -0.74278229 73 46 50
-0.16677821 -0.43231979 -0.74633968 85 62 64
-0.16607073 -0.43413311 -0.74619478 78 58 62
-0.16599528 -0.43261415 -0.74496615 76 53 61
-0.16512087 -0.43422931 -0.74519092 75 54 63
-0.16500822 -0.4322727 -0.7437036 70 46 59
-0.16510352 -0.43239486 -0.74388665 71 47 59
-0.16433974 -0.43203706 -0.74259943 67 41 58
-0.16436574 -0.43481651 -0.74283963 80 55 67
-0.1646928 -0.43539551 -0.74392796 82 58 68
-0.16511431 -0.4355346 -0.74529636 82 60 67
-0.1643706 -0.43404424 -0.74281186 77 51 64
-0.16488662 -0.4343093 -0.74449253 76 53 63
-0.16488056 -0.43742341 -0.745103 78 54 61
-0.16536362 -0.437585 -0.74639475 76 52 57
-0.16433123 -0.43851262 -0.7437734 78 50 60
-0.16431804 -0.43937397 -0.74383277 76 47 56
-0.1648227 -0.43904856 -0.74512815 75 47 54
-0.16463007 -0.43795604 -0.74450064 78 52 60
-0.16474007 -0.43615004 -0.74430484 82 58 66
-0.16425337 -0.4378095 -0.7433275 80 53 62
-0.16449793 -0.43715185 -0.74388164 80 55 64
-0.16498585 -0.43578887 -0.74496895 82 59 66
-0.16407627 -0.43758106 -0.74267405 81 53 64
-0.16401544 -0.43882021 -0.74292111 78 49 60
-0.16461138 -0.44151005 -0.74530929 88 61 68
-0.16471051 -0.44213495 -0.74594361 89 63 68
-0.16424431 -0.44308212 -0.74496156 99 72 79
-0.16474201 -0.44266227 -0.74631435 90 65 69
-0.1640238 -0.44334051 -0.74439949 103 75 83
-0.1643535 -0.44000363 -0.74408221 80 51 60
-0.16392131 -0.44173646 -0.74340564 96 66 76
-0.16492373 -0.43956468 -0.74546874 74 45 53
-0.16444477 -0.44023216 -0.74438405 82 52 61
-0.16370051 -0.44087845 -0.74259388 90 60 71
-0.16465347 -0.43948472 -0.74473453 74 46 54
-0.16456258 -0.44401097 -0.74638706 95 74 75
-0.16364264 -0.44714969 -0.74363214 106 98 95
-0.16405623 -0.44682798 -0.74603182 103 94 88
-0.16399315 -0.44573277 -0.74444616 101 87 87
-0.16400708 -0.44687924 -0.74576056 104 94 89
-0.16364743 -0.44692066 -0.74341977 105 96 94
-0.16370745 -0.44365582 -0.74340641 107 80 89
-0.16385384 -0.44428566 -0.74385673 104 81 87
-0.16373995 -0.44345891 -0.74351239 107 78 88
-0.16352214 -0.44696614 -0.74276352 106 98 96
-0.16438437 -0.44378212 -0.74553818 97 74 78
-0.16392456 -0.44769448 -0.74596381 105 96 92
-0.16370276 -0.44828275 -0.74495739 105 95 96
-0.1637571 -0.44813436 -0.74520069 105 95 95
-0.1625502 -0.45779023 -0.74430043 111 100 117
-0.16254562 -0.45799223 -0.74440426 112 102 119
-0.16248909 -0.45843738 -0.74455041 117 106 123
-0.16307537 -0.45776525 -0.7451725 105 96 117
-0.16312531 -0.45768246 -0.74520791 106 97 117
-0.16339116 -0.45619941 -0.74543804 112 100 114
-0.16360402 -0.45685539 -0.74628466 113 101 116
-0.16233365 -0.45995349 -0.745193 122 104 128
-0.16281517 -0.4591637 -0.7455467 115 104 125
-0.16315956 -0.45911786 -0.74612945 110 100 123
-0.16210876 -0.45979899 -0.74469548 126 108 130
-0.17572327 -0.39584225 -0.76197922 67 42 51
-0.1755093 -0.39633977 -0.76108116 64 41 47
-0.17445022 -0.39996633 -0.75975198 78 47 45
-0.17474997 -0.39873007 -0.7595309 69 42 40
-0.17457138 -0.39928362 -0.75955445 74 45 43
-0.17389058 -0.39927363 -0.75825858 76 46 48
-0.17531565 -0.39777932 -0.76056868 66 41 41
-0.17562175 -0.39753264 -0.76179701 71 44 47
-0.17546424 -0.3980386 -0.76125294 70 43 43
-0.17542577 -0.39876795 -0.76126069 71 43 40
-0.1738234 -0.40038586 -0.75877452 79 47 49
-0.17450652 -0.40124264 -0.76028085 80 46 46
-0.17414291 -0.40118513 -0.75956154 80 46 48
-0.17462805 -0.40058741 -0.76038015 80 46 44
-0.17470041 -0.40041557 -0.76048499 80 46 43
-0.17514671 -0.40375346 -0.76205117 79 46 48
-0.17533262 -0.40155634 -0.76195323 80 46 42
-0.17427593 -0.40178636 -0.75994951 79 46 49
-0.17403685 -0.40106893 -0.75933492 79 46 49
-0.17445426 -0.40283945 -0.76056123 79 46 50
-0.17372924 -0.40204978 -0.75914621 79 48 53
-0.17349418 -0.40286547 -0.75908291 79 50 56
-0.17290106 -0.40277094 -0.75829571 79 52 60
-0.17469026 -0.40631992 -0.76141679 72 43 49
-0.17497832 -0.40533432 -0.76188797 76 44 49
-0.17490228 -0.40586463 -0.76176721 74 44 48
-0.17433049 -0.40757024 -0.76047432 69 42 51
-0.17438337 -0.40789399 -0.76053452 68 42 51
-0.17428303 -0.40626425 -0.76061654 73 44 52
-0.1738288 -0.40818313 -0.75919068 70 43 56
-0.17409372 -0.40753484 -0.75993133 70 43 54
-0.17362675 -0.4076384 -0.75900686 71 44 57
-0.17362896 -0.40704933 -0.75912392 73 45 57
-0.17315602 -0.40789124 -0.75829118 72 45 59
-0.17306024 -0.4075821 -0.75823379 73 46 60
-0.17465366 -0.40834156 -0.76112235 67 41 49
-0.17501058 -0.40828925 -0.76194382 66 40 45
-0.17477396 -0.40926102 -0.76153296 70 42 51
-0.17428994 -0.40845206 -0.76029342 69 42 53
-0.17491059 -0.40961888 -0.76190132 71 43 51
-0.17417108 -0.411796 -0.76034439 75 44 62
-0.17431732 -0.41010845 -0.76059133 74 45 59
-0.17440136 -0.41147476 -0.76091272 76 45 61
-0.17456378 -0.41159549 -0.7613402 77 46 61
-0.17337133 -0.41194978 -0.75866967 70 42 62
-0.17339563 -0.411062 -0.75864428 70 42 60
-0.17346007 -0.41003069 -0.75868726 70 42 59
-0.17390044 -0.41232789 -0.75974441 73 43 63
-0.17410824 -0.41313091 -0.76054674 74 44 62
-0.17441928 -0.41377077 -0.76156062 76 46 61
-0.17393734 -0.41583198 -0.76138359 73 44 56
-0.17293835 -0.41515076 -0.75940913 73 46 55
-0.1721819 -0.41598073 -0.7585305 73 48 52
-0.17351189 -0.41531718 -0.7604441 73 44 56
-0.17324866 -0.41345656 -0.7591421 73 44 59
-0.17375062 -0.41390425 -0.76018786 73 43 59
-0.17287409 -0.41401523 -0.75877106 72 45 58
-0.1724726 -0.41485554 -0.75848973 72 47 55
-0.17381422 -0.41667411 -0.7615664 75 45 58
-0.17323501 -0.4171252 -0.76089317 76 47 58
-0.17358752 -0.4160859 -0.76093137 73 44 54
-0.17330796 -0.4164387 -0.76065135 74 46 55
-0.17256507 -0.416805 -0.75960469 75 49 56
-0.17211406 -0.41649801 -0.75868887 74 49 54
-0.17230296 -0.41893235 -0.75929779 81 55 61
-0.17214583 -0.41961744 -0.75869298 82 58 62
-0.17214708 -0.41876945 -0.75872958 80 55 59
-0.17217861 -0.41833228 -0.7588622 79 54 59
-0.17248876 -0.41850019 -0.75999874 80 53 61
-0.17224984 -0.41934478 -0.75908649 82 57 62
-0.17243922 -0.42304608 -0.7595346 82 53 63
-0.17233698 -0.42291221 -0.75913286 82 53 62
-0.17300844 -0.42146969 -0.76181364 84 52 67
-0.17256621 -0.42228508 -0.76005048 83 53 64
-0.17275672 -0.42177823 -0.76081294 84 53 65
-0.17276552 -0.42183706 -0.76084667 84 53 65
-0.17241922 -0.42037809 -0.75965011 83 57 64
-0.17266501 -0.42120454 -0.76048565 84 54 65
-0.17239355 -0.42204171 -0.75941426 83 54 63
-0.17233931 -0.4214862 -0.75926161 83 55 63
-0.17218526 -0.42342535 -0.75852925 82 54 61
-0.17219828 -0.42076093 -0.75880349 83 57 62
-0.17196052 -0.42609462 -0.75984353 81 51 63
-0.17257833 -0.42662004 -0.76171684 85 58 66
-0.17242433 -0.42627868 -0.76117361 84 55 65
-0.17230053 -0.42553654 -0.76056725 82 51 64
-0.17212905 -0.42772415 -0.76089346 85 59 65
-0.17225949 -0.42656463 -0.76082832 83 55 65
-0.17238182 -0.42496523 -0.76040536 81 50 64
-0.17233701 -0.42520657 -0.76046419 81 50 64
-0.17272925 -0.42431507 -0.76114321 82 50 64
-0.17121223 -0.42754364 -0.75830251 80 52 62
-0.1715434 -0.42681888 -0.75890309 80 52 62
-0.1720107 -0.43069005 -0.76040936 75 52 59
-0.17224969 -0.42929709 -0.76109701 81 56 62
-0.17218386 -0.43044391 -0.76109159 78 56 63
-0.1718165 -0.43162301 -0.75980264 71 48 56
-0.17217281 -0.43094048 -0.76116407 78 56 63
-0.17194673 -0.43005177 -0.75998145 75 49 56
-0.17172283 -0.4280045 -0.75973362 82 55 62
-0.17233051 -0.4284291 -0.76129943 83 58 63
-0.17176782 -0.43036568 -0.759359 72 45 53
-0.1718237 -0.42818758 -0.75996983 81 55 62
-0.17163724 -0.42926979 -0.75923401 76 49 57
-0.17169774 -0.42963648 -0.75932169 75 48 56
-0.17138432 -0.43464565 -0.75958347 62 39 51
-0.17224769 -0.43359381 -0.76203334 64 45 57
-0.17204516 -0.43544859 -0.76165795 50 29 45
-0.17189473 -0.43545556 -0.76120925 52 29 45
-0.17179359 -0.4346683 -0.76080942 59 37 50
-0.1715789 -0.43262839 -0.75939244 68 44 53
-0.17151651 -0.43249685 -0.75904483 67 42 51
-0.17124441 -0.43371397 -0.75862288 63 38 48
-0.1714292 -0.43391234 -0.75953543 66 43 54
-0.17205031 -0.43177485 -0.76089007 75 55 62
-0.17120577 -0.43438977 -0.75887012 63 38 50
-0.17029144 -0.43880948 -0.75976747 76 57 64
-0.17079969 -0.43866271 -0.76040608 78 60 64
-0.17094669 -0.43755227 -0.75979286 72 51 57
-0.17079191 -0.43817353 -0.76002866 75 55 61
-0.17075416 -0.43785456 -0.75973451 72 52 59
-0.17055908 -0.438007 -0.75956029 71 51 59
-0.17111005 -0.43615249 -0.75917161 63 39 49
-0.17141853 -0.43679932 -0.76040971 66 45 53
-0.17213041 -0.43564206 -0.76197135 50 29 45
-0.17133182 -0.43646517 -0.75998724 64 41 51
-0.17178237 -0.43784329 -0.76200747 73 56 60
-0.17125008 -0.43736181 -0.76018131 73 52 57
-0.16921353 -0.43865556 -0.75830644 69 46 59
-0.16980393 -0.43823335 -0.75865734 68 47 58
-0.17065673 -0.44136298 -0.76210505 80 58 59
-0.17146851 -0.43951222 -0.7620253 90 74 70
-0.17001936 -0.44255066 -0.76198477 73 47 52
-0.17024529 -0.4422431 -0.76210558 75 51 54
-0.16923825 -0.43972132 -0.7591148 75 55 63
-0.16897787 -0.44027671 -0.75919729 72 50 59
-0.16922638 -0.43994051 -0.75925016 74 53 62
-0.16943912 -0.44254643 -0.76116019 68 42 50
-0.16942492 -0.4430649 -0.76101094 67 40 48
-0.16905002 -0.44295496 -0.7594806 66 38 48
-0.16877694 -0.44223294 -0.75847799 66 40 50
-0.16868222 -0.43986374 -0.7585001 72 49 60
-0.16877402 -0.44138062 -0.75861472 68 43 54
-0.16896792 -0.44518363 -0.76146853 45 25 32
-0.16922079 -0.44459116 -0.76181668 50 29 36
-0.16870525 -0.44602492 -0.7619257 24 14 17
-0.16944718 -0.44398347 -0.76184785 61 35 43
-0.16914669 -0.44479957 -0.76184064 46 27 33
-0.16851522 -0.44621322 -0.76073354 39 18 28
-0.16876626 -0.44503358 -0.75980675 63 31 45
-0.16834399 -0.44571489 -0.75870001 61 27 45
-0.16875285 -0.44410002 -0.75887632 63 33 45
-0.16826402 -0.44555098 -0.75821579 61 27 44
-0.16876648 -0.44349343 -0.75836408 63 34 46
-0.16877949 -0.44489384 -0.75973052 63 32 45
-0.16820623 -0.45028678 -0.75956023 65 52 50
-0.16845649 -0.44935104 -0.76137102 38 28 27
-0.16825739 -0.44898015 -0.76077068 36 28 27
-0.16880511 -0.45091602 -0.76173234 61 43 40
-0.1685461 -0.45113915 -0.76041979 73 55 52
-0.16856571 -0.44953427 -0.76171553 39 28 26
-0.16806391 -0.45012662 -0.7588101 71 55 56
-0.16805194 -0.44949624 -0.75897539 63 46 50
-0.16809577 -0.44949281 -0.75940919 57 43 45
-0.16806661 -0.44793028 -0.75982398 39 21 30
-0.16802473 -0.44757736 -0.75956959 40 18 30
-0.16845265 -0.45272264 -0.76204997 71 59 57
-0.16836318 -0.45306566 -0.7617389 72 61 60
-0.16809693 -0.454209 -0.76014245 78 67 69
-0.16796157 -0.45470408 -0.75980282 80 71 74
-0.16813843 -0.45396763 -0.76073676 77 66 68
-0.16817139 -0.45212591 -0.75886244 82 66 66
-0.16808558 -0.45165512 -0.75842255 85 70 68
-0.16837773 -0.45139414 -0.75967973 78 61 58
-0.16851506 -0.45268384 -0.76045281 71 54 54
-0.16839695 -0.45310566 -0.75998545 73 57 58
-0.16815893 -0.45142984 -0.7587176 84 68 66
-0.16765112 -0.45599127 -0.76168686 87 88 88
-0.16775422 -0.4559705 -0.76198846 82 81 83
-0.16761522 -0.45821142 -0.76098955 89 93 90
-0.16752371 -0.45666322 -0.76114106 93 97 94
-0.16756928 -0.45724711 -0.76111561 91 95 92
-0.16742821 -0.4575541 -0.76062834 98 104 99
-0.16704853 -0.45785445 -0.75857037 117 130 117
-0.16742414 -0.45647323 -0.75954151 100 103 99
-0.16777866 -0.45527932 -0.75985855 85 79 82
-0.16708861 -0.45771235 -0.75864506 115 127 115
-0.16772227 -0.45563611 -0.75889558 89 83 85
-0.16727901 -0.45710135 -0.75865048 108 114 106
-0.16674347 -0.46113145 -0.75915229 82 87 80
-0.1671177 -0.46227005 -0.760432 74 67 68
-0.16666453 -0.46201384 -0.75934875 56 56 54
-0.16712672 -0.4623602 -0.76048887 72 65 66
-0.16694656 -0.46230087 -0.76007593 64 59 59
-0.16754098 -0.45997736 -0.76078933 95 97 93
-0.16742373 -0.459589 -0.76036662 100 105 99
-0.16699544 -0.45987102 -0.75919896 121 133 120
-0.16769964 -0.46102682 -0.76147717 91 84 85
-0.16692871 -0.45927858 -0.7588762 122 138 123
-0.16792502 -0.4608452 -0.76208431 80 70 75
-0.16744876 -0.46295157 -0.76151544 78 64 69
-0.16615126 -0.46446532 -0.76167446 76 61 67
-0.16676427 -0.46384206 -0.76178074 81 66 71
-0.16691983 -0.46352839 -0.76150084 76 61 67
-0.17910172 -0.41630828 -0.77688241 91 58 84
-0.1785607 -0.4166801 -0.7763958 91 57 88
-0.17809448 -0.41663224 -0.77551699 91 56 93
-0.17848375 -0.41613254 -0.77557755 91 56 90
-0.17843242 -0.41699952 -0.77656889 90 58 89
-0.17430112 -0.42560208 -0.77683896 66 44 55
-0.17457627 -0.42642447 -0.77506727 72 38 61
-0.17395981 -0.42701998 -0.77469826 69 36 59
-0.17384966 -0.42746091 -0.77403706 70 33 60
-0.17462498 -0.4253124 -0.77699167 67 45 56
-0.17569183 -0.42448324 -0.7753247 68 45 59
-0.17538415 -0.42500448 -0.77511656 69 43 59
-0.17599963 -0.42396277 -0.77553749 67 47 59
-0.17506471 -0.42549238 -0.77464217 68 41 59
-0.17490198 -0.42589593 -0.77515262 71 40 60
-0.17568338 -0.42457914 -0.77571499 70 45 60
-0.15996461 -0.40732598 -0.73462731 113 87 92
-0.159586 -0.40637368 -0.73405433 110 82 91
-0.15892993 -0.40487376 -0.7330718 106 75 89
-0.15833548 -0.40503073 -0.73232561 109 80 92
-0.15823002 -0.40727732 -0.73255688 119 99 100
-0.15870468 -0.40649697 -0.73298079 114 89 95
-0.15847301 -0.40515691 -0.73250377 109 80 92
-0.15808535 -0.40603903 -0.7321707 113 88 96
-0.1579233 -0.40774605 -0.73221737 120 102 101
-0.15789545 -0.40610269 -0.73192143 113 88 95
-0.15747595 -0.40614411 -0.73135954 111 87 95
-0.15741511 -0.40494412 -0.73110926 112 86 97
-0.15929493 -0.41025037 -0.73415542 107 88 89
-0.15921338 -0.4082756 -0.73384213 120 99 98
-0.15951695 -0.40866724 -0.73423505 116 95 94
-0.15885589 -0.41149008 -0.73379749 103 86 88
-0.15857141 -0.41141066 -0.73346555 106 89 91
-0.15855813 -0.40964577 -0.73324317 114 97 96
-0.15761763 -0.40997729 -0.732108 121 104 100
-0.15768391 -0.41128287 -0.73234874 114 98 96
-0.15772723 -0.41049856 -0.73231363 118 101 98
-0.15750916 -0.41090715 -0.73207426 118 101 97
-0.15676475 -0.40950018 -0.73088664 118 100 98
-0.15674567 -0.40998057 -0.73092711 119 101 97
-0.15666436 -0.41098717 -0.73095542 121 103 97
-0.15902907 -0.41364157 -0.73402518 92 69 73
-0.15963836 -0.41299385 -0.73473346 90 68 73
-0.15891996 -0.41260493 -0.73392946 97 78 82
-0.15837605 -0.41559434 -0.73295498 81 48 46
-0.1582673 -0.41594493 -0.7327652 79 43 41
-0.1582039 -0.41280499 -0.73304904 101 81 83
-0.1589364 -0.41554198 -0.73372614 80 49 50
-0.15798862 -0.41563585 -0.73236048 84 52 47
-0.15781553 -0.41485006 -0.73216778 92 65 60
-0.15801339 -0.41293091 -0.73272043 102 84 84
-0.15767966 -0.41226208 -0.73240793 110 92 92
-0.15757707 -0.41357055 -0.73199683 103 82 78
-0.15686458 -0.4138374 -0.73100144 109 86 77
-0.15706736 -0.41290557 -0.73146516 112 92 86
-0.1589084 -0.41733062 -0.73356265 83 48 48
-0.1589808 -0.41680944 -0.73368901 80 46 47
-0.15985465 -0.41954449 -0.73473763 90 58 61
-0.15861006 -0.41773751 -0.73317516 83 48 47
-0.15828006 -0.41934708 -0.73276556 84 51 50
-0.15858716 -0.41843492 -0.73314691 84 50 49
-0.15677622 -0.41977686 -0.73096997 88 60 60
-0.15773858 -0.41891506 -0.7321164 84 52 51
-0.15810001 -0.41752103 -0.73254663 81 47 45
-0.15717994 -0.41700113 -0.73115796 90 60 53
-0.15786389 -0.41609913 -0.73212481 83 49 44
-0.15721548 -0.41717783 -0.73124802 89 59 53
-0.15977919 -0.42366859 -0.73473561 80 58 66
-0.15972011 -0.42075646 -0.73457885 88 59 62
-0.15928935 -0.42010772 -0.73402506 88 57 59
-0.1582358 -0.42373851 -0.73200804 100 74 73
-0.15852718 -0.42140552 -0.73296517 86 57 58
-0.15845416 -0.42338946 -0.73246127 95 69 70
-0.15872175 -0.42322946 -0.73296618 91 66 68
-0.1580912 -0.42316386 -0.73191708 99 72 71
-0.15816984 -0.42134386 -0.73235977 91 60 60
-0.15742853 -0.42022052 -0.73168623 88 58 58
-0.15731768 -0.42008567 -0.73158175 88 58 58
-0.15767577 -0.4211742 -0.73178589 93 64 62
-0.15913723 -0.42496124 -0.73345441 95 71 74
-0.15964162 -0.42652726 -0.73416138 98 74 79
-0.15990853 -0.42547557 -0.734761 88 66 73
-0.15906741 -0.42494729 -0.73333222 96 72 75
-0.15835987 -0.42596763 -0.73223531 107 87 83
-0.15860131 -0.42546952 -0.73256761 103 80 79
-0.15895869 -0.42566732 -0.73309231 101 77 78
-0.15869583 -0.42697981 -0.73275751 108 90 86
-0.15830781 -0.42609945 -0.7321645 108 89 83
-0.15794252 -0.42688423 -0.73169202 112 97 88
-0.15808953 -0.42531505 -0.73183346 106 85 81
-0.15752569 -0.42448416 -0.73108906 109 86 81
-0.15752955 -0.42573079 -0.73111653 111 92 85
-0.16003658 -0.43110335 -0.73450392 97 81 82
-0.15952744 -0.43000093 -0.73383904 102 86 84
-0.16006547 -0.42980185 -0.73463166 98 79 82
