ply
format ascii 1.0
comment PCL generated
element vertex 666
property float x
property float y
property float z
property uchar red
property uchar green
property uchar blue
element camera 1
property float view_px
property float view_py
property float view_pz
property float x_axisx
property float x_axisy
property float x_axisz
property float y_axisx
property float y_axisy
property float y_axisz
property float z_axisx
property float z_axisy
property float z_axisz
property float focal
property float scalex
property float scaley
property float centerx
property float centery
property int viewportx
property int viewporty
property float k1
property float k2
end_header
-0.33810201 -0.016182922 -0.86971557 134 123 122
-0.33824399 -0.015724268 -0.87021482 133 127 124
-0.33893111 -0.016485577 -0.87032497 128 122 118
-0.33922228 -0.016979089 -0.87023944 125 118 115
-0.33860627 -0.017047767 -0.86955965 129 116 117
-0.33798921 -0.014221943 -0.87111753 136 140 132
-0.33767498 -0.014156029 -0.870821 136 139 132
-0.33770376 -0.013677021 -0.87122411 137 142 134
-0.34258789 -0.019967427 -0.87133443 119 111 112
-0.34020573 -0.018236427 -0.8702544 120 111 110
-0.34111613 -0.019213254 -0.87040567 117 109 110
-0.3407768 -0.018850299 -0.87034845 118 110 110
-0.34127328 -0.01807311 -0.87145776 114 115 108
-0.34575516 -0.024854526 -0.86917156 121 77 95
-0.34485495 -0.025160361 -0.86802977 124 75 96
-0.34641889 -0.026438083 -0.86806101 103 63 78
-0.34770238 -0.028004268 -0.86766469 63 42 49
-0.34680143 -0.026641412 -0.86818999 90 55 69
-0.34677631 -0.025823368 -0.8689791 91 54 69
-0.34884346 -0.028261898 -0.86847043 38 26 30
-0.34867597 -0.027967786 -0.86860454 41 28 32
-0.34813127 -0.027366793 -0.8686986 56 35 43
-0.34772757 -0.026383353 -0.86928594 63 39 49
-0.34854621 -0.027663926 -0.86878157 44 29 34
-0.34850866 -0.027077585 -0.86931235 42 27 33
-0.34923801 -0.027648246 -0.86941165 21 16 17
-0.34941676 -0.02673642 -0.87048078 16 13 13
-0.34544393 -0.025483549 -0.86816251 125 74 95
-0.3385998 -0.00028265751 -0.87926584 145 129 133
-0.33853209 -0.0012368837 -0.87893414 140 123 129
-0.33803102 -0.0015417346 -0.87837315 140 123 129
-0.33737245 -0.0017888073 -0.87761575 142 125 132
-0.33729634 -0.0017577333 -0.87754297 142 126 132
-0.33932441 -0.002982836 -0.87918305 135 118 125
-0.33820546 -0.0024168321 -0.87828732 138 121 128
-0.33969894 -0.0042771343 -0.87915862 137 119 128
-0.33854982 -0.0032633513 -0.87834609 140 122 130
-0.33981463 -0.0055124238 -0.878869 141 123 132
-0.33967623 -0.00486641 -0.8789596 139 120 129
-0.33923393 -0.0092051597 -0.87635386 151 138 144
-0.33958063 -0.0093939817 -0.87667328 152 141 145
-0.34092724 -0.0096927313 -0.87817407 158 154 155
-0.33858126 -0.0085776122 -0.87591529 150 135 142
-0.3386296 -0.0087808752 -0.87585402 149 134 141
-0.33975419 -0.0095372582 -0.87680405 152 142 146
-0.34036675 -0.0060957391 -0.87923217 140 123 132
-0.33949384 -0.0064648516 -0.87814176 152 137 144
-0.34156409 -0.0091612628 -0.87922078 160 156 157
-0.34048563 -0.0063287457 -0.8792612 142 125 134
-0.34088862 -0.0088012321 -0.87864941 162 157 158
-0.34299812 -0.011135848 -0.87926847 161 155 156
-0.34222651 -0.011753008 -0.87811446 159 153 155
-0.3428064 -0.012761971 -0.87788284 156 148 151
-0.34331337 -0.012708871 -0.87838119 156 148 151
-0.34213969 -0.01302748 -0.87708092 155 148 150
-0.34192452 -0.011944466 -0.87769789 158 153 154
-0.34371847 -0.01366888 -0.87802815 154 143 147
-0.34310302 -0.013042708 -0.87794077 156 147 150
-0.34171471 -0.010427936 -0.87861687 161 159 159
-0.3398127 -0.0098119443 -0.87670577 151 141 145
-0.33971971 -0.010970664 -0.87572289 147 135 141
-0.33914968 -0.0099809505 -0.87575239 147 133 139
-0.34100604 -0.012339997 -0.87630278 152 143 146
-0.3406074 -0.01083561 -0.87693107 153 145 148
-0.34008732 -0.01092401 -0.87621629 150 139 144
-0.34116343 -0.0098342858 -0.87837374 159 155 156
-0.35741723 -0.014170284 -0.87916106 136 119 107
-0.34640288 -0.015905291 -0.87861323 144 133 134
-0.34600925 -0.016814314 -0.87752271 140 129 128
-0.3469919 -0.016229108 -0.8788355 143 132 133
-0.34614989 -0.01563843 -0.87862468 145 134 136
-0.34754524 -0.016673062 -0.87892735 141 131 131
-0.34200239 -0.014102859 -0.87611896 152 144 146
-0.34191459 -0.014858509 -0.8754465 148 141 144
-0.34345636 -0.015510811 -0.8762753 146 137 137
-0.34503508 -0.017021714 -0.87647152 139 129 127
-0.34457532 -0.017212065 -0.87586367 139 129 127
-0.34474087 -0.016253663 -0.8768397 142 133 132
-0.34308854 -0.014415636 -0.8768481 150 141 143
-0.34427974 -0.01554105 -0.87700522 146 136 136
-0.34497163 -0.014641667 -0.87836641 150 138 141
-0.34508112 -0.015569798 -0.87770659 146 135 136
-0.34479058 -0.014038908 -0.87869549 153 141 145
-0.34537312 -0.015996562 -0.87762171 144 133 133
-0.34536752 -0.015020849 -0.87842005 148 136 139
-0.34136152 -0.013930332 -0.87554306 149 140 144
-0.35140437 -0.021260535 -0.87848449 71 60 58
-0.3515943 -0.020638848 -0.87928653 67 58 56
-0.35068756 -0.019669104 -0.87920928 99 89 86
-0.34980264 -0.019691136 -0.87821108 127 114 111
-0.35045028 -0.020087175 -0.87854892 105 93 91
-0.34650436 -0.019530635 -0.87558877 132 120 114
-0.34692663 -0.019589569 -0.87583363 131 119 115
-0.34908015 -0.02137097 -0.87595654 126 111 108
-0.34881067 -0.021360826 -0.87574399 126 112 108
-0.34794709 -0.019842153 -0.8764146 131 117 114
-0.34867144 -0.018487494 -0.87827271 135 125 122
-0.34784108 -0.018002341 -0.87802559 136 126 124
-0.34734526 -0.017980052 -0.87763089 136 126 123
-0.34811404 -0.019328523 -0.87702876 132 120 117
-0.34661353 -0.018053975 -0.87694979 135 125 122
-0.34840861 -0.018385096 -0.87814718 135 125 123
-0.34923315 -0.020980174 -0.87643981 128 113 110
-0.34951752 -0.01826046 -0.87926954 137 127 123
-0.34552595 -0.018329997 -0.87584305 136 125 119
-0.3497462 -0.022880146 -0.87539685 129 111 110
-0.35148525 -0.024140466 -0.87561047 70 60 59
-0.35085189 -0.02297397 -0.87603724 91 79 77
-0.35253736 -0.024851834 -0.87580264 45 38 37
-0.35176519 -0.021913178 -0.87817311 61 51 50
-0.35113692 -0.022459647 -0.87684667 84 72 70
-0.35269818 -0.024281742 -0.87646115 45 38 37
-0.35236216 -0.023812601 -0.87663323 53 45 44
-0.35201684 -0.022224467 -0.87809062 55 46 44
-0.35240477 -0.023065986 -0.8775447 47 40 38
-0.35017335 -0.022033423 -0.87627614 112 98 95
-0.35243374 -0.021715306 -0.87914395 40 32 31
-0.35259742 -0.022168675 -0.87880278 38 31 30
-0.34945107 -0.02188047 -0.87588108 129 112 109
-0.35307291 -0.025543597 -0.87545836 25 20 20
-0.36307752 0.010055047 -0.89880002 158 136 138
-0.36153188 0.0098882243 -0.89802647 166 143 148
-0.36271286 0.0088048875 -0.89844418 160 137 140
-0.36363444 0.0072419667 -0.89867395 156 133 133
-0.36261681 0.0090568969 -0.89843249 160 138 140
-0.36195338 0.0086840596 -0.89806074 163 140 144
-0.36209738 0.0068307724 -0.89787376 158 137 137
-0.36173961 0.0079377331 -0.89785397 161 139 142
-0.3614395 0.0092711728 -0.89789343 165 142 147
-0.36204782 0.0061243237 -0.89775193 156 136 135
-0.35983863 0.0066418881 -0.89683992 163 145 148
-0.35919112 0.0067765801 -0.89655375 165 147 152
-0.36073136 0.0060491925 -0.89712167 159 139 141
-0.35975698 0.008625037 -0.89718288 169 151 153
-0.3611441 0.0066166325 -0.89740556 159 139 140
-0.36008275 0.0072570932 -0.89711106 164 147 147
-0.36131203 0.0077873892 -0.89762825 161 140 143
-0.36058316 0.0074936445 -0.8973245 163 144 146
-0.35997537 0.0089136502 -0.89730167 169 150 153
-0.36305431 0.0056728492 -0.89815068 154 134 132
-0.36370495 0.0049577011 -0.89826769 154 134 131
-0.36350098 0.004393253 -0.89800972 149 130 127
-0.3630819 0.0050713699 -0.89799726 154 134 132
-0.36385673 0.0048235548 -0.89830387 154 134 130
-0.36341265 0.0037984205 -0.89779913 143 126 123
-0.36508614 0.0020933375 -0.89813232 132 117 112
-0.36228648 0.0020954327 -0.89699954 141 124 122
-0.36469907 0.0020564916 -0.89796823 133 118 114
-0.36143562 0.0051070745 -0.89725965 154 134 134
-0.3615844 0.0045019351 -0.89719838 151 132 131
-0.36160824 0.0023753885 -0.89678121 144 126 125
-0.35994247 0.0023564573 -0.89592165 149 132 133
-0.35948575 0.0024991166 -0.89570606 151 134 135
-0.36012602 0.0027843178 -0.8961305 150 132 134
-0.36030856 0.0019787501 -0.8960281 147 130 129
-0.36012694 0.0043783318 -0.89646995 155 135 140
-0.35994858 0.0034810409 -0.89620072 152 133 138
-0.3605791 0.0056235632 -0.89694566 158 138 141
-0.36029273 0.0058455104 -0.89684719 159 139 143
-0.36082467 0.0027254338 -0.89648664 147 129 130
-0.36141455 -0.00093003281 -0.89539725 143 120 121
-0.36303294 -0.0014199901 -0.89580375 107 92 92
-0.3625645 -0.0015881388 -0.89555502 118 100 101
-0.36159512 -0.00066642684 -0.89557707 139 118 118
-0.36338872 -0.0014962933 -0.89590639 99 86 86
-0.36413112 -0.0012010515 -0.89631271 83 73 73
-0.3649357 0.00014477456 -0.89723265 99 88 85
-0.36150536 0.0018963933 -0.89662939 142 124 123
-0.36354071 0.0010729325 -0.89708406 120 106 104
-0.36486116 0.00019460265 -0.89722484 100 89 86
-0.36382613 0.0015777443 -0.89742595 129 114 111
-0.36453953 0.00028000632 -0.89713293 102 91 89
-0.36058128 0.00020121317 -0.89543355 147 127 127
-0.35965344 0.00038721203 -0.89500087 150 131 131
-0.35906392 0.0013665725 -0.89508897 151 135 134
-0.36000523 4.6479865e-05 -0.89505106 149 129 130
-0.36129385 0.00036143651 -0.89589345 145 124 124
-0.36303779 -0.0049973456 -0.89519042 81 69 69
-0.36346811 -0.005746814 -0.89525974 65 56 56
-0.36287531 -0.0045346683 -0.89521015 87 74 74
-0.3631323 -0.0027097196 -0.89559442 94 79 80
-0.36264312 -0.0026734862 -0.89540994 105 88 89
-0.36322972 -0.0031101834 -0.89561981 86 72 73
-0.36465189 -0.0035403385 -0.89614677 47 42 41
-0.36287162 -0.003292158 -0.89547884 91 76 77
-0.36408073 -0.0019748821 -0.89597511 84 73 73
-0.36444548 -0.0060225301 -0.89535147 34 30 29
-0.34342489 -0.027951412 -0.86278129 108 81 87
-0.34326291 -0.028730171 -0.86169899 113 87 90
-0.34468874 -0.028857267 -0.86297643 94 63 72
-0.34362113 -0.028101685 -0.86280018 106 78 85
-0.34265319 -0.029077163 -0.86067855 122 99 98
-0.34402665 -0.02846493 -0.86277705 102 72 80
-0.34310606 -0.028000636 -0.86240393 112 86 91
-0.34823915 -0.003602247 -0.88703179 142 133 137
-0.34823072 -0.004376153 -0.88681889 134 124 129
-0.34645382 -0.0049417829 -0.88522995 135 124 126
-0.34758663 -0.0050364733 -0.88610846 130 120 124
-0.34657437 -0.0047458974 -0.88539249 136 125 127
-0.34624335 -0.0055795736 -0.88484693 132 120 121
-0.3448253 -0.0051535396 -0.88370019 136 120 124
-0.34569296 -0.0056638834 -0.88437468 134 121 121
-0.34565744 -0.0049035535 -0.88459504 138 126 127
-0.34448063 -0.0038517681 -0.88383204 142 129 132
-0.34455943 -0.0034638224 -0.88404059 144 132 135
-0.34450287 -0.0043781805 -0.8836689 139 125 129
-0.3436605 -0.0031833863 -0.8833046 143 130 135
-0.36132041 -0.0090400493 -0.88426775 113 97 92
-0.36095506 -0.0091313021 -0.88343 117 100 94
-0.34982032 -0.0069233417 -0.88710201 125 112 119
-0.35160327 -0.0096137924 -0.88692075 143 129 130
-0.35079613 -0.0088628838 -0.88676578 139 125 129
-0.35003635 -0.0091861393 -0.88609713 144 132 136
-0.34577227 -0.0067050876 -0.8839739 137 124 125
-0.34847084 -0.0097055677 -0.88464272 151 139 144
-0.34599021 -0.0064850282 -0.88424176 136 123 124
-0.34685808 -0.0086377319 -0.88388085 147 134 138
-0.3473199 -0.0081441561 -0.88448954 144 131 134
-0.34706637 -0.0078181978 -0.88444698 142 129 132
-0.34671697 -0.0064380635 -0.88484651 134 121 122
-0.34673589 -0.0062787021 -0.88494074 132 120 121
-0.34958854 -0.0097155431 -0.88552767 150 138 142
-0.34783265 -0.0059359516 -0.88599211 125 113 118
-0.3478733 -0.0061933687 -0.88589704 127 115 119
-0.34935939 -0.0093188742 -0.88554037 148 136 140
-0.34956971 -0.0091712065 -0.88578534 146 134 138
-0.34494868 -0.0064501427 -0.88330853 135 118 123
-0.36028442 -0.010041771 -0.88428795 140 120 113
-0.36097723 -0.0099524697 -0.88630199 141 120 113
-0.35998926 -0.010999244 -0.88564759 143 123 115
-0.35975873 -0.011550253 -0.88623482 145 125 116
-0.36040878 -0.010779712 -0.88646805 143 122 115
-0.35997945 -0.011104841 -0.88587075 144 123 115
-0.35927477 -0.012863522 -0.88499218 144 124 115
-0.35869566 -0.013461616 -0.88645339 148 129 119
-0.35978723 -0.01337699 -0.88349468 138 119 110
-0.35998079 -0.010795526 -0.88347322 140 120 112
-0.35867098 -0.013454695 -0.88652205 149 129 119
-0.35984755 -0.010536411 -0.88388723 141 121 114
-0.35393149 -0.013649573 -0.88627738 148 130 128
-0.35380396 -0.013591266 -0.88621068 147 130 128
-0.35269848 -0.010556315 -0.88708395 142 126 125
-0.35182607 -0.010545785 -0.88651103 145 130 130
-0.35351029 -0.012856238 -0.88636333 145 128 126
-0.35225695 -0.011611979 -0.88621998 146 131 131
-0.3526113 -0.01192404 -0.88628072 146 130 129
-0.35129157 -0.011155721 -0.88585424 148 134 136
-0.35151449 -0.013480434 -0.88469577 147 132 136
-0.3497144 -0.01021223 -0.88533586 150 138 142
-0.35243943 -0.012867454 -0.88567734 148 132 132
-0.35213122 -0.012703105 -0.88556093 148 133 134
-0.35181546 -0.012436964 -0.88549769 148 133 135
-0.34969318 -0.011688675 -0.88447732 149 136 143
-0.3531751 -0.013419411 -0.88586378 148 131 130
-0.34891447 -0.010880945 -0.88432747 150 137 144
-0.34883821 -0.0099279322 -0.88481283 151 139 144
-0.3474943 -0.0098370491 -0.88379532 153 140 145
-0.34888214 -0.010238872 -0.8846696 151 138 144
-0.34865904 -0.010432116 -0.88438135 151 138 144
-0.35832667 -0.016213242 -0.88637608 146 126 117
-0.35878482 -0.016546829 -0.88550061 143 123 113
-0.35873649 -0.015126136 -0.88609439 146 126 116
-0.35841304 -0.014496225 -0.88685513 149 129 119
-0.3585791 -0.015177224 -0.88633513 147 127 117
-0.35884178 -0.015274687 -0.88586718 145 126 114
-0.35961628 -0.014832435 -0.88396746 139 120 109
-0.35946041 -0.014246338 -0.88435966 140 122 111
-0.35986552 -0.014303312 -0.88325858 136 118 108
-0.35914448 -0.014178026 -0.88521701 143 124 114
-0.35976151 -0.016771624 -0.88367999 137 118 104
-0.3596656 -0.01429611 -0.88380319 138 120 109
-0.35513112 -0.014678173 -0.88675731 148 129 125
-0.35490757 -0.013724335 -0.88698202 148 130 126
-0.35372171 -0.013866345 -0.88602722 148 130 128
-0.35467052 -0.017346932 -0.88534909 146 128 125
-0.35573682 -0.017182473 -0.8862009 147 127 124
-0.35448879 -0.015291736 -0.88602853 147 129 126
-0.35410041 -0.014450011 -0.8860752 147 130 127
-0.35476276 -0.015579103 -0.88611692 147 129 126
-0.35494828 -0.016101845 -0.88604683 147 128 125
-0.35181266 -0.01608579 -0.88378388 145 130 133
-0.35219803 -0.016621003 -0.88379908 145 129 131
-0.35276937 -0.017162908 -0.88398147 144 129 129
-0.35265997 -0.015506319 -0.88464183 146 130 131
-0.3524681 -0.014154881 -0.88504583 147 131 132
-0.35268337 -0.015171992 -0.88479012 146 130 131
-0.35285428 -0.016729634 -0.88429028 145 129 129
-0.35333231 -0.014438117 -0.88552344 147 130 129
-0.35280424 -0.014419306 -0.88517052 147 130 131
-0.35446611 -0.019417819 -0.88381052 107 94 93
-0.35355115 -0.018659513 -0.88343889 140 123 121
-0.35705838 -0.021453895 -0.88481265 74 63 61
-0.35442373 -0.018867541 -0.88425022 119 105 104
-0.35621047 -0.021152485 -0.88416594 76 65 64
-0.35621089 -0.021300985 -0.88403612 72 62 60
-0.35536587 -0.017889196 -0.88560253 140 123 119
-0.35565066 -0.019437846 -0.88497585 112 98 96
-0.35654905 -0.01839491 -0.88620216 132 114 110
-0.35572827 -0.019752795 -0.88486296 106 93 91
-0.35521966 -0.018281782 -0.88528252 133 116 114
-0.35413674 -0.018194268 -0.8845309 134 118 116
-0.35499376 -0.018689575 -0.8848955 125 110 108
-0.35286593 -0.018016962 -0.8833974 143 126 125
-0.35639301 -0.021515947 -0.88402897 67 58 56
-0.35741615 -0.022611765 -0.88367766 18 15 15
-0.36900082 0.010289638 -0.90201306 118 112 116
-0.36794662 0.011235802 -0.90163434 127 117 118
-0.36687148 0.012926575 -0.9013893 112 99 96
-0.36874068 0.010569167 -0.9019286 119 112 115
-0.36601815 0.013208624 -0.90098852 135 118 114
-0.36717969 0.01215227 -0.90140313 126 113 112
-0.36620578 0.010999404 -0.90055865 140 124 120
-0.36614859 0.011143023 -0.90056115 141 124 121
-0.367585 0.010141815 -0.90115893 135 123 123
-0.3656204 0.010380534 -0.90005481 139 122 117
-0.36526486 0.013466671 -0.90062618 149 129 123
-0.3655999 0.010333834 -0.90003085 139 121 116
-0.36519945 0.011008287 -0.89997029 142 123 117
-0.36429122 0.011000856 -0.89958608 150 130 128
-0.36504635 0.010767402 -0.89984483 143 123 118
-0.36302456 0.010607843 -0.89888799 159 138 140
-0.36302954 0.010591881 -0.8988874 159 138 140
-0.36430576 0.012083218 -0.89985484 153 132 130
-0.36480203 0.013454729 -0.90039039 152 132 127
-0.36270049 0.011789162 -0.89895642 164 143 145
-0.36554942 0.0070979269 -0.89963299 144 123 118
-0.36686063 0.006720948 -0.90053225 138 121 111
-0.36676508 0.0067279525 -0.90046477 138 121 111
-0.36600557 0.0068804766 -0.89993739 142 123 116
-0.36654729 0.0066826334 -0.90030473 139 122 113
-0.36652607 0.0066797342 -0.9002893 139 122 113
-0.36639151 0.006991758 -0.90022391 139 122 113
-0.36879292 0.0064281663 -0.9018566 129 117 102
-0.36875144 0.0070645739 -0.90181732 129 118 107
-0.36567321 0.0093915947 -0.899939 137 119 112
-0.368193 0.0088996552 -0.90144396 132 122 118
-0.36765817 0.0086738896 -0.90113217 133 120 115
-0.36831456 0.0071199001 -0.90155703 130 118 106
-0.36435318 0.0058700498 -0.89883184 152 130 128
-0.36512747 0.0071487981 -0.89935774 146 125 120
-0.3647123 0.0079892883 -0.8992371 146 125 122
-0.36467776 0.0084563317 -0.89927864 146 125 122
-0.36436921 0.0065861731 -0.89892423 151 130 127
-0.36831844 0.00309376 -0.89887553 31 27 26
-0.36584473 0.0047860886 -0.89904946 127 109 105
-0.36841321 0.0058436343 -0.90154117 131 118 103
-0.36865801 0.0030843017 -0.89899433 22 19 18
-0.3682375 0.0049952725 -0.90057886 99 88 79
-0.36724761 0.0051610889 -0.90003556 111 97 89
-0.36852744 0.0041035158 -0.8999064 63 56 50
-0.36627969 0.0053687361 -0.89954913 124 106 101
-0.36752567 0.004417744 -0.89950091 80 69 65
-0.33808085 -0.011114959 -0.87359822 147 141 142
-0.33828482 -0.010954742 -0.87396055 145 137 139
-0.33883739 -0.011917764 -0.87391549 142 137 137
-0.33926868 -0.011209784 -0.87498194 145 133 138
-0.33889678 -0.012487615 -0.87356365 142 139 137
-0.34034276 -0.013381358 -0.87469721 146 139 141
-0.33954453 -0.011761711 -0.8749131 145 135 139
-0.33920002 -0.013340633 -0.87330395 142 141 138
-0.33895016 -0.012854437 -0.87335598 141 140 137
-0.3377752 -0.013123401 -0.87170225 140 146 138
-0.34215683 -0.015334135 -0.87524533 146 139 140
-0.34259233 -0.015826391 -0.87521505 144 136 137
-0.34262344 -0.017344944 -0.87376267 129 127 121
-0.34271842 -0.016596148 -0.87459308 137 132 129
-0.34259489 -0.016696528 -0.87436706 135 131 128
-0.34169236 -0.015268668 -0.87479717 143 138 139
-0.34175208 -0.016035236 -0.87412739 136 133 131
-0.34115016 -0.014091616 -0.87511009 146 137 140
-0.34100375 -0.015611568 -0.87347388 131 127 125
-0.34013602 -0.013883488 -0.87402254 143 139 138
-0.34064779 -0.013801373 -0.87473774 146 139 140
-0.33914199 -0.014957962 -0.87176859 130 135 126
-0.34033614 -0.014461265 -0.87372583 139 135 133
-0.34046054 -0.015740044 -0.87267226 128 127 122
-0.33920506 -0.014151171 -0.87260973 137 139 133
-0.3406845 -0.016447997 -0.87228221 123 123 116
-0.34070399 -0.014955083 -0.87371743 136 132 130
-0.34615871 -0.019539414 -0.87534857 133 120 113
-0.34585968 -0.020780463 -0.87429404 130 115 111
-0.34692773 -0.020924654 -0.87483245 129 114 110
-0.34304589 -0.020304359 -0.8715933 122 111 114
-0.34490374 -0.02087152 -0.87332189 127 114 111
-0.34313005 -0.019607756 -0.87238586 124 116 115
-0.34428906 -0.020914491 -0.87255371 126 111 114
-0.34456953 -0.02083616 -0.87295842 126 113 112
-0.3425979 -0.01806765 -0.87312984 124 123 116
-0.34436971 -0.018238679 -0.87483233 135 125 122
-0.34368408 -0.018328547 -0.87405282 130 124 119
-0.3435666 -0.018818699 -0.87355226 127 121 116
-0.34390646 -0.018486595 -0.87416095 131 123 119
-0.34246331 -0.017879605 -0.87313581 124 123 116
-0.34538707 -0.019344194 -0.874951 134 121 116
-0.34546673 -0.019485315 -0.87491763 134 121 115
-0.34111804 -0.017626928 -0.87172079 115 117 108
-0.34742588 -0.023354392 -0.87282425 78 67 66
-0.34817627 -0.024059998 -0.87271065 65 55 54
-0.34862879 -0.022917228 -0.87416947 95 83 80
-0.34913912 -0.024129836 -0.87338567 68 58 57
-0.34814012 -0.022812512 -0.87397075 97 85 83
-0.34870869 -0.023789234 -0.87343377 76 65 64
-0.34917504 -0.024898371 -0.87271661 52 43 42
-0.34838313 -0.022768866 -0.87415558 98 86 83
-0.34908512 -0.0229527 -0.87451756 101 88 86
-0.34886736 -0.022498049 -0.87473404 107 94 91
-0.35094407 -0.02549894 -0.87353003 31 25 25
-0.35011175 -0.025527466 -0.8727268 33 27 26
-0.35182837 -0.025694851 -0.87394506 19 16 15
-0.35233781 -0.026615165 -0.87262326 8 7 7
-0.35291699 -0.025988614 -0.87435174 11 9 8
-0.35312712 -0.026482705 -0.87358147 8 6 6
-0.35115892 -0.026093982 -0.87258482 14 12 11
-0.35149142 -0.025982171 -0.87309694 14 12 11
-0.35266665 -0.026706075 -0.87273943 7 6 6
-0.35200986 -0.026245728 -0.87304735 11 10 9
-0.34948954 -0.025445553 -0.872172 31 25 25
-0.35368165 -0.0056625465 -0.89008641 153 135 142
-0.35127616 -0.0048815948 -0.88879663 144 130 136
-0.34990579 -0.0051406114 -0.88784975 130 118 124
-0.34987986 -0.0049198549 -0.88789916 133 120 126
-0.35107002 -0.0047960705 -0.88869131 144 129 135
-0.34993973 -0.0056980276 -0.88770491 125 112 120
-0.34947389 -0.0048183892 -0.88765246 131 119 125
-0.34908572 -0.0037398119 -0.88766378 142 131 134
-0.34899336 -0.0032718638 -0.88772786 147 136 138
-0.35627791 -0.0077628116 -0.89079762 143 124 123
-0.3567507 -0.0083122049 -0.89087081 142 122 119
-0.35602111 -0.0081676682 -0.89048266 144 125 125
-0.357315 -0.0095861144 -0.89066726 140 120 115
-0.35517058 -0.0089240465 -0.88956892 142 123 123
-0.35410047 -0.0085524106 -0.88903964 144 125 126
-0.35390076 -0.0091349222 -0.88863319 142 123 123
-0.35499761 -0.0087937526 -0.88951653 143 124 124
-0.35441524 -0.0093961107 -0.88884872 141 122 121
-0.35427779 -0.0078961067 -0.88946617 146 127 130
-0.35426575 -0.0073913895 -0.88969648 147 129 133
-0.35032484 -0.0073688966 -0.88719672 129 115 121
-0.35172394 -0.0086995009 -0.88744205 136 121 123
-0.35221586 -0.0096346829 -0.88730901 142 126 127
-0.35016277 -0.0065150154 -0.88748789 124 111 118
-0.35275009 -0.0066493945 -0.88906699 144 127 133
-0.3532899 -0.0059727551 -0.88972884 150 133 140
-0.3527067 -0.0058652265 -0.88940954 146 129 137
-0.35065222 -0.0067143058 -0.88770527 126 113 119
-0.35241792 -0.0076643103 -0.88837725 137 121 125
-0.35284874 -0.0074292072 -0.88876152 142 125 129
-0.35294744 -0.0086860042 -0.88823104 138 121 123
-0.36165658 -0.009912774 -0.89067864 151 130 119
-0.35765171 -0.012052336 -0.88936347 146 126 121
-0.35747874 -0.013022856 -0.88939506 148 128 125
-0.35783085 -0.012195596 -0.88892961 146 126 120
-0.36016297 -0.010271559 -0.89077228 148 128 118
-0.35844877 -0.011266939 -0.88943237 146 125 118
-0.35792178 -0.010507519 -0.8900488 142 122 116
-0.35847601 -0.012385279 -0.88835895 148 128 119
-0.35948116 -0.010886788 -0.89002764 148 127 118
-0.35866347 -0.0099890716 -0.89071327 143 123 116
-0.3578594 -0.010848208 -0.88970619 143 123 116
-0.36045855 -0.011268371 -0.8895185 150 130 119
-0.35886657 -0.013123251 -0.88726407 149 129 119
-0.36105594 -0.010488993 -0.88964123 149 128 118
-0.36089918 -0.010725801 -0.88988912 150 129 119
-0.36132541 -0.010034747 -0.88880491 145 124 115
-0.35943621 -0.012381618 -0.88739407 148 128 118
-0.35393348 -0.011024198 -0.88770151 142 124 122
-0.35550225 -0.0127011 -0.88811839 147 128 125
-0.35489726 -0.013083172 -0.88733011 147 129 125
-0.35401386 -0.01057735 -0.88804507 141 123 122
-0.35639504 -0.012743786 -0.8889122 147 128 126
-0.35530481 -0.012199952 -0.88824224 145 127 124
-0.35415313 -0.010229129 -0.88833982 141 122 121
-0.35633808 -0.010386582 -0.88972354 141 122 118
-0.35482478 -0.010403813 -0.88872105 141 122 121
-0.35672054 -0.011863681 -0.88945955 145 125 123
-0.35499725 -0.011018907 -0.88861984 143 124 122
-0.35646021 -0.010953609 -0.889606 143 123 120
-0.35470846 -0.010415568 -0.8886404 141 123 121
-0.35272846 -0.0097908564 -0.88756067 142 125 125
-0.35766652 -0.014737342 -0.88826233 149 129 124
-0.35763001 -0.016299775 -0.88760179 148 127 121
-0.35792431 -0.014200318 -0.88796401 150 129 123
-0.35750794 -0.017442942 -0.88732553 147 126 121
-0.35739484 -0.016135998 -0.88808733 148 127 123
-0.35620666 -0.014896475 -0.88755989 148 129 125
-0.35630232 -0.013888068 -0.88815343 149 130 126
-0.35723704 -0.015056997 -0.88842559 149 128 125
-0.35723087 -0.014670207 -0.88861388 149 129 126
-0.35697493 -0.017110996 -0.88715488 148 127 122
-0.34667122 -0.027544888 -0.8670795 93 59 71
-0.34634832 -0.026944324 -0.86752021 108 69 83
-0.34657785 -0.028639633 -0.86543453 77 47 58
-0.34740558 -0.028554019 -0.86657572 62 40 48
-0.34591988 -0.027935926 -0.86560583 101 61 76
-0.34693661 -0.028470017 -0.86611432 73 46 55
-0.34654441 -0.027297234 -0.8672691 99 63 76
-0.34563342 -0.02753327 -0.8658182 109 67 82
-0.34541428 -0.027950903 -0.86497509 101 62 76
-0.34476215 -0.027303832 -0.86510706 109 72 86
-0.34440774 -0.027469566 -0.86445576 105 71 83
-0.34447536 -0.028014785 -0.86377388 96 64 75
-0.34813464 -0.029342307 -0.86635977 36 24 27
-0.34913912 -0.0310582 -0.86432987 10 5 7
-0.34805277 -0.030478861 -0.86408973 33 19 24
-0.34867975 -0.030738588 -0.86437368 20 11 14
-0.3484154 -0.029698633 -0.86606568 26 15 18
-0.34881333 -0.029767117 -0.8664335 17 10 12
-0.34855703 -0.03063608 -0.86441869 22 13 16
-0.34098426 -0.0017135427 -0.88128507 141 129 136
-0.3393369 0.00082386413 -0.88031101 153 137 142
-0.33983684 -0.00057175476 -0.88039798 143 128 134
-0.34003574 -0.00027670967 -0.88067949 145 130 137
-0.3428593 -0.0033177976 -0.88254982 139 127 132
-0.34237975 -0.0045689996 -0.8817789 138 124 130
-0.34251451 -0.0041509531 -0.88201362 138 125 131
-0.34186259 -0.005236763 -0.8811537 139 123 131
-0.34228614 -0.004446459 -0.88173747 139 124 131
-0.34241799 -0.0044538081 -0.88184446 138 124 131
-0.34169403 -0.00557535 -0.8808856 139 122 130
-0.34163857 -0.0044718906 -0.88114941 140 126 133
-0.34121317 -0.0053547435 -0.88041854 139 122 131
-0.33970168 -0.0022665632 -0.87979347 135 121 127
-0.34089556 -0.0041975686 -0.88041228 140 125 133
-0.34008619 -0.0027270725 -0.88004452 136 122 129
-0.34003904 -0.0020674393 -0.88020724 136 123 129
-0.34058359 -0.0024906881 -0.88063616 138 126 132
-0.34627366 -0.0092135929 -0.88315648 150 137 142
-0.34231272 -0.009351477 -0.87981248 160 156 156
-0.34328219 -0.0094185863 -0.88058805 158 150 153
-0.34197214 -0.007630669 -0.88028437 150 139 143
-0.34368372 -0.0079311803 -0.88157392 147 132 139
-0.34275997 -0.0072134091 -0.88112158 145 130 137
-0.3438808 -0.00925586 -0.8811565 155 145 149
-0.34194836 -0.0081090601 -0.88005483 153 145 148
-0.34394366 -0.0064490745 -0.88243657 137 120 126
-0.34359625 -0.0074057248 -0.88173115 143 128 135
-0.34305325 -0.0067370152 -0.88157332 141 124 132
-0.34475306 -0.0073366901 -0.88271952 140 124 130
-0.34333852 -0.0073035564 -0.88156235 143 128 135
-0.3448689 -0.0068750414 -0.88301986 137 120 126
-0.34113979 -0.0074746618 -0.87948817 149 138 143
-0.34166011 -0.0066507757 -0.88042122 144 130 136
-0.34132197 -0.0067126499 -0.8800202 144 130 137
-0.36096972 -0.012487844 -0.88058388 139 119 111
-0.3613219 -0.012976433 -0.88017792 139 119 111
-0.36121246 -0.013129293 -0.88045663 139 119 111
-0.36105803 -0.010910867 -0.87975103 140 119 111
-0.36065155 -0.01231179 -0.88109249 139 119 110
-0.36044982 -0.011448971 -0.88145393 139 119 110
-0.36001703 -0.011898827 -0.88313389 138 119 110
-0.36070088 -0.010668176 -0.88063627 140 119 111
-0.36022136 -0.011511425 -0.88239366 139 119 111
-0.36003482 -0.012316706 -0.88293308 138 119 110
-0.34639165 -0.0098181237 -0.88294089 153 140 146
-0.34617209 -0.010071767 -0.88263524 152 139 146
-0.34693465 -0.012434168 -0.8817935 151 138 145
-0.3466166 -0.011704307 -0.88198811 152 138 145
-0.34572041 -0.013590779 -0.8800177 154 140 145
-0.34593356 -0.011499817 -0.88153535 153 139 145
-0.34808645 -0.012923226 -0.88246471 149 135 144
-0.34867251 -0.013643669 -0.88250506 148 134 144
-0.34717378 -0.013397435 -0.88138241 151 137 145
-0.34648991 -0.012895029 -0.88111931 152 139 145
-0.34567198 -0.011219356 -0.8814826 153 140 146
-0.34533072 -0.011279595 -0.88110292 154 141 147
-0.3437365 -0.011619552 -0.87954682 159 151 153
-0.34316352 -0.010059832 -0.88013643 161 155 156
-0.34204099 -0.0098502031 -0.87934744 164 162 161
-0.34524131 -0.01236306 -0.88028854 154 141 146
-0.34513912 -0.011203522 -0.88099575 154 142 147
-0.34497833 -0.011398822 -0.88072884 155 143 148
-0.34474191 -0.012382586 -0.87986052 156 144 149
-0.3610028 -0.013686809 -0.88110131 138 119 111
-0.36035642 -0.014830623 -0.88117647 137 119 109
-0.36022553 -0.015939545 -0.88033354 136 118 109
-0.36084443 -0.014169753 -0.88092142 138 119 110
-0.36019745 -0.01390088 -0.88237971 137 119 109
-0.35990366 -0.015211279 -0.88310587 136 118 106
-0.35993132 -0.01741503 -0.88109785 135 117 105
-0.35993326 -0.017104065 -0.88205111 135 117 104
-0.35989615 -0.015112031 -0.88247657 136 118 107
-0.35994402 -0.01747616 -0.88240916 135 117 103
-0.36065513 -0.016701806 -0.87932014 137 119 110
-0.36110517 -0.016162746 -0.87933612 137 119 111
-0.35052338 -0.016099621 -0.88238931 144 131 134
-0.35123014 -0.017298819 -0.88224798 143 130 130
-0.34968263 -0.015921272 -0.88152003 143 132 135
-0.34999174 -0.014445023 -0.88312101 146 132 140
-0.35026926 -0.01564675 -0.88245809 144 131 136
-0.34995216 -0.017232914 -0.88075614 141 131 130
-0.34698346 -0.015544038 -0.8794114 146 135 137
-0.34789827 -0.015922913 -0.87995172 146 135 136
-0.34824702 -0.016361585 -0.87986845 144 134 134
-0.34849343 -0.01571087 -0.88064659 145 134 136
-0.34868586 -0.015182532 -0.88124818 146 134 138
-0.3494319 -0.015030219 -0.88201141 144 132 138
-0.34843573 -0.014428854 -0.88165832 147 135 141
-0.34770522 -0.014665867 -0.88083833 149 136 141
-0.34832314 -0.015652115 -0.88054979 146 135 137
-0.34884828 -0.01444611 -0.88199633 147 134 141
-0.34939742 -0.014624896 -0.88231742 145 133 140
-0.34968981 -0.018114004 -0.87960696 135 126 122
-0.35053748 -0.018595215 -0.88007522 114 106 104
-0.35266748 -0.021448154 -0.87966222 41 34 33
-0.35125017 -0.019881453 -0.87964225 81 73 71
-0.3505047 -0.017696951 -0.88100684 138 128 126
-0.35197821 -0.018190995 -0.88224542 127 114 114
-0.35027459 -0.017823648 -0.88058871 134 125 123
-0.35247546 -0.019557597 -0.88134056 91 81 81
-0.3511267 -0.018398883 -0.88098574 120 110 109
-0.35234708 -0.020131135 -0.88055283 75 68 67
-0.35201517 -0.018934667 -0.88147026 107 97 96
-0.35309452 -0.018464843 -0.8831889 141 124 123
-0.35290384 -0.018387243 -0.88307339 137 121 120
-0.34918499 -0.017608432 -0.87957627 138 130 128
-0.35346732 -0.021756204 -0.88016206 41 35 35
-0.35561758 -0.025809931 -0.87976724 67 59 56
-0.356242 -0.025590422 -0.88071281 44 38 37
-0.35674933 -0.02566869 -0.8810395 25 22 21
-0.35665968 -0.025667254 -0.88096046 28 24 23
-0.35878336 0.0012673234 -0.89489233 152 136 135
-0.3578001 0.0012759296 -0.89437366 154 139 138
-0.35901916 -0.001563384 -0.89397669 148 130 129
-0.35796794 0.00010645995 -0.89405215 152 137 135
-0.35760933 0.00051349518 -0.89402211 153 139 137
-0.35801712 0.00024405378 -0.89412254 152 137 135
-0.35834765 -0.0015683427 -0.89365751 149 133 130
-0.35629377 -0.0014898955 -0.89272147 154 142 140
-0.35668823 -0.00025918288 -0.89331645 154 141 140
-0.35730341 -0.00052392308 -0.89352095 151 138 136
-0.36011845 -0.0035738549 -0.89394361 145 125 124
-0.35824794 -0.0024008178 -0.89336252 147 132 129
-0.36016974 -0.0041964371 -0.89380783 144 125 124
-0.36063185 -0.0029525114 -0.89434546 145 124 124
-0.36091107 -0.0019991116 -0.89472222 146 123 124
-0.36023304 -0.0026858607 -0.89422584 146 125 125
-0.35747766 -0.0030258722 -0.89284968 146 131 128
-0.35896781 -0.0054695741 -0.89293516 141 122 120
-0.35804957 -0.004648326 -0.89271402 143 125 123
-0.35750723 -0.0039126263 -0.89264512 144 128 125
-0.35963017 -0.0054747756 -0.89323908 142 122 120
-0.3587881 -0.0052511347 -0.89290607 142 123 121
-0.35661387 -0.0053155581 -0.89186037 144 126 126
-0.357003 -0.002827009 -0.89268214 149 135 132
-0.35680494 -0.0051357183 -0.89202386 144 127 125
-0.35592693 -0.0042556394 -0.89184052 151 135 135
-0.35655525 -0.0045353202 -0.8920579 147 131 129
-0.35771343 -0.0084108338 -0.89133745 140 121 116
-0.35890174 -0.0089937551 -0.89159966 144 123 117
-0.36040229 -0.0089215143 -0.89221048 148 127 119
-0.35846001 -0.0094766738 -0.89125717 142 122 116
-0.3596212 -0.0085282736 -0.89204437 146 125 119
-0.35871828 -0.0084588183 -0.8917166 143 123 118
-0.36058417 -0.0070718969 -0.89307106 144 123 119
-0.35925692 -0.005998713 -0.89291346 141 121 119
-0.36022416 -0.0086338902 -0.89224434 147 126 119
-0.35889032 -0.0069100503 -0.8923589 143 123 119
-0.36010024 -0.0060004229 -0.89330137 141 121 119
-0.35883409 -0.0063990722 -0.89254922 141 122 119
-0.35902017 -0.0062228157 -0.89270949 141 121 119
-0.35662916 -0.0065190294 -0.89143354 142 122 123
-0.35711947 -0.0069492739 -0.89156306 141 121 119
-0.35612655 -0.0062265322 -0.89124775 144 124 126
-0.36173239 -0.0097969053 -0.8912037 152 130 120
-0.36079571 -0.010013156 -0.89146841 149 128 119
-0.36090708 -0.010198409 -0.89106369 150 129 119
0 0 0 1 0 0 0 1 0 0 0 1 0 0 0 0 0 666 1 0 0
