ply
format ascii 1.0
comment PCL generated
element vertex 1004
property float x
property float y
property float z
property uchar red
property uchar green
property uchar blue
element camera 0
property float view_px
property float view_py
property float view_pz
property float x_axisx
property float x_axisy
property float x_axisz
property float y_axisx
property float y_axisy
property float y_axisz
property float z_axisx
property float z_axisy
property float z_axisz
property float focal
property float scalex
property float scaley
property float centerx
property float centery
property int viewportx
property int viewporty
property float k1
property float k2
end_header
-0.072667629 -0.48896119 -0.68922108 153 137 162
-0.074295357 -0.48944625 -0.68943638 143 119 146
-0.072842792 -0.48742351 -0.68873382 152 131 156
-0.073374063 -0.48949257 -0.6894176 149 130 156
-0.073556095 -0.48876974 -0.68919212 148 126 152
-0.07550215 -0.48792943 -0.68889946 150 132 148
-0.074212432 -0.48787612 -0.68890637 147 123 147
-0.074556738 -0.48791534 -0.68891394 148 125 147
-0.073231786 -0.48635387 -0.6883505 158 141 160
-0.074662983 -0.48813531 -0.688995 146 123 145
-0.071732305 -0.48984319 -0.68946517 158 145 173
-0.071172282 -0.49022549 -0.68958402 159 146 172
-0.070931055 -0.48947668 -0.68931699 161 146 176
-0.07004039 -0.48983127 -0.68941772 162 148 176
-0.071169019 -0.48873734 -0.68907642 161 143 176
-0.070063069 -0.48794961 -0.68876487 166 144 184
-0.071328543 -0.48906097 -0.68918878 160 144 176
-0.071019553 -0.48805085 -0.68884808 161 142 175
-0.070349447 -0.48788688 -0.68875992 164 143 181
-0.07221096 -0.48815989 -0.68894625 156 139 165
-0.091658309 -0.49128771 -0.69178766 129 109 121
-0.090918578 -0.49025375 -0.69131279 129 107 117
-0.088736005 -0.49128038 -0.69122601 137 115 128
-0.087924428 -0.49245614 -0.69145459 140 118 136
-0.087949328 -0.49337435 -0.69176114 140 118 140
-0.08937975 -0.49115887 -0.69131118 135 112 126
-0.086501993 -0.49344146 -0.69160563 148 125 144
-0.087354273 -0.49164701 -0.691118 143 120 134
-0.087331429 -0.49316642 -0.69161451 143 121 140
-0.087338172 -0.49091691 -0.69087523 142 120 131
-0.086946636 -0.49149725 -0.69101858 145 122 134
-0.087138161 -0.49116606 -0.69093287 143 121 132
-0.086012788 -0.49208498 -0.6910975 149 127 139
-0.085147135 -0.49119276 -0.6906988 146 121 133
-0.085942753 -0.49039853 -0.69053471 142 116 128
-0.086057477 -0.49126819 -0.69083452 145 122 134
-0.084808089 -0.49068895 -0.69049191 144 117 130
-0.084065698 -0.49185336 -0.69078416 149 124 138
-0.080941722 -0.49272865 -0.690826 137 115 137
-0.080082148 -0.4910253 -0.69019324 129 100 129
-0.080095083 -0.49408072 -0.69121325 135 120 137
-0.081251197 -0.49159583 -0.69047147 137 109 135
-0.082693815 -0.49369243 -0.69127929 150 130 147
-0.083668739 -0.49349347 -0.69128788 155 133 149
-0.082125373 -0.4904846 -0.69017541 136 106 128
-0.081813961 -0.49070844 -0.69022405 136 106 130
-0.083766572 -0.49226546 -0.69089222 151 125 141
-0.08265017 -0.49254686 -0.69089526 147 122 142
-0.083754361 -0.49271673 -0.6910395 152 128 144
-0.076687582 -0.49121553 -0.69010627 133 105 131
-0.077981733 -0.49328789 -0.69085127 136 116 137
-0.078707449 -0.49342805 -0.69093192 135 117 137
-0.076226346 -0.49090376 -0.68998152 133 103 131
-0.078074366 -0.4921971 -0.69049579 133 110 133
-0.079701968 -0.49324831 -0.69091785 133 115 135
-0.078690767 -0.49101934 -0.69013017 130 102 129
-0.079060301 -0.49144706 -0.69028902 131 104 130
-0.079414487 -0.49077165 -0.69007927 129 99 128
-0.076886326 -0.4902418 -0.68979192 131 99 128
-0.077975966 -0.4913103 -0.69019592 132 104 131
-0.074668609 -0.49382025 -0.69083196 147 126 153
-0.074945003 -0.49333823 -0.69071782 146 127 152
-0.073074758 -0.49386939 -0.69071454 155 132 162
-0.073823698 -0.49252024 -0.69039297 150 133 159
-0.072763659 -0.4910984 -0.68990159 154 140 167
-0.074489787 -0.49319255 -0.6906389 148 129 154
-0.076151118 -0.49383759 -0.69094616 140 119 143
-0.07584729 -0.49359974 -0.69085658 141 121 145
-0.075014688 -0.49057379 -0.68982774 139 115 142
-0.07525941 -0.49124628 -0.69005859 139 115 142
-0.075841196 -0.49259844 -0.69052595 139 116 141
-0.068452083 -0.49330798 -0.69056618 163 146 169
-0.070712991 -0.4935751 -0.69058263 161 139 168
-0.070313521 -0.49391368 -0.69071203 161 139 167
-0.070480384 -0.49248797 -0.69021749 163 141 171
-0.069325365 -0.49256131 -0.69028109 163 145 171
-0.069646493 -0.4936828 -0.69065499 162 142 168
-0.070669353 -0.49148265 -0.68992889 161 144 172
-0.071939826 -0.49262577 -0.69028616 159 138 169
-0.071928337 -0.49294505 -0.69037658 159 137 168
-0.071168408 -0.49160171 -0.6899755 160 143 171
-0.072259583 -0.49108002 -0.68985522 156 142 170
-0.071343139 -0.49292439 -0.69035578 161 139 169
-0.06834925 -0.49336809 -0.6905905 163 146 168
-0.084103644 -0.49479878 -0.69177687 159 138 153
-0.081528053 -0.49527869 -0.69174886 145 126 145
-0.082464039 -0.49471992 -0.69161904 151 131 148
-0.081373602 -0.49435443 -0.69140601 143 126 143
-0.078906365 -0.4951807 -0.6915465 138 121 143
-0.078245007 -0.49550292 -0.69162917 140 122 146
-0.079836689 -0.49536714 -0.69165939 137 119 140
-0.076613076 -0.49511009 -0.69141126 142 123 148
-0.078513227 -0.49457514 -0.69131172 138 122 142
-0.077143699 -0.49471468 -0.69129628 140 122 145
-0.07601729 -0.49518746 -0.69140822 144 124 150
-0.074999623 -0.4960677 -0.6916573 151 131 158
-0.075933956 -0.49463558 -0.69120753 143 123 147
-0.07462351 -0.49429598 -0.69097877 148 126 153
-0.072278336 -0.49563074 -0.69129699 163 141 169
-0.074013032 -0.49452692 -0.69101691 152 130 157
-0.073097616 -0.4944337 -0.69090575 156 132 162
-0.07201419 -0.49636593 -0.69159043 164 144 170
-0.071700975 -0.49627763 -0.69157231 162 142 169
-0.070405088 -0.49583218 -0.69146663 157 134 164
-0.070550255 -0.49648219 -0.69170851 159 138 165
-0.068766356 -0.49614096 -0.69166601 153 128 159
-0.069350168 -0.49429196 -0.69088429 161 141 166
-0.06852074 -0.49590915 -0.69157857 155 131 160
-0.069509283 -0.49542791 -0.6913473 156 132 162
-0.067894645 -0.49513096 -0.69127738 160 141 166
-0.12874351 -0.46677908 -0.70037299 172 148 168
-0.12726527 -0.46803063 -0.69975919 160 131 153
-0.1289106 -0.46700779 -0.70057756 174 152 169
-0.12892625 -0.46852151 -0.70116842 178 157 168
-0.12853934 -0.46775138 -0.70057982 173 150 166
-0.12716983 -0.46822831 -0.69976377 160 131 152
-0.12824242 -0.46782741 -0.70039213 170 145 163
-0.12818862 -0.46980143 -0.70114589 171 149 161
-0.12992656 -0.46985203 -0.70250595 186 174 182
-0.12924604 -0.46955541 -0.70185381 180 163 173
-0.1291405 -0.46925285 -0.7016418 179 161 172
-0.12796314 -0.46975023 -0.70095015 169 145 158
-0.12642141 -0.47068956 -0.70022535 152 125 139
-0.12965718 -0.4707213 -0.70267755 183 171 180
-0.12527008 -0.47325259 -0.70024955 136 110 122
-0.12601604 -0.47235867 -0.70046914 147 121 133
-0.12444811 -0.47409573 -0.6999647 124 97 110
-0.12560663 -0.4721607 -0.70013958 140 112 127
-0.12495906 -0.47255954 -0.69983244 130 103 117
-0.12475745 -0.47253844 -0.69969195 128 100 114
-0.12420664 -0.47462747 -0.69996643 120 94 107
-0.12390003 -0.47476539 -0.69980371 115 88 102
-0.12396052 -0.47621283 -0.70024741 115 96 100
-0.12417082 -0.47687355 -0.70056915 118 102 102
-0.1249481 -0.47538826 -0.70066571 132 115 116
-0.1232373 -0.47708455 -0.70001549 102 83 87
-0.12494504 -0.47662282 -0.70100737 131 117 115
-0.1256856 -0.47716647 -0.70167464 143 126 128
-0.12524506 -0.47742879 -0.7014544 135 119 120
-0.12502262 -0.47779986 -0.7014153 131 114 117
-0.1247801 -0.47719491 -0.70106798 128 113 112
-0.12281793 -0.47670996 -0.69965434 97 77 83
-0.096570976 -0.50974 -0.69967127 102 78 95
-0.099444292 -0.5084334 -0.69981241 104 78 94
-0.096292175 -0.50982988 -0.69964367 102 79 96
-0.096877418 -0.50997996 -0.69984651 103 78 95
-0.088696785 -0.45700169 -0.68342763 126 101 113
-0.088871203 -0.45724231 -0.68348163 129 104 117
-0.088164702 -0.45631826 -0.683267 117 91 102
-0.086887389 -0.45814231 -0.68318897 125 103 113
-0.084039882 -0.45816925 -0.68282104 116 88 97
-0.085889652 -0.45792407 -0.6830284 121 97 107
-0.084570773 -0.45862627 -0.68295389 119 92 101
-0.086656094 -0.45650363 -0.68299985 115 90 101
-0.08858794 -0.46090722 -0.68383014 131 104 114
-0.0881183 -0.4624874 -0.68392909 128 95 106
-0.088295273 -0.46023399 -0.68368208 131 107 117
-0.085287899 -0.46201515 -0.68349206 118 88 100
-0.085798748 -0.46173224 -0.6835196 121 90 101
-0.085145161 -0.46264768 -0.68355733 115 86 100
-0.084315851 -0.46107295 -0.68324453 115 87 99
-0.084908202 -0.46186614 -0.68342429 116 87 100
-0.084147289 -0.46106282 -0.68322176 114 87 99
-0.087253161 -0.46164048 -0.68369442 127 96 106
-0.086407997 -0.46009174 -0.68338549 125 98 108
-0.087167636 -0.45975429 -0.6834414 128 104 114
-0.08751554 -0.45984331 -0.6834982 129 106 115
-0.084506005 -0.45922172 -0.6830256 120 92 100
-0.082349338 -0.46250597 -0.68314326 106 75 94
-0.083929926 -0.46032441 -0.68309349 116 88 99
-0.083411664 -0.46203926 -0.6832217 113 88 101
-0.083708405 -0.46202666 -0.68327606 112 86 100
-0.084842212 -0.46490899 -0.68397444 113 82 95
-0.085292555 -0.4636409 -0.68376553 116 85 98
-0.084982708 -0.46466079 -0.68394029 114 83 96
-0.085648313 -0.46340832 -0.68376189 117 86 99
-0.082612567 -0.46628395 -0.68392718 106 77 92
-0.083257131 -0.46535268 -0.68383843 108 79 94
-0.082804762 -0.46499267 -0.68368793 107 79 95
-0.082208574 -0.46510741 -0.68361324 106 79 96
-0.081392795 -0.46636203 -0.68374151 104 77 94
-0.082766823 -0.46403602 -0.68348265 107 80 97
-0.080303296 -0.46601674 -0.68350261 101 72 93
-0.080541179 -0.46599272 -0.68353158 102 74 94
-0.077899769 -0.46676809 -0.68337125 132 112 135
-0.081294268 -0.46698731 -0.68385774 104 76 93
-0.07947275 -0.46855548 -0.68392122 115 89 108
-0.078422107 -0.46929204 -0.6839512 131 106 126
-0.07832092 -0.46785703 -0.68363804 128 105 126
-0.078575924 -0.46691498 -0.68347514 123 101 122
-0.071049295 -0.46999928 -0.68352216 163 138 161
-0.070661366 -0.47058687 -0.68363428 166 139 165
-0.071414456 -0.46935993 -0.68338311 163 139 160
-0.072915256 -0.47089425 -0.68386662 155 123 149
-0.071627639 -0.47126201 -0.68388265 156 127 151
-0.12462267 -0.46253034 -0.69583696 174 158 188
-0.12380449 -0.46451923 -0.69619542 149 131 163
-0.12344208 -0.46607569 -0.69664627 129 111 143
-0.12422328 -0.46522745 -0.69671464 140 118 153
-0.12306898 -0.46512866 -0.69605255 140 127 156
-0.12385365 -0.46633741 -0.69699532 129 109 140
-0.12434123 -0.46621749 -0.69722795 134 112 143
-0.12595356 -0.46637973 -0.69825971 148 121 149
-0.12294611 -0.46583253 -0.69627863 132 117 147
-0.1228203 -0.46578488 -0.69619149 133 118 147
-0.12707014 -0.46742329 -0.69938344 157 127 151
-0.12656854 -0.46859002 -0.6994943 152 123 143
-0.1255686 -0.46951735 -0.69918531 138 111 127
-0.12401981 -0.4705376 -0.69851744 116 90 102
-0.12373275 -0.47061017 -0.69834638 112 86 98
-0.12608793 -0.46890286 -0.69929862 145 117 135
-0.12501796 -0.46797934 -0.6982559 132 106 128
-0.12544884 -0.46809739 -0.69854665 136 108 129
-0.12373972 -0.46761832 -0.69739002 122 101 127
-0.1254904 -0.46722922 -0.69831085 140 114 139
-0.12452149 -0.46693274 -0.69764763 132 110 138
-0.12328721 -0.47037995 -0.69795042 105 79 92
-0.12626885 -0.46687526 -0.69866598 149 121 147
-0.12121712 -0.46694225 -0.69579524 123 104 131
-0.121216 -0.46730918 -0.69590425 117 97 124
-0.12097719 -0.46710479 -0.69571519 121 101 128
-0.1202535 -0.46936157 -0.69600135 89 61 87
-0.11955375 -0.47055954 -0.69598567 76 43 67
-0.12188664 -0.47041354 -0.69719487 94 67 83
-0.12007415 -0.47053415 -0.69625753 80 49 70
-0.11995365 -0.47050816 -0.69618499 79 48 70
-0.12276979 -0.46826187 -0.69702369 111 90 114
-0.1215542 -0.46900925 -0.69659495 98 73 98
-0.12388885 -0.47381806 -0.69950497 115 86 102
-0.12344299 -0.47156709 -0.69846231 108 81 94
-0.12406576 -0.47353482 -0.69953656 117 89 104
-0.1242295 -0.47169062 -0.69905192 120 93 106
-0.12316895 -0.47153962 -0.69826245 103 77 90
-0.12056706 -0.47241479 -0.69713384 83 51 71
-0.11919802 -0.47191891 -0.6962108 72 40 58
-0.11989164 -0.47238329 -0.69674361 77 46 64
-0.11954428 -0.47317496 -0.69678986 73 43 57
-0.12024894 -0.47241151 -0.69695354 80 48 68
-0.12251917 -0.47431195 -0.6988138 97 68 85
-0.12027679 -0.47277486 -0.69708037 80 49 67
-0.12236672 -0.47386768 -0.69859046 96 67 85
-0.12143457 -0.47224611 -0.69755131 90 59 78
-0.12095706 -0.47109932 -0.69691408 86 55 74
-0.1223227 -0.47253582 -0.69812453 96 67 84
-0.12194973 -0.4726477 -0.69796139 93 64 81
-0.12277474 -0.471984 -0.69818413 99 72 86
-0.11758508 -0.47344688 -0.69578266 69 43 51
-0.11864016 -0.47306919 -0.69625252 70 41 53
-0.11724626 -0.47407937 -0.69578815 68 43 48
-0.11860673 -0.47399217 -0.6965161 69 41 49
-0.12310169 -0.47510192 -0.69937485 102 75 89
-0.12270501 -0.47609061 -0.69941694 98 74 84
-0.12098444 -0.47757667 -0.6988101 83 59 70
-0.12254295 -0.47544509 -0.69913787 97 70 84
-0.12088562 -0.47838342 -0.69898105 82 61 68
-0.1218655 -0.47800443 -0.69946146 90 72 75
-0.12262069 -0.47600248 -0.69934368 97 73 84
-0.12019241 -0.47654662 -0.69807452 77 49 62
-0.12115685 -0.47588295 -0.69845319 86 57 71
-0.11973529 -0.47588658 -0.69765306 74 45 56
-0.11966817 -0.47644332 -0.69775343 73 44 56
-0.11963326 -0.47800764 -0.69812214 73 44 59
-0.12064383 -0.47521189 -0.69799751 81 53 64
-0.11717392 -0.47480094 -0.69595844 67 43 45
-0.11705361 -0.47478405 -0.69588745 67 44 45
-0.11737192 -0.4760493 -0.69638419 65 40 42
-0.1153303 -0.47830766 -0.695831 61 40 35
-0.11851927 -0.47579759 -0.69695586 67 40 46
-0.11911525 -0.47612131 -0.69736236 68 40 49
-0.11862338 -0.47754422 -0.69744647 67 40 50
-0.11860294 -0.47548825 -0.69692481 67 40 46
-0.11773781 -0.47759581 -0.69697469 66 40 45
-0.11831456 -0.47662592 -0.69704944 67 40 46
-0.10915197 -0.48822346 -0.69586354 95 64 79
-0.10936049 -0.48936784 -0.69630229 101 72 86
-0.10849019 -0.48957291 -0.69603127 99 71 86
-0.10750911 -0.49190852 -0.69645274 109 82 97
-0.10751323 -0.49086696 -0.69608533 102 75 92
-0.1084279 -0.49311268 -0.69722277 118 90 105
-0.10966119 -0.49261895 -0.69750881 117 90 106
-0.10879107 -0.49213806 -0.6970132 113 85 101
-0.1086624 -0.49368623 -0.69751352 121 94 108
-0.10923667 -0.49132884 -0.69690144 110 82 98
-0.10993709 -0.49190983 -0.69737041 115 87 102
-0.10971233 -0.49127394 -0.69706589 112 83 99
-0.10825586 -0.4904522 -0.69622308 103 75 92
-0.10839371 -0.49119896 -0.69653213 106 79 96
-0.10632257 -0.49353358 -0.69656229 116 89 99
-0.10711791 -0.49219173 -0.69640064 109 83 97
-0.10716873 -0.49209386 -0.69638598 109 82 97
-0.10483868 -0.49329001 -0.69589084 111 85 92
-0.10644306 -0.49238753 -0.69620389 109 83 95
-0.10487743 -0.49384657 -0.69610327 114 89 95
-0.10533014 -0.49220127 -0.69570714 106 80 90
-0.10513437 -0.49628192 -0.6971032 118 92 104
-0.10461546 -0.49587473 -0.69674724 117 91 101
-0.10409077 -0.49681503 -0.6968894 117 91 102
-0.10697037 -0.49436653 -0.69711655 121 94 105
-0.10409527 -0.49652791 -0.69678456 117 91 101
-0.10498668 -0.49576634 -0.69685352 118 92 102
-0.10627123 -0.49560958 -0.69727463 121 95 107
-0.10000429 -0.49765134 -0.69593441 107 82 97
-0.10040362 -0.49771133 -0.69607443 108 83 98
-0.10001536 -0.49736208 -0.69583631 108 82 97
-0.10186515 -0.49700421 -0.69624734 112 86 98
-0.10258725 -0.49616414 -0.69614774 113 87 96
-0.1011233 -0.49624518 -0.69574738 109 84 95
-0.10286827 -0.4953329 -0.69592172 113 87 94
-0.1014703 -0.49637473 -0.69589752 110 85 95
-0.10369994 -0.50164735 -0.69831318 114 87 101
-0.1036638 -0.49955514 -0.69764155 116 89 103
-0.10109411 -0.50040913 -0.6971615 108 81 97
-0.10084088 -0.49965307 -0.69683659 108 82 97
-0.10119154 -0.50146121 -0.69754297 107 80 95
-0.10221001 -0.50184816 -0.69795561 110 82 97
-0.10055768 -0.50074643 -0.69712645 106 79 95
-0.10104179 -0.49813607 -0.69640976 109 84 99
-0.10238133 -0.5002535 -0.69747788 112 85 99
-0.10140831 -0.49929261 -0.69688421 110 84 98
-0.10325422 -0.49964666 -0.69754684 115 88 101
-0.10189587 -0.49887636 -0.69689828 111 85 100
-0.10308377 -0.4983972 -0.69710153 115 89 102
-0.09659835 -0.49970123 -0.69576091 102 79 96
-0.096355021 -0.50083888 -0.69612271 98 75 92
-0.09626092 -0.50100642 -0.6961602 98 74 92
-0.098662794 -0.50010628 -0.6964286 102 77 93
-0.098290503 -0.50100774 -0.69664598 101 75 92
-0.099245138 -0.49942878 -0.69633526 104 78 95
-0.098813556 -0.50158352 -0.69696122 101 74 92
-0.098011248 -0.50160706 -0.69678324 99 74 91
-0.098963998 -0.50088584 -0.69676101 102 76 93
-0.094239406 -0.50137943 -0.69586885 103 77 103
-0.095078386 -0.50054449 -0.69571579 103 78 99
-0.10246172 -0.50346941 -0.69865704 112 86 100
-0.10178907 -0.50370806 -0.6985538 109 84 98
-0.10046711 -0.50512791 -0.69873869 105 83 97
-0.10200224 -0.50208026 -0.69798261 109 81 97
-0.10071535 -0.50468755 -0.69863456 106 83 97
-0.10160688 -0.50384057 -0.69855398 108 84 98
-0.10070153 -0.50471526 -0.69864142 106 83 97
-0.10252737 -0.50235969 -0.69823629 111 83 98
-0.10002827 -0.50345528 -0.69796735 104 78 94
-0.096392252 -0.50272274 -0.69682264 96 73 90
-0.099037752 -0.50551832 -0.69851726 101 80 94
-0.098815352 -0.50511438 -0.69830918 101 79 94
-0.096903965 -0.50514108 -0.69788009 96 74 87
-0.095821515 -0.5024938 -0.6966024 95 72 89
-0.098465607 -0.50548112 -0.69837129 100 78 92
-0.09582939 -0.50197738 -0.69640374 95 72 90
-0.098422885 -0.5035001 -0.69759363 100 76 92
-0.097473219 -0.50366837 -0.69743872 98 76 92
-0.09839648 -0.50267667 -0.69726902 100 75 92
-0.098816812 -0.50352556 -0.69769478 101 77 93
-0.099374242 -0.50268519 -0.69749886 102 76 92
-0.093794361 -0.50344986 -0.69662368 104 80 102
-0.095351957 -0.50223702 -0.6964162 96 73 92
-0.093424305 -0.50346178 -0.69655806 106 81 105
-0.094069108 -0.50420374 -0.69697279 103 80 99
-0.094990999 -0.50524879 -0.69752955 97 74 88
-0.094411381 -0.50445127 -0.69712496 100 77 95
-0.095693529 -0.50289756 -0.69673049 94 71 87
-0.085360043 -0.50581408 -0.6960789 145 122 160
-0.082549483 -0.50580502 -0.69579476 158 138 171
-0.099719189 -0.50671959 -0.69917279 104 81 95
-0.097745381 -0.50830436 -0.69935465 102 79 95
-0.099488087 -0.50637126 -0.69896573 103 81 95
-0.097570159 -0.50838208 -0.69934505 102 79 95
-0.096233428 -0.5096218 -0.69954252 101 78 96
-0.097526461 -0.50607526 -0.69839048 98 76 88
-0.096247062 -0.50728512 -0.69858992 97 74 88
-0.095977657 -0.50666028 -0.69827306 95 72 85
-0.09616489 -0.50820553 -0.69894654 98 76 91
-0.096139967 -0.50684857 -0.69838721 96 73 86
-0.097674139 -0.50628096 -0.69850826 98 76 90
-0.094279297 -0.50836188 -0.6986717 106 83 102
-0.095545478 -0.50614786 -0.6979751 94 71 83
-0.095503226 -0.50868398 -0.69900292 99 76 93
-0.095112868 -0.50889027 -0.69902331 102 79 97
-0.094542444 -0.5084725 -0.69875973 104 81 101
-0.095427297 -0.50769627 -0.6985876 98 75 90
-0.08439891 -0.50839329 -0.69709861 148 127 159
-0.085053854 -0.50727105 -0.6966818 145 121 157
-0.084210157 -0.50817835 -0.69697529 149 128 161
-0.084254168 -0.50735497 -0.69660902 150 127 163
-0.085455596 -0.50610054 -0.69621718 144 120 159
-0.08041314 -0.5072028 -0.69631118 160 146 166
-0.081320234 -0.50660378 -0.6960876 159 142 169
-0.081244685 -0.50645298 -0.6960144 160 143 170
-0.082380779 -0.50641358 -0.69605958 156 136 167
-0.081315428 -0.50827855 -0.6968534 153 136 155
-0.082245059 -0.5069322 -0.69628924 155 135 164
-0.083360121 -0.50893772 -0.69725591 150 132 159
-0.08386413 -0.50954992 -0.69755822 150 132 160
-0.08250463 -0.50745374 -0.69654161 152 132 159
-0.082598306 -0.50816059 -0.69686604 151 133 158
-0.080505617 -0.50955874 -0.69739288 151 138 148
-0.078651242 -0.50663769 -0.69596875 165 156 174
-0.079190545 -0.506531 -0.69594467 165 154 174
-0.079723366 -0.50725985 -0.69630241 161 149 167
-0.079560257 -0.50605088 -0.69574195 166 154 177
-0.079579197 -0.50732303 -0.69632471 161 149 167
-0.080489308 -0.51163876 -0.69835579 137 121 136
-0.082920037 -0.50977165 -0.69761091 150 133 156
-0.082988575 -0.510827 -0.69809669 142 121 147
-0.082228601 -0.51114559 -0.69820392 139 119 142
-0.11960943 -0.45855916 -0.692635 161 130 180
-0.11950137 -0.45770752 -0.69252765 170 145 186
-0.11894254 -0.45878735 -0.69240439 152 112 174
-0.12421458 -0.46222866 -0.69548786 175 163 191
-0.12380242 -0.46217716 -0.69523317 174 164 192
-0.12000035 -0.45995981 -0.69309235 154 121 175
-0.12226049 -0.46260715 -0.694695 165 152 183
-0.11915485 -0.46267822 -0.69333488 149 133 156
-0.11942638 -0.46118617 -0.69311643 150 125 165
-0.11961938 -0.4620741 -0.69340354 151 132 162
-0.12060905 -0.46188122 -0.69379836 156 137 172
-0.12278742 -0.46209118 -0.69477737 173 162 190
-0.12266921 -0.46074167 -0.69434106 184 176 196
-0.11958572 -0.45913655 -0.69270331 155 119 176
-0.12190734 -0.4611848 -0.69417995 169 151 187
-0.122406 -0.4614301 -0.69444066 174 161 190
-0.11774683 -0.46047708 -0.69223601 148 114 167
-0.11734758 -0.46151477 -0.69230187 147 119 163
-0.11791459 -0.46209046 -0.69267368 148 125 160
-0.11828906 -0.45983696 -0.69232422 149 112 169
-0.11733293 -0.46011913 -0.69203037 148 106 167
-0.11799311 -0.45998019 -0.69224215 148 111 169
-0.12317456 -0.46393833 -0.69561774 156 144 173
-0.12255756 -0.46401203 -0.6953122 156 143 173
-0.12153096 -0.46491447 -0.69512868 148 134 161
-0.12224084 -0.46437594 -0.69529229 152 139 168
-0.12079962 -0.46647206 -0.6953851 130 113 139
-0.12184531 -0.46449071 -0.6951226 152 139 167
-0.12135289 -0.46448079 -0.6948579 152 140 166
-0.12069358 -0.46383488 -0.69436228 152 139 164
-0.12176678 -0.46349573 -0.69473106 159 148 175
-0.12005936 -0.46526009 -0.69453001 142 128 152
-0.1210008 -0.46349803 -0.69439238 155 143 168
-0.12047508 -0.46400291 -0.69431841 150 137 161
-0.11794439 -0.4634231 -0.69298953 142 125 151
-0.11794798 -0.4630678 -0.69290918 145 128 154
-0.1187984 -0.4650979 -0.69389701 136 121 143
-0.11738652 -0.46587569 -0.69342101 124 107 134
-0.1181683 -0.46390474 -0.69319957 138 123 146
-0.11654422 -0.46601525 -0.69303489 117 101 130
-0.11799295 -0.4647592 -0.6933791 133 117 141
-0.11845259 -0.46522862 -0.69376165 133 118 141
-0.11436515 -0.46625215 -0.69211346 111 94 127
-0.1144825 -0.4647589 -0.69181949 126 105 142
-0.11988539 -0.46896482 -0.69568485 96 70 94
-0.12001938 -0.4676789 -0.69536328 115 94 118
-0.12041769 -0.46795034 -0.69566673 110 87 113
-0.11612369 -0.4698644 -0.69395006 80 59 75
-0.11679506 -0.46941209 -0.69416744 88 67 84
-0.11709674 -0.47070277 -0.69472677 69 41 60
-0.11748977 -0.46972695 -0.6946342 84 60 79
-0.11856461 -0.46947291 -0.69512743 89 63 85
-0.11649252 -0.4698458 -0.69414055 81 59 76
-0.11758487 -0.46717972 -0.69392258 117 99 124
-0.11800294 -0.46741033 -0.69420236 117 100 122
-0.11803126 -0.46728069 -0.69417953 119 101 124
-0.11592108 -0.46907735 -0.69361907 87 67 87
-0.11596504 -0.46689534 -0.69301355 109 91 123
-0.11632662 -0.4686116 -0.69369215 94 75 96
-0.11484312 -0.46705389 -0.69251162 103 84 117
-0.1136421 -0.46768999 -0.69216311 98 77 107
-0.11252879 -0.46832347 -0.6918515 93 70 97
-0.11196503 -0.46979409 -0.69199562 80 49 73
-0.11321958 -0.47004846 -0.6926322 76 47 69
-0.11242755 -0.47056717 -0.69242162 71 40 60
-0.11237562 -0.47005785 -0.69225144 77 46 68
-0.11437113 -0.46907458 -0.69287527 84 60 85
-0.11251906 -0.47029188 -0.69238394 74 43 64
-0.1146315 -0.46984938 -0.69321656 76 52 72
-0.11721052 -0.47319287 -0.69550991 68 43 51
-0.11602014 -0.4713473 -0.69434112 67 43 57
-0.1177245 -0.47090322 -0.69511884 70 40 60
-0.11612396 -0.47099999 -0.69429559 68 43 58
-0.11726927 -0.47246391 -0.69532961 69 42 54
-0.11600134 -0.47262675 -0.69470221 67 44 52
-0.11644654 -0.47428885 -0.69541126 67 45 46
-0.11178782 -0.47345856 -0.69295853 75 49 59
-0.1131782 -0.47378632 -0.69366121 71 47 53
-0.11303931 -0.47444645 -0.69379133 73 50 54
-0.11322982 -0.47361827 -0.69363528 70 46 52
-0.11171932 -0.47186536 -0.69246811 72 41 57
-0.11169104 -0.47298303 -0.69277877 74 47 59
-0.1140029 -0.47203481 -0.69353867 68 42 53
-0.11490557 -0.47177145 -0.69387728 67 43 55
-0.11373412 -0.47100279 -0.69313592 68 41 57
-0.11290612 -0.47166738 -0.69294029 69 40 54
-0.11207423 -0.47139022 -0.69248694 70 38 55
-0.11354407 -0.47203466 -0.69333011 68 41 53
-0.11006865 -0.47342473 -0.69224072 80 52 65
-0.1097328 -0.473324 -0.69207644 81 53 66
-0.10985173 -0.472994 -0.69202894 80 51 65
-0.11083648 -0.47330406 -0.69251496 78 50 63
-0.11066008 -0.47281131 -0.69230151 77 48 62
-0.11049452 -0.47125515 -0.69180316 76 45 63
-0.11568652 -0.47604257 -0.69543707 64 43 41
-0.11563446 -0.47660139 -0.69555426 63 42 40
-0.11501915 -0.47800389 -0.69560188 62 41 37
-0.1140407 -0.47682136 -0.69485348 68 47 48
-0.11368041 -0.47717676 -0.69478732 69 47 49
-0.11238478 -0.47783518 -0.69438499 74 51 57
-0.11502819 -0.4773193 -0.69542527 63 42 39
-0.11345815 -0.47641566 -0.69448644 71 50 53
-0.11210067 -0.4760128 -0.69378901 76 53 59
-0.11177128 -0.47560874 -0.69354099 77 54 61
-0.11425476 -0.47557878 -0.69461924 69 48 49
-0.11141739 -0.47720176 -0.69379604 78 55 63
-0.11159389 -0.47785074 -0.69404018 78 54 62
-0.111513 -0.47818339 -0.69409037 78 54 63
-0.10822267 -0.4752498 -0.69200951 87 62 74
-0.10882782 -0.47473446 -0.69211674 86 61 71
-0.10810003 -0.47768193 -0.69260412 87 60 78
-0.10752922 -0.47623834 -0.69199198 89 63 78
-0.10828551 -0.47692043 -0.69247717 87 60 76
-0.10903679 -0.47523478 -0.69233322 85 60 71
-0.11011121 -0.47751683 -0.69335735 82 57 69
-0.10908365 -0.47800457 -0.69307685 84 58 74
-0.10968517 -0.47705254 -0.69306958 83 57 71
-0.11067553 -0.47665736 -0.69335914 80 56 66
-0.10866767 -0.4784337 -0.69302291 85 59 76
-0.11130529 -0.47751111 -0.69382757 79 55 63
-0.10636757 -0.47805372 -0.69202298 95 68 85
-0.10668396 -0.47680345 -0.69181395 94 67 82
-0.11197346 -0.47875586 -0.69444191 76 52 59
-0.11150564 -0.47857571 -0.69418895 78 54 62
-0.11166733 -0.47980124 -0.69456321 80 52 64
-0.11171817 -0.47979936 -0.69458598 80 51 64
-0.10897478 -0.48129973 -0.69384032 84 57 73
-0.10873972 -0.48132294 -0.69375253 85 58 73
-0.10792326 -0.48234969 -0.69367576 88 63 73
-0.10846752 -0.48108846 -0.69358784 86 59 74
-0.10849591 -0.48110723 -0.69360363 86 59 74
-0.10960713 -0.48123276 -0.69407541 82 54 72
-0.11105881 -0.48008588 -0.69437087 79 53 66
-0.11112102 -0.48072684 -0.69455153 78 51 66
-0.11054251 -0.47918478 -0.69394755 80 55 67
-0.10954957 -0.48049036 -0.69387317 83 54 73
-0.10910833 -0.4798308 -0.69353825 84 56 74
-0.10492565 -0.48011178 -0.69206619 97 73 89
-0.10462999 -0.47969663 -0.69182819 101 76 90
-0.10416228 -0.48103037 -0.69204485 99 77 90
-0.10500329 -0.48034281 -0.69216424 96 72 88
-0.1070642 -0.48041889 -0.69289315 90 64 80
-0.10532747 -0.48165467 -0.69261938 94 71 84
-0.10424158 -0.4818559 -0.69231033 97 75 89
-0.10701571 -0.48171765 -0.6931904 90 66 77
-0.10716778 -0.47954834 -0.69271725 89 63 81
-0.10535834 -0.48105592 -0.69248509 94 71 85
-0.11120144 -0.48272866 -0.69508135 78 49 66
-0.10987218 -0.4834086 -0.69475979 81 52 70
-0.10744055 -0.48268703 -0.69357985 89 65 75
-0.10790613 -0.48268735 -0.69376493 88 63 74
-0.10410884 -0.48599932 -0.69342154 94 69 83
-0.10557535 -0.48544821 -0.69376904 91 64 82
-0.10414095 -0.4851369 -0.69318902 95 71 85
-0.10442529 -0.48497233 -0.69324011 94 70 85
-0.10364711 -0.48575762 -0.69319493 96 71 84
-0.10395973 -0.4836897 -0.69271821 97 74 88
-0.10732317 -0.48399267 -0.69392675 89 62 76
-0.10501735 -0.48371533 -0.69308537 94 70 85
-0.10687032 -0.48461396 -0.69396168 89 62 78
-0.10468214 -0.4835878 -0.69293725 95 72 87
-0.10595808 -0.48406884 -0.69349986 92 66 82
-0.1066073 -0.48294905 -0.69338191 91 67 78
-0.10280205 -0.48256749 -0.69201195 99 78 89
-0.1026831 -0.48325416 -0.69217992 100 79 91
-0.1034434 -0.48383659 -0.69258451 98 76 88
-0.10323524 -0.48435614 -0.69266552 98 75 88
-0.10071535 -0.48555058 -0.69220686 105 80 91
-0.1023327 -0.48565304 -0.69274664 100 75 87
-0.10315363 -0.48327109 -0.69233328 99 78 90
-0.10201641 -0.4843584 -0.69228113 102 79 90
-0.099534035 -0.48593342 -0.69193381 107 81 91
-0.10819435 -0.48829746 -0.69552624 94 64 82
-0.10787311 -0.48878357 -0.69555366 95 66 84
-0.10721499 -0.48870608 -0.69529533 94 65 85
-0.10701528 -0.48791406 -0.69498813 91 62 82
-0.10502733 -0.48965892 -0.69482738 96 73 87
-0.10600689 -0.48821893 -0.69473195 92 65 83
-0.10691375 -0.48736867 -0.69478887 90 60 80
-0.10619619 -0.48781657 -0.6946761 91 63 81
-0.10364825 -0.48734304 -0.6936599 96 72 84
-0.10552202 -0.48654273 -0.69406337 91 63 81
-0.10429519 -0.48744476 -0.69391227 94 70 83
-0.10523219 -0.4879438 -0.69438291 92 67 83
-0.10506034 -0.48823524 -0.6944111 93 68 83
-0.10535922 -0.48824927 -0.69451785 92 67 83
-0.09977816 -0.48771504 -0.69255114 106 80 90
-0.10025564 -0.48931098 -0.69318461 103 79 88
-0.099635854 -0.48849645 -0.69274431 105 80 89
-0.10089085 -0.48824906 -0.69305944 104 80 90
-0.099840261 -0.489867 -0.69322443 104 79 88
-0.10046004 -0.48689419 -0.69251508 105 80 90
-0.10269793 -0.48763666 -0.69344395 99 75 87
-0.10133048 -0.48694575 -0.69280541 103 78 89
-0.10192263 -0.48722818 -0.69307691 101 77 88
-0.10243138 -0.48703063 -0.69317853 99 75 86
-0.10142943 -0.48791191 -0.69312561 103 79 89
-0.097169735 -0.48776901 -0.69182479 110 84 97
-0.098329656 -0.48727727 -0.69200313 108 82 94
-0.096637338 -0.48859525 -0.69192469 110 83 98
-0.096870668 -0.48933777 -0.69221979 109 82 96
-0.099125534 -0.48839468 -0.69256878 106 80 91
-0.099111244 -0.48883003 -0.69269699 106 80 90
-0.097669743 -0.48963344 -0.69253486 107 81 94
-0.09805923 -0.48847842 -0.69229364 108 81 94
-0.098468192 -0.489667 -0.69277018 106 80 91
-0.09526819 -0.49007747 -0.69203877 111 85 101
-0.1050653 -0.49143234 -0.69538039 103 78 89
-0.10413344 -0.49214 -0.69527537 105 82 89
-0.10434807 -0.49071446 -0.69491315 100 77 88
-0.10609745 -0.49038196 -0.69541508 99 74 89
-0.10405406 -0.49195656 -0.69519186 105 82 89
-0.1048663 -0.49100277 -0.69518024 101 77 89
-0.10351632 -0.49083027 -0.69466102 100 79 88
-0.10212727 -0.4935973 -0.69510746 112 86 92
-0.10055557 -0.4917793 -0.69405407 107 81 90
-0.10041381 -0.49177948 -0.69401574 107 81 90
-0.1000241 -0.49069005 -0.6935339 105 80 88
-0.10001881 -0.4917379 -0.69389451 107 80 91
-0.1010347 -0.49330992 -0.69471252 111 83 94
-0.10296921 -0.49056479 -0.69440985 100 79 88
-0.10232595 -0.49127275 -0.69442588 104 81 88
-0.10108828 -0.49037135 -0.69376594 102 79 88
-0.10261393 -0.49142456 -0.69456172 104 81 88
-0.10232675 -0.49095622 -0.6943295 102 80 88
-0.10329695 -0.49346769 -0.6953975 111 87 90
-0.097402126 -0.49265039 -0.69349343 112 83 99
-0.097068503 -0.49325264 -0.69362903 113 85 100
-0.099490799 -0.49403182 -0.69454318 113 82 99
-0.097565964 -0.49353051 -0.69386017 114 84 100
-0.09761332 -0.4936341 -0.69391066 114 84 100
-0.097306609 -0.49381977 -0.69389969 114 85 100
-0.098593608 -0.49065292 -0.69312251 106 80 92
-0.098355599 -0.49204025 -0.69353485 110 81 97
-0.099113494 -0.49024218 -0.69312716 104 79 89
-0.098659001 -0.4911778 -0.69332236 107 80 93
-0.09803655 -0.49039364 -0.69287592 106 80 92
-0.097760484 -0.49127218 -0.69310164 109 81 96
-0.094332017 -0.4904905 -0.69200462 116 91 106
-0.092375733 -0.49261081 -0.69233 128 111 126
-0.093155727 -0.49164274 -0.69216168 123 103 117
-0.092790604 -0.49140999 -0.69202489 124 104 117
-0.092380621 -0.49334678 -0.6925621 130 115 130
-0.095209129 -0.49352586 -0.69326335 117 92 105
-0.095179945 -0.49171668 -0.69258988 114 89 104
-0.09516266 -0.49148315 -0.69249988 114 89 104
-0.09489955 -0.49411991 -0.69341147 119 95 108
-0.094390444 -0.4923971 -0.69266015 119 97 112
-0.093869276 -0.4926534 -0.69263548 122 102 117
-0.087912224 -0.49406141 -0.69198489 141 119 143
-0.090781391 -0.49266008 -0.69205809 133 115 131
-0.089386359 -0.49328548 -0.69199848 137 118 137
-0.089549914 -0.49272794 -0.69185328 136 115 133
-0.090250961 -0.49233475 -0.69185847 134 113 130
-0.099836357 -0.49515927 -0.69502378 111 82 98
-0.10174257 -0.49551845 -0.69566232 110 85 93
-0.10096293 -0.49464107 -0.69515133 112 84 96
-0.099746153 -0.49424449 -0.69468653 113 82 99
-0.10028295 -0.49439681 -0.69488382 113 83 98
-0.098984465 -0.4971461 -0.6954776 108 82 98
-0.097658142 -0.49778816 -0.69535244 108 85 100
-0.097619422 -0.49729949 -0.69517571 109 85 100
-0.097475819 -0.49749663 -0.69520581 109 85 100
-0.097605333 -0.49768779 -0.69530457 109 85 100
-0.096229017 -0.49573699 -0.69428301 113 88 102
-0.096751288 -0.4946045 -0.69403225 114 87 101
-0.096462525 -0.49618796 -0.69449711 112 87 102
-0.097947054 -0.49571893 -0.69472152 112 84 101
-0.096351832 -0.49443001 -0.69386941 115 87 101
-0.097114846 -0.49659824 -0.69480574 112 86 102
-0.092471085 -0.49593127 -0.69350529 125 108 127
-0.093489602 -0.49800891 -0.69447565 115 92 114
-0.093682639 -0.49621871 -0.69385445 122 104 120
-0.094726101 -0.497082 -0.69438213 116 97 112
-0.093660191 -0.49623531 -0.69385612 122 104 120
-0.091929376 -0.49455181 -0.69288802 132 118 135
-0.093253516 -0.49491107 -0.69330543 126 109 124
-0.095230259 -0.49445909 -0.69360328 117 92 105
-0.09226805 -0.4944104 -0.69290948 131 118 133
-0.094952129 -0.49641594 -0.69420654 116 95 109
-0.094453752 -0.49438247 -0.69339967 121 99 113
-0.088978499 -0.4977622 -0.69355601 142 126 143
-0.088140845 -0.4972553 -0.69322079 147 133 148
-0.090159535 -0.49801368 -0.69385451 132 113 134
-0.090739191 -0.49753726 -0.69377571 126 104 129
-0.090002038 -0.49708194 -0.69347733 131 110 133
-0.088160373 -0.4952395 -0.69246715 142 122 144
-0.090161115 -0.49529949 -0.69284302 132 113 135
-0.088201478 -0.49437585 -0.69215035 140 118 142
-0.09143281 -0.49743074 -0.69385731 122 99 125
-0.091325276 -0.49681044 -0.6936093 124 103 127
-0.090448864 -0.49656266 -0.69336051 127 104 130
-0.08651682 -0.49460778 -0.69200569 148 126 147
-0.084891304 -0.49643147 -0.69245738 153 132 150
-0.08487694 -0.49700063 -0.69265896 152 132 149
-0.08441323 -0.49714071 -0.69265199 155 134 150
-0.08495988 -0.49530989 -0.692065 154 133 150
-0.084010959 -0.49803704 -0.69292307 155 135 150
-0.085687898 -0.49774778 -0.69305134 153 136 150
-0.087843709 -0.49706262 -0.6930986 149 134 149
-0.087568268 -0.49654135 -0.69286394 148 131 148
-0.08607237 -0.49731275 -0.69294226 151 134 150
-0.087405793 -0.49708679 -0.69304579 150 134 149
-0.08101248 -0.49790952 -0.69262636 142 118 144
-0.081572071 -0.4974255 -0.69250751 144 123 145
-0.080744706 -0.49648499 -0.69211578 140 120 142
-0.081051409 -0.49634066 -0.69209212 141 123 142
-0.083939716 -0.49779746 -0.6928305 156 136 151
-0.083225608 -0.49605659 -0.69215471 154 134 150
-0.082952403 -0.4966459 -0.69234473 151 132 148
-0.082424231 -0.49625176 -0.69216418 149 130 147
-0.081832059 -0.49632138 -0.69214457 146 127 145
-0.076902486 -0.4972218 -0.69216186 146 125 157
-0.079216845 -0.49780437 -0.69247109 140 116 146
-0.076833934 -0.49694225 -0.69206285 145 124 155
-0.077656887 -0.49650878 -0.6919533 142 122 150
-0.078589536 -0.49606359 -0.69184494 140 121 146
-0.079148218 -0.49688435 -0.69215262 139 117 145
-0.073382936 -0.4974063 -0.69203216 162 144 170
-0.075705431 -0.49779716 -0.69229656 152 132 166
-0.075865023 -0.49762133 -0.69224584 151 131 164
-0.069277346 -0.49691957 -0.69194597 156 133 162
-0.07134597 -0.49774683 -0.69216579 165 148 170
-0.072158799 -0.49760047 -0.69206482 168 151 172
-0.096673824 -0.49940154 -0.69567126 104 80 96
-0.097145565 -0.49865296 -0.69552517 106 83 98
-0.09524025 -0.49907058 -0.69521636 108 85 104
-0.093970612 -0.50105381 -0.69569522 106 79 107
-0.095608369 -0.49925202 -0.69534874 106 83 100
-0.093817554 -0.50014353 -0.69534051 110 83 111
-0.092625551 -0.49832311 -0.69441986 116 92 118
-0.093212001 -0.50032347 -0.69528782 111 84 114
-0.093443401 -0.4981159 -0.69450629 115 92 114
-0.093325108 -0.49898627 -0.69480896 113 89 114
-0.094036408 -0.49863064 -0.69481838 113 89 111
-0.091393754 -0.49830523 -0.69417709 121 98 125
-0.089256652 -0.4989284 -0.69404161 138 121 141
-0.091381609 -0.4990702 -0.69446194 120 96 124
-0.08991275 -0.49824768 -0.69389963 134 115 136
-0.090044968 -0.49825361 -0.69392473 133 114 135
-0.086630814 -0.50191718 -0.69468474 143 135 161
-0.084534869 -0.50069171 -0.69398749 160 147 164
-0.085749775 -0.50170469 -0.69450647 152 142 164
-0.086617522 -0.50162089 -0.69457084 142 133 160
-0.083996423 -0.49914405 -0.6933406 160 142 157
-0.085304074 -0.50191855 -0.69453824 157 147 168
-0.086664006 -0.49875182 -0.69354761 149 135 152
-0.086758621 -0.49983642 -0.69393939 143 131 153
-0.087768897 -0.49856496 -0.6936385 149 137 152
-0.087045833 -0.49858987 -0.69354504 149 136 152
-0.086025916 -0.49942601 -0.69369268 146 132 152
-0.086853795 -0.49918297 -0.69372487 146 133 152
-0.081437334 -0.49988356 -0.69339889 153 134 157
-0.080118708 -0.49815771 -0.69263935 138 114 143
-0.08198148 -0.50041604 -0.69364679 157 141 161
-0.080927923 -0.49905849 -0.69304776 146 125 151
-0.081155978 -0.49976912 -0.69332933 151 132 156
-0.08212883 -0.49882933 -0.69306403 150 130 152
-0.082688987 -0.49911904 -0.69322103 154 135 154
-0.083098449 -0.49844119 -0.69299817 153 133 151
-0.083714813 -0.49925861 -0.69336009 159 142 157
-0.083139017 -0.50034988 -0.69372582 161 145 163
-0.082588285 -0.49954188 -0.69337296 155 137 157
-0.077837676 -0.50026852 -0.6933015 157 139 164
-0.077439442 -0.5016734 -0.69380361 156 134 156
-0.079326615 -0.50129491 -0.69374394 162 147 168
-0.079029135 -0.50115782 -0.69368064 161 146 167
-0.076542929 -0.49924269 -0.69286746 152 131 162
-0.076676555 -0.49873382 -0.69268519 152 133 165
-0.076655693 -0.49842933 -0.6925723 152 132 165
-0.079867586 -0.50133461 -0.69378358 161 146 166
-0.076817594 -0.49851352 -0.69261068 152 132 165
-0.078941211 -0.49884793 -0.69283313 147 126 155
-0.077678189 -0.49844974 -0.6926282 148 128 159
-0.0790141 -0.49899307 -0.69288951 148 127 155
-0.074418604 -0.50113177 -0.69351447 150 123 147
-0.072533965 -0.49886447 -0.69257528 162 144 164
-0.072932154 -0.49941179 -0.69280207 159 138 160
-0.074913159 -0.50079525 -0.69337386 157 133 155
-0.073931769 -0.50149071 -0.69366431 142 113 139
-0.074758649 -0.49907583 -0.69272715 158 138 164
-0.075556137 -0.50035572 -0.69323552 155 131 157
-0.07573165 -0.50010478 -0.69315064 154 131 157
-0.075879335 -0.50088179 -0.69344419 153 129 154
-0.074474648 -0.4996084 -0.69291121 160 139 162
-0.073947996 -0.49848163 -0.6924715 162 144 168
-0.069012031 -0.49920934 -0.69290274 138 107 145
-0.068537891 -0.50131011 -0.69380492 120 87 135
-0.068623677 -0.50041533 -0.69342732 127 95 140
-0.069915012 -0.50022322 -0.69327325 133 100 137
-0.069661982 -0.49973083 -0.69308269 136 104 140
-0.069724657 -0.50126487 -0.69371802 124 90 132
-0.069484681 -0.49895957 -0.69277179 142 112 146
-0.07182914 -0.49841434 -0.69241321 163 144 166
-0.072051413 -0.49810827 -0.69227356 167 151 172
-0.070538647 -0.49917305 -0.69280112 146 119 149
-0.071366929 -0.49892479 -0.69265133 154 131 157
-0.071642734 -0.49884859 -0.69260418 157 135 159
-0.066956677 -0.49898103 -0.69288814 151 128 163
-0.068117544 -0.50089288 -0.69364882 125 94 141
-0.06809929 -0.49922594 -0.69295508 139 109 149
-0.068030566 -0.50085545 -0.69363588 126 95 142
-0.067511149 -0.49887967 -0.69282889 147 121 157
-0.068063386 -0.49901336 -0.69286764 141 112 151
-0.08517316 -0.50442493 -0.69548547 147 128 164
-0.085841335 -0.50454241 -0.69562703 143 124 159
-0.086910754 -0.50234413 -0.69487894 138 129 159
-0.084011875 -0.50256622 -0.69464254 168 155 173
-0.084268272 -0.50374293 -0.69512087 159 142 169
-0.086249478 -0.50282818 -0.69499069 143 131 162
-0.08442311 -0.50364524 -0.69510067 158 142 169
-0.081346795 -0.50534439 -0.69555199 165 149 175
-0.083921358 -0.50436544 -0.69532382 160 140 170
-0.082767926 -0.50346845 -0.69491541 169 155 175
-0.082262903 -0.50485802 -0.695418 164 147 174
-0.083814688 -0.50495613 -0.69554359 157 136 169
-0.08102826 -0.50394434 -0.69495815 168 155 175
-0.081920862 -0.50310969 -0.69469213 169 156 174
-0.081994548 -0.5025292 -0.69445294 168 156 173
-0.080789983 -0.50355572 -0.69476968 167 154 174
-0.080966547 -0.50438535 -0.69513929 168 155 176
-0.083188005 -0.5023458 -0.69449306 170 159 174
-0.07638251 -0.50371677 -0.69460428 161 145 165
-0.076178141 -0.5047763 -0.69504017 166 158 175
-0.077625394 -0.5050348 -0.69521624 166 155 175
-0.077451743 -0.50579977 -0.6955297 170 164 183
-0.076173142 -0.5057655 -0.69545579 171 169 185
-0.076800406 -0.50279361 -0.69423562 156 132 155
-0.07914035 -0.50272572 -0.69430715 162 146 166
-0.079150006 -0.50306487 -0.69445151 163 146 167
-0.078943416 -0.50418633 -0.69491875 163 145 168
-0.079965934 -0.50255156 -0.69426829 165 151 169
-0.078106798 -0.50314558 -0.69444144 159 139 161
-0.079913609 -0.50427949 -0.69499952 166 152 174
-0.075462878 -0.50572169 -0.69547063 171 168 181
-0.075397663 -0.50427568 -0.6948306 158 145 165
-0.072676636 -0.50235391 -0.69402689 130 99 127
-0.074533924 -0.50270075 -0.69416988 145 119 144
-0.074484214 -0.50217569 -0.69394922 142 113 139
-0.073793091 -0.50327963 -0.69441438 143 119 144
-0.071642287 -0.50277495 -0.69428205 132 101 129
-0.071312398 -0.50200409 -0.69393754 123 89 124
-0.078847982 -0.50591111 -0.69564402 168 158 180
-0.10052992 -0.46063638 -0.68658441 143 116 137
-0.1002264 -0.46127459 -0.68658429 140 113 132
-0.099862233 -0.46246731 -0.68663508 135 109 126
-0.10008549 -0.46116221 -0.68653566 140 112 132
-0.097205795 -0.46184909 -0.68583697 125 98 119
-0.096712954 -0.4621315 -0.68572962 121 92 112
-0.097092979 -0.46231297 -0.68585557 122 93 113
-0.098076589 -0.46125293 -0.68601513 133 107 130
-0.098539636 -0.46124062 -0.68613809 135 108 129
-0.098831594 -0.4608936 -0.68617529 136 109 130
-0.09460821 -0.46258706 -0.68526149 115 85 103
-0.092757277 -0.46275321 -0.68488038 117 88 108
-0.092944302 -0.46218824 -0.68486166 120 92 110
-0.09317673 -0.46174163 -0.684865 122 96 112
-0.089906082 -0.46268195 -0.68430251 124 93 108
-0.089256726 -0.46277007 -0.68418688 125 93 107
-0.099742286 -0.46494418 -0.68699706 124 98 113
-0.098428056 -0.46568519 -0.68675518 114 86 100
-0.098696023 -0.46655551 -0.68696314 115 87 100
-0.097760566 -0.46572691 -0.68656135 114 85 99
-0.095849328 -0.46454391 -0.68581527 112 81 96
-0.097769693 -0.46625999 -0.68664223 114 85 99
-0.095761031 -0.46325913 -0.6856004 112 80 97
-0.097220615 -0.46351054 -0.68605679 117 87 104
-0.098572075 -0.46542346 -0.68675327 116 88 102
-0.098835245 -0.46323511 -0.68646276 127 100 116
-0.099542484 -0.46478257 -0.6869182 124 97 112
-0.099590681 -0.46639803 -0.68720049 117 90 104
-0.092009246 -0.46312156 -0.68476719 117 89 110
-0.092636734 -0.4657245 -0.68524921 121 92 107
-0.094426207 -0.46600339 -0.68570215 115 86 100
-0.093430914 -0.46634158 -0.68551385 120 90 104
-0.093215495 -0.46480849 -0.68526584 117 88 105
-0.094556548 -0.46308243 -0.68531024 113 83 101
-0.095574476 -0.46394241 -0.68565553 112 81 97
-0.093257979 -0.46319735 -0.68504745 115 86 105
-0.09526059 -0.4636375 -0.68554324 112 81 98
-0.093998 -0.46310645 -0.68519348 114 84 103
-0.094602332 -0.46321198 -0.68533909 113 83 101
-0.088337161 -0.46298528 -0.68404055 127 93 105
-0.08822298 -0.46364796 -0.6841467 125 93 103
-0.091036886 -0.4630031 -0.6845634 119 90 109
-0.090514489 -0.46372133 -0.6846022 119 90 107
-0.088530242 -0.46519038 -0.68450522 121 92 101
-0.088502802 -0.46351549 -0.6841749 125 93 104
-0.08814656 -0.46348909 -0.68410116 126 93 103
-0.091755189 -0.46322173 -0.68472534 118 90 110
-0.089068882 -0.46583569 -0.6847201 119 91 101
-0.08990299 -0.46528625 -0.68475556 120 91 104
-0.088805258 -0.46628952 -0.68474507 120 92 101
-0.089052893 -0.46639416 -0.68479019 121 92 101
-0.090440363 -0.46516594 -0.68480855 120 92 106
-0.08621192 -0.46646267 -0.68443757 115 86 95
-0.085041299 -0.46607211 -0.68422616 112 82 93
-0.087797932 -0.46579567 -0.68448883 121 92 99
-0.087027989 -0.46467999 -0.684183 121 90 99
-0.087372743 -0.46634394 -0.68454599 119 90 97
-0.08784841 -0.46569023 -0.68447423 122 92 99
-0.087211274 -0.46597114 -0.68445486 119 90 98
-0.086296409 -0.46497935 -0.6841563 118 87 98
-0.082901917 -0.46677476 -0.68407708 107 77 91
-0.1009604 -0.46777162 -0.68784672 115 90 104
-0.099624686 -0.47023413 -0.6878345 123 90 105
-0.10008322 -0.46911094 -0.68779367 119 90 104
-0.09886869 -0.4683046 -0.68732357 120 91 104
-0.097977713 -0.4687179 -0.68715823 122 92 106
-0.09911979 -0.46888506 -0.68748337 121 91 105
-0.098298058 -0.46973354 -0.68740666 124 93 107
-0.096166581 -0.47069976 -0.68700743 128 97 110
-0.097438745 -0.46913892 -0.68708599 123 94 107
-0.097397745 -0.46850049 -0.68695199 121 92 105
-0.096941672 -0.4672398 -0.686562 115 86 99
-0.098530874 -0.46708837 -0.68700761 116 88 101
-0.098037861 -0.46759766 -0.68696231 118 89 102
-0.096169837 -0.46784574 -0.68645257 117 87 100
-0.092680484 -0.46844828 -0.68572867 129 99 112
-0.094509907 -0.46958861 -0.68638498 128 97 111
-0.093940832 -0.47027528 -0.68638879 130 101 114
-0.093279138 -0.46874332 -0.68592787 128 98 112
-0.094105877 -0.4699598 -0.68636447 129 99 112
-0.092895538 -0.47068512 -0.68622577 133 105 117
-0.093140237 -0.46697521 -0.6855408 122 92 106
-0.094379999 -0.46742883 -0.68592077 120 90 103
-0.095128223 -0.46785274 -0.68618023 119 89 101
-0.094847418 -0.46963707 -0.68647349 127 96 110
-0.09333691 -0.46759671 -0.68571144 124 94 107
-0.094294287 -0.46872854 -0.68616199 125 95 108
-0.088245317 -0.470144 -0.68540603 121 95 103
-0.088850692 -0.46898594 -0.68525285 123 96 104
-0.089764416 -0.46995455 -0.68556273 127 100 110
-0.088338487 -0.46941382 -0.68527251 121 95 103
-0.089757316 -0.47050068 -0.68567061 127 101 110
-0.08911135 -0.4681448 -0.68511868 124 97 105
-0.088958658 -0.4676297 -0.68499643 123 95 103
-0.09050519 -0.46680275 -0.68502843 124 95 106
-0.090043351 -0.46716419 -0.68504173 124 95 106
-0.09028329 -0.46681294 -0.68500221 124 95 105
-0.091584571 -0.46993759 -0.68579203 133 105 117
-0.091574669 -0.4690572 -0.685615 131 103 115
-0.084611759 -0.47010028 -0.68489301 112 84 98
-0.086652569 -0.47055861 -0.68526697 117 91 101
-0.086923569 -0.47008875 -0.6852296 117 91 100
-0.084096447 -0.46705681 -0.68431807 110 78 89
-0.084264919 -0.47062138 -0.6849277 112 83 99
-0.085781336 -0.4704026 -0.68511385 115 88 100
-0.087864079 -0.46966678 -0.68526262 119 94 101
-0.086608417 -0.4692418 -0.68503815 116 89 98
-0.084318481 -0.46692383 -0.68432146 110 79 89
-0.086912207 -0.46740544 -0.68470621 117 88 96
-0.086290523 -0.46901891 -0.68495834 115 87 97
-0.081309728 -0.46773636 -0.68402207 107 78 95
-0.080948353 -0.46860161 -0.68414801 110 80 98
-0.082651399 -0.46744204 -0.68417883 109 78 92
-0.081050798 -0.46834633 -0.68411016 109 80 97
-0.082093582 -0.46993101 -0.68455791 113 83 99
-0.08082816 -0.47039869 -0.6844905 115 85 103
-0.083149903 -0.46964476 -0.68463129 112 82 97
-0.080939732 -0.46994022 -0.68442798 114 84 101
-0.083175354 -0.46786404 -0.68434197 111 79 92
-0.077991106 -0.47037673 -0.68413115 140 115 135
-0.078882337 -0.47062835 -0.68429345 130 103 122
-0.078689761 -0.47057524 -0.6842587 132 105 125
-0.096282043 -0.47159526 -0.68722725 125 95 109
-0.097567119 -0.47131413 -0.68750298 124 93 108
-0.09749341 -0.47252032 -0.68773943 120 91 107
-0.097219735 -0.47238696 -0.68763977 121 92 108
-0.097803585 -0.47090903 -0.68747878 126 94 108
-0.097574353 -0.47252259 -0.68776107 120 91 107
-0.095887721 -0.47205245 -0.68722022 124 94 109
-0.092489779 -0.4736025 -0.68680596 134 111 123
-0.093617663 -0.47274378 -0.68682963 125 99 114
-0.093392491 -0.47295603 -0.68683469 127 102 115
-0.09374243 -0.4733893 -0.68700933 125 100 114
-0.092526026 -0.47261864 -0.68657804 132 108 120
-0.094727956 -0.47247425 -0.6870268 123 96 110
-0.093590438 -0.4716967 -0.68659872 128 101 114
-0.092994168 -0.47106171 -0.68632704 131 104 116
-0.094731264 -0.47310209 -0.68715811 121 94 110
-0.095321439 -0.47165233 -0.68699503 125 96 110
-0.094636925 -0.4713726 -0.68677646 128 99 112
-0.091457978 -0.47454718 -0.68684316 138 115 126
-0.088408224 -0.47309682 -0.68607938 117 85 97
-0.088364497 -0.47304708 -0.68606198 116 85 97
-0.087980263 -0.47151542 -0.68566567 118 90 100
-0.089888431 -0.47324184 -0.68632573 129 104 114
-0.091709897 -0.47392884 -0.68673217 139 117 127
-0.091540657 -0.47359282 -0.68663019 138 116 126
-0.090369642 -0.4713946 -0.68595469 130 105 115
-0.089017242 -0.47112238 -0.68571645 124 100 108
-0.089517415 -0.4713715 -0.68584001 127 102 111
-0.090333916 -0.47177458 -0.68604094 131 106 116
-0.084558144 -0.47188848 -0.68525738 114 85 99
-0.084738046 -0.47442091 -0.68588388 124 100 110
-0.086384907 -0.47336259 -0.68584722 110 76 91
-0.084875591 -0.47292218 -0.68554497 117 88 102
-0.084612943 -0.47253963 -0.68541956 116 89 102
