ply
format ascii 1.0
comment PCL generated
element vertex 1004
property float x
property float y
property float z
property uchar red
property uchar green
property uchar blue
element camera 0
property float view_px
property float view_py
property float view_pz
property float x_axisx
property float x_axisy
property float x_axisz
property float y_axisx
property float y_axisy
property float y_axisz
property float z_axisx
property float z_axisy
property float z_axisz
property float focal
property float scalex
property float scaley
property float centerx
property float centery
property int viewportx
property int viewporty
property float k1
property float k2
end_header
-0.15083383 -0.46824712 -0.72239643 151 138 147
-0.15050489 -0.46844739 -0.72166693 149 137 144
-0.15059975 -0.46974093 -0.72227591 154 143 149
-0.14956966 -0.47066009 -0.72089523 151 132 144
-0.15026076 -0.47005978 -0.72147775 153 137 146
-0.15012936 -0.46929234 -0.72117871 150 133 143
-0.14998634 -0.46927929 -0.72102886 149 132 143
-0.14850646 -0.47040766 -0.7197479 143 121 139
-0.14920291 -0.46711868 -0.71973795 139 123 133
-0.14942427 -0.46786824 -0.72014296 141 124 136
-0.14915939 -0.46829206 -0.71996129 140 123 136
-0.15047611 -0.47145462 -0.72257042 155 141 150
-0.14733696 -0.47216681 -0.71935707 141 120 141
-0.14770608 -0.47164464 -0.71946961 142 120 140
-0.14848958 -0.47100088 -0.71994597 145 123 141
-0.14777996 -0.47092041 -0.71917504 140 116 137
-0.14764632 -0.47299445 -0.72001147 147 127 146
-0.14778759 -0.47285053 -0.72009397 147 128 146
-0.14858857 -0.47317567 -0.72115356 150 133 148
-0.15020426 -0.47097501 -0.72169828 156 139 148
-0.14952354 -0.47186071 -0.72143996 153 136 148
-0.14953278 -0.47209302 -0.72161341 153 136 149
-0.14807355 -0.47422469 -0.72107297 148 130 148
-0.14951713 -0.47343102 -0.72238868 150 135 150
-0.14788055 -0.47398719 -0.72077268 148 130 148
-0.14912988 -0.47506601 -0.72257173 150 133 150
-0.14801013 -0.47624996 -0.72181189 153 136 152
-0.14773144 -0.47646686 -0.721591 154 136 153
-0.14855522 -0.47760582 -0.7229709 159 143 156
-0.14869224 -0.47506097 -0.72208369 150 132 150
-0.14947194 -0.47483024 -0.72285527 150 133 150
-0.14667735 -0.47744277 -0.72035807 160 146 160
-0.14655243 -0.47537035 -0.71971691 149 131 150
-0.1468858 -0.47694665 -0.7205677 157 141 156
-0.14700961 -0.47737846 -0.72085029 159 144 158
-0.14620386 -0.47659224 -0.71962333 155 138 155
-0.14624822 -0.47588125 -0.71950901 152 133 152
-0.14599356 -0.47554123 -0.71919453 148 128 149
-0.14780502 -0.4809233 -0.72293687 160 143 163
-0.14694409 -0.47874221 -0.72105694 165 153 164
-0.14766206 -0.48107094 -0.72275752 161 144 164
-0.14818101 -0.47901699 -0.72301304 161 146 159
-0.14759342 -0.47878641 -0.7220577 163 149 162
-0.14699958 -0.48162681 -0.72193879 160 143 164
-0.14658691 -0.47948554 -0.72072738 164 152 165
-0.14683598 -0.48100045 -0.72152412 161 146 165
-0.14646478 -0.48188299 -0.72126871 159 142 163
-0.14617004 -0.47952393 -0.72026056 164 152 165
-0.14643432 -0.48135957 -0.72108215 160 144 163
-0.14481027 -0.48201406 -0.71955001 160 143 164
-0.14603175 -0.47944036 -0.72008902 165 152 165
-0.14462964 -0.48108491 -0.71914881 161 143 162
-0.14568393 -0.4788191 -0.71963197 164 149 162
-0.14672975 -0.48440677 -0.72257042 161 139 160
-0.14737904 -0.48281658 -0.72286117 160 140 164
-0.14659226 -0.48272356 -0.72171825 158 140 162
-0.14626607 -0.48569596 -0.72249496 162 139 158
-0.14370616 -0.48613173 -0.71984094 159 143 165
-0.14624298 -0.4861103 -0.72263241 163 139 158
-0.14531875 -0.48436314 -0.72092527 159 141 163
-0.1449867 -0.48625612 -0.72130316 161 141 161
-0.14484672 -0.48427996 -0.7203716 158 142 164
-0.14504641 -0.48590341 -0.72123039 161 141 161
-0.14559245 -0.48274288 -0.72061533 158 141 163
-0.14389734 -0.48366305 -0.71914268 159 143 164
-0.14555658 -0.48311388 -0.72070944 158 141 163
-0.14435501 -0.48352766 -0.71958059 159 142 164
-0.14317937 -0.48642772 -0.71935833 157 142 165
-0.14263843 -0.48825037 -0.71915507 132 108 150
-0.14289168 -0.48831561 -0.71944869 131 106 148
-0.14407836 -0.48730144 -0.72053927 147 124 154
-0.14428154 -0.48797205 -0.72090113 138 111 148
-0.14314237 -0.488392 -0.71973825 131 105 147
-0.14358111 -0.48898467 -0.72033614 123 93 141
-0.14291355 -0.48897988 -0.71960473 122 94 142
-0.14605166 -0.48676845 -0.72259802 157 131 154
-0.14576323 -0.48869371 -0.72254497 139 93 139
-0.14587709 -0.48829234 -0.72261173 143 101 142
-0.14529964 -0.48934719 -0.72215265 130 82 135
-0.145492 -0.48886877 -0.72228998 135 91 139
-0.14479573 -0.48924443 -0.72162628 128 85 137
-0.14496547 -0.48935944 -0.7218135 128 82 136
-0.14248328 -0.48962632 -0.71927762 113 83 138
-0.14485459 -0.4931531 -0.72246987 125 98 123
-0.14524445 -0.49085206 -0.72234553 123 71 127
-0.14441563 -0.49199784 -0.72176039 120 86 126
-0.14523889 -0.49287942 -0.7227996 127 94 123
-0.14481176 -0.49034402 -0.72178924 119 67 129
-0.14432451 -0.49275565 -0.72183931 121 95 125
-0.14371738 -0.49062446 -0.7207371 113 73 130
-0.14261201 -0.49030811 -0.71953762 105 72 132
-0.14384679 -0.49290559 -0.72135711 115 90 117
-0.14291631 -0.4912872 -0.72005022 107 77 124
-0.14286126 -0.49384424 -0.72047532 102 79 92
-0.14409065 -0.49293143 -0.72162414 118 93 120
-0.14238971 -0.49408743 -0.72003311 101 79 89
-0.1425454 -0.49079719 -0.71956187 104 73 126
-0.14255121 -0.49201527 -0.71979821 102 74 111
-0.14197117 -0.4920049 -0.71923447 109 84 121
-0.14484237 -0.49495685 -0.72280043 123 102 119
-0.14346971 -0.49541199 -0.72140223 106 84 101
-0.14431401 -0.49591187 -0.72239512 115 94 115
-0.14444031 -0.49426877 -0.72225094 120 98 111
-0.14481433 -0.49655551 -0.72304267 119 99 124
-0.14283568 -0.49678847 -0.72113496 104 84 103
-0.14292039 -0.49693078 -0.72124839 105 85 104
-0.1441125 -0.49741659 -0.72245872 110 90 118
-0.14388208 -0.49797955 -0.72239172 110 91 119
-0.14187835 -0.49735394 -0.72037446 109 89 111
-0.14145432 -0.49659002 -0.71977454 111 90 112
-0.141853 -0.49553472 -0.71988767 106 84 101
-0.14241774 -0.49782395 -0.72100997 106 87 108
-0.14114 -0.49787614 -0.71980077 116 96 123
-0.14129971 -0.49501106 -0.71921009 114 98 111
-0.14166026 -0.4946073 -0.719455 110 92 103
-0.14389637 -0.49981761 -0.72272944 104 84 114
-0.14334235 -0.49985054 -0.72223002 102 82 108
-0.14340654 -0.49961761 -0.72224814 103 83 110
-0.14291856 -0.50166559 -0.72213703 98 77 103
-0.14277491 -0.50151461 -0.72197729 98 77 103
-0.14344083 -0.50161499 -0.72261864 98 76 105
-0.14153355 -0.50028306 -0.72065949 109 83 111
-0.14170553 -0.50131595 -0.72098315 105 80 108
-0.1409326 -0.50016904 -0.72010571 114 85 115
-0.14067708 -0.50077009 -0.7199775 114 84 116
-0.14249851 -0.49892145 -0.72129363 104 84 107
-0.14064352 -0.4984208 -0.71945041 119 98 128
-0.14237535 -0.49812245 -0.72104251 107 87 109
-0.14063285 -0.49810642 -0.71937191 120 100 130
-0.13970555 -0.50171304 -0.71926832 120 84 121
-0.14318147 -0.50497025 -0.72293258 139 106 129
-0.14315826 -0.50292599 -0.72257107 111 85 112
-0.14284751 -0.50431156 -0.72251278 131 101 123
-0.14156274 -0.50267261 -0.72113353 110 85 113
-0.13996437 -0.50353038 -0.71991611 127 96 129
-0.13967715 -0.50278473 -0.71948183 124 90 126
-0.14113232 -0.50256836 -0.72072542 112 85 115
-0.14032467 -0.50286233 -0.72007686 120 89 122
-0.1418633 -0.50271082 -0.72141004 108 85 112
-0.14160478 -0.50433576 -0.72147787 133 105 130
-0.14205925 -0.50499028 -0.72196269 144 114 135
-0.14214817 -0.50440013 -0.72193396 135 107 129
-0.14158392 -0.50408059 -0.72141689 129 102 127
-0.14104712 -0.50394607 -0.72095406 127 99 127
-0.16050838 -0.44335994 -0.73578858 98 73 98
-0.16037515 -0.4443759 -0.73580289 99 78 98
-0.16178615 -0.44709 -0.73864895 87 58 93
-0.1599092 -0.44591209 -0.73532224 95 75 94
-0.16028391 -0.44522116 -0.73581249 96 75 96
-0.16015621 -0.44618934 -0.73578399 94 73 94
-0.15991397 -0.44611368 -0.73536825 95 74 94
-0.15977447 -0.44464663 -0.73485953 99 81 97
-0.16046157 -0.44556785 -0.7361725 95 73 95
-0.16049145 -0.44978085 -0.73762351 97 70 94
-0.16041979 -0.44966656 -0.73721683 94 67 92
-0.16100931 -0.44842094 -0.73757291 88 60 91
-0.16091192 -0.4492985 -0.73843277 99 72 95
-0.16080955 -0.44887409 -0.73749477 91 63 92
-0.15947185 -0.4501009 -0.73520243 89 64 89
-0.16035536 -0.44906729 -0.73653936 88 62 90
-0.16013928 -0.44812283 -0.73606509 90 66 91
-0.15952367 -0.44959882 -0.73522651 90 65 89
-0.16040556 -0.44922751 -0.73664224 88 61 90
-0.15954533 -0.45020917 -0.7353375 89 63 89
-0.1600444 -0.4535743 -0.73735064 105 86 96
-0.16035931 -0.45453197 -0.73803407 103 85 93
-0.15970214 -0.45498317 -0.73589224 100 87 95
-0.15963764 -0.45445755 -0.73584843 102 87 96
-0.16028953 -0.45215914 -0.73851377 110 86 98
-0.16021521 -0.45378071 -0.73781282 105 86 95
-0.1593316 -0.45252421 -0.73521507 95 74 92
-0.15949963 -0.4539496 -0.73552924 101 85 96
-0.15975393 -0.45161411 -0.73686475 103 78 95
-0.15925311 -0.45334452 -0.73478371 95 77 92
-0.15969592 -0.45181349 -0.73662394 102 78 95
-0.1594488 -0.45301065 -0.73553139 98 79 94
-0.15990809 -0.45717108 -0.73852456 104 79 92
-0.16022868 -0.45601729 -0.7381056 102 81 92
-0.15976195 -0.45731002 -0.73782617 103 77 93
-0.15921752 -0.45852366 -0.73682433 102 71 94
-0.15988323 -0.45681533 -0.73753411 101 77 93
-0.15957549 -0.45727295 -0.73646206 100 73 94
-0.15974224 -0.45554838 -0.73619831 100 84 94
-0.16018559 -0.45521626 -0.7374053 101 85 93
-0.16008534 -0.45577484 -0.73734927 101 81 93
-0.15970021 -0.45592213 -0.73623741 100 81 94
-0.15968549 -0.4567076 -0.73654485 100 77 94
-0.15837866 -0.4622317 -0.73799485 138 94 145
-0.15888296 -0.46050841 -0.73833436 121 83 117
-0.15923117 -0.45913154 -0.73824632 107 74 95
-0.15872881 -0.46005914 -0.73644114 113 76 112
-0.15880741 -0.46015292 -0.73715961 115 78 113
-0.15845701 -0.46222273 -0.7384969 139 95 145
-0.15874527 -0.46088722 -0.73806703 125 85 124
-0.15780242 -0.46118754 -0.73498172 123 92 128
-0.15810233 -0.46150169 -0.7362625 129 90 135
-0.15812121 -0.46105772 -0.73572022 123 88 129
-0.15777975 -0.46193692 -0.73592341 132 96 138
-0.15881379 -0.46595809 -0.73830062 133 106 140
-0.15858239 -0.46466064 -0.73841089 138 102 145
-0.1584332 -0.46432918 -0.73823518 141 103 149
-0.15775973 -0.46535701 -0.73654211 152 125 162
-0.15804136 -0.46598771 -0.73665929 147 124 158
-0.15743028 -0.46667069 -0.73540223 157 141 168
-0.15722218 -0.46587077 -0.73534191 159 138 168
-0.15728101 -0.46443957 -0.73563832 150 123 158
-0.15724902 -0.46545595 -0.73545581 156 134 165
-0.15726027 -0.46554238 -0.73548037 157 134 166
-0.15706344 -0.46646014 -0.73483461 161 146 171
-0.15905665 -0.46889204 -0.73812705 127 112 131
-0.15880096 -0.46683055 -0.73785651 133 113 140
-0.15925439 -0.46857873 -0.73862153 124 107 126
-0.1582938 -0.46974787 -0.73683798 160 144 162
-0.15828969 -0.46946606 -0.73681366 158 142 161
-0.15902072 -0.47025645 -0.73801804 133 120 134
-0.15801623 -0.46865684 -0.73642451 155 139 161
-0.15791254 -0.46832401 -0.73629177 153 137 159
-0.15815443 -0.47004515 -0.73666108 165 150 167
-0.15771098 -0.46891505 -0.73611212 155 140 160
-0.15698501 -0.46924573 -0.73532516 155 141 158
-0.157557 -0.46805486 -0.73586965 150 135 157
-0.15918949 -0.47272459 -0.73831439 124 111 120
-0.15884134 -0.47236469 -0.73776436 139 126 136
-0.15897292 -0.47165325 -0.73797154 135 123 133
-0.15848157 -0.4723981 -0.73724419 152 136 149
-0.15849634 -0.47182825 -0.73722988 154 140 152
-0.15915643 -0.47408572 -0.73828191 121 108 115
-0.15726639 -0.47394142 -0.73599988 152 132 150
-0.15772261 -0.47417322 -0.73647797 152 131 149
-0.15803336 -0.47211364 -0.73666847 162 145 161
-0.1566463 -0.47444874 -0.73540026 148 127 147
-0.15757506 -0.47174612 -0.73617744 163 146 163
-0.15622386 -0.47281492 -0.73482341 153 136 152
-0.15678585 -0.47077376 -0.73523557 162 149 160
-0.15673523 -0.47280499 -0.7353732 156 137 155
-0.15881935 -0.47493348 -0.73793107 129 113 123
-0.15886334 -0.47651681 -0.73840296 127 112 117
-0.15868402 -0.47583336 -0.73797715 133 117 126
-0.15845229 -0.47674724 -0.73784745 141 124 132
-0.15826638 -0.47850549 -0.73667037 157 143 157
-0.15825883 -0.478333 -0.73666191 157 142 157
-0.15808094 -0.47846663 -0.73611426 161 147 164
-0.1581241 -0.47618169 -0.73657322 155 137 154
-0.1578294 -0.47743732 -0.73574901 159 143 163
-0.15615489 -0.47483698 -0.73482525 148 126 148
-0.15744826 -0.47650173 -0.73551959 156 138 159
-0.15742615 -0.47545534 -0.73588735 152 132 152
-0.15762947 -0.47690934 -0.73555183 157 140 162
-0.15659186 -0.47475064 -0.73530179 148 127 147
-0.15826723 -0.47885206 -0.73690331 156 142 156
-0.1585438 -0.47855788 -0.73803139 140 126 131
-0.15844604 -0.47876787 -0.73770541 146 132 140
-0.15818191 -0.48142707 -0.73831594 158 144 160
-0.15812241 -0.47899061 -0.73651922 160 146 163
-0.15778969 -0.47922134 -0.73597497 161 147 168
-0.15784487 -0.4796502 -0.73638546 161 147 167
-0.15699573 -0.48118263 -0.73563236 155 139 159
-0.15743417 -0.4798626 -0.73566133 160 146 167
-0.15731616 -0.48206124 -0.7369135 155 140 158
-0.15757249 -0.4815104 -0.73708141 158 143 162
-0.15666664 -0.48206085 -0.73553365 152 135 153
-0.15737288 -0.48194346 -0.73695344 156 141 159
-0.1576955 -0.48514438 -0.73801589 164 139 166
-0.15743053 -0.4847247 -0.73756683 162 140 165
-0.15725163 -0.48602539 -0.7372185 165 137 166
-0.15782876 -0.48306835 -0.73830694 160 143 163
-0.15709884 -0.48534662 -0.73697203 163 139 165
-0.15729004 -0.48458514 -0.73732638 162 140 164
-0.1568671 -0.48545504 -0.73656571 163 138 164
-0.15657017 -0.48320556 -0.73572135 154 135 154
-0.15638195 -0.48322213 -0.73532462 153 134 153
-0.15717919 -0.48387679 -0.73713976 160 141 162
-0.15713389 -0.48281065 -0.73684525 155 139 157
-0.15606372 -0.48588079 -0.73514313 162 137 162
-0.15657708 -0.48367366 -0.73582304 156 136 156
-0.15820865 -0.48709247 -0.73856777 171 143 172
-0.15841715 -0.48903874 -0.7384041 178 157 177
-0.15702386 -0.48960575 -0.7359969 187 169 183
-0.1580582 -0.48980972 -0.73734123 185 166 181
-0.15815665 -0.48970976 -0.73751366 184 164 180
-0.1581917 -0.48912013 -0.73778152 181 160 178
-0.15787606 -0.48705697 -0.7381106 172 144 173
-0.15650824 -0.48709854 -0.73576164 170 145 169
-0.15614758 -0.48848662 -0.73485535 179 159 176
-0.15779254 -0.48667148 -0.73808199 169 140 171
-0.15631635 -0.48666897 -0.73551416 166 140 166
-0.15652071 -0.48677611 -0.73584819 167 141 167
-0.15709868 -0.48774981 -0.73665816 176 151 175
-0.15862392 -0.49210405 -0.73823589 188 172 184
-0.15860905 -0.49041402 -0.73844862 183 165 180
-0.15812165 -0.49140853 -0.73738521 189 172 184
-0.1576909 -0.49042758 -0.73671585 188 171 183
-0.16325699 -0.4619084 -0.75150621 93 22 95
-0.16328333 -0.46229005 -0.75154454 92 23 94
-0.16329722 -0.46260005 -0.75155729 92 23 93
-0.16396502 -0.46118289 -0.75328195 82 47 75
-0.16409825 -0.46087766 -0.75362748 80 51 71
-0.16381741 -0.46241438 -0.75283825 82 41 78
-0.16288149 -0.46644944 -0.75120479 93 41 94
-0.16341536 -0.46480542 -0.75355411 56 39 52
-0.16271321 -0.46627304 -0.75260377 56 27 56
-0.16269372 -0.46673366 -0.751284 85 36 87
-0.16231078 -0.46651483 -0.75390518 14 7 15
-0.16344948 -0.46504077 -0.75265574 77 46 74
-0.16348371 -0.46361154 -0.75199044 89 37 89
-0.16331439 -0.46339306 -0.75157809 92 29 93
-0.16285621 -0.46328738 -0.75046122 100 12 106
-0.16364095 -0.46459621 -0.75237131 89 51 86
-0.16296548 -0.46588799 -0.75072122 105 41 107
-0.16316135 -0.46473774 -0.75120163 98 37 100
-0.16276991 -0.46711701 -0.75159049 81 36 83
-0.16261713 -0.4669207 -0.75184464 70 30 72
-0.1633451 -0.46863636 -0.75278252 75 46 75
-0.16393377 -0.47029492 -0.75428766 61 54 61
-0.16304928 -0.46791643 -0.75233865 74 40 75
-0.16278842 -0.46687499 -0.75082749 98 41 101
-0.16291812 -0.46708593 -0.75045764 107 47 110
-0.16328362 -0.46819511 -0.75138366 96 52 97
-0.16386762 -0.4701767 -0.75154966 81 66 79
-0.16319323 -0.46788582 -0.75137448 98 50 100
-0.16341835 -0.46869138 -0.7511766 93 56 93
-0.16381708 -0.47010016 -0.75093925 84 67 81
-0.16396229 -0.47400358 -0.75286365 81 75 80
-0.16398093 -0.47244301 -0.75279284 80 72 78
-0.16394365 -0.4741177 -0.75268179 82 76 81
-0.16406891 -0.473014 -0.75384468 74 68 73
-0.16383274 -0.47410965 -0.75148022 90 82 88
-0.16387925 -0.47306412 -0.75166696 87 78 84
-0.16400449 -0.47122756 -0.75190437 79 70 75
-0.16410106 -0.47111058 -0.75383109 72 64 70
-0.16396624 -0.47180396 -0.75185251 81 73 78
-0.16399197 -0.47140181 -0.75186807 79 71 76
-0.16389403 -0.47284725 -0.7516948 86 77 83
-0.16414964 -0.47781059 -0.75301582 70 61 72
-0.16417944 -0.47740951 -0.75355095 70 61 71
-0.16402957 -0.47664607 -0.75252694 73 65 76
-0.16422601 -0.47835675 -0.75344318 69 59 70
-0.16414037 -0.47801161 -0.75280344 70 60 72
-0.16402625 -0.47501975 -0.75343043 76 71 77
-0.16399664 -0.47577503 -0.75268531 76 69 78
-0.16378461 -0.47565669 -0.75045776 91 81 90
-0.16390853 -0.47523752 -0.75203425 83 76 83
-0.16392897 -0.47569358 -0.7519989 81 73 82
-0.16393456 -0.47590607 -0.75193995 80 72 81
-0.16394311 -0.48012316 -0.75280279 79 69 76
-0.16373926 -0.48160732 -0.75295651 109 96 109
-0.16372642 -0.4817633 -0.75306284 114 100 113
-0.16352122 -0.48210233 -0.75143206 100 88 94
-0.16378503 -0.4810479 -0.75257236 94 82 91
-0.16401322 -0.47882292 -0.75167257 73 61 76
-0.16379723 -0.4799979 -0.75117862 79 68 79
-0.1640113 -0.47968477 -0.7528578 75 65 73
-0.16402271 -0.47958228 -0.75282753 75 65 73
-0.16426054 -0.47871161 -0.75396264 69 59 68
-0.16424434 -0.47867942 -0.75375736 69 59 69
-0.16376694 -0.48519844 -0.75408632 149 129 139
-0.16375716 -0.48624018 -0.75392854 153 131 136
-0.16324626 -0.48566729 -0.75165951 160 144 153
-0.16345052 -0.48543203 -0.75261718 156 138 148
-0.16330591 -0.48535243 -0.75196594 158 142 152
-0.16370764 -0.48449507 -0.75389224 148 129 142
-0.16320623 -0.48485643 -0.75117767 148 135 144
-0.16332476 -0.48326051 -0.75074476 113 101 106
-0.16347161 -0.48331663 -0.75234574 134 120 133
-0.16321586 -0.48470965 -0.75112456 145 131 140
-0.16313702 -0.48482218 -0.75041497 138 126 131
-0.16515237 -0.48946142 -0.75425011 172 158 167
-0.16466072 -0.48890948 -0.75369501 168 152 161
-0.16409416 -0.48748958 -0.75377715 159 139 145
-0.16426168 -0.4897615 -0.75204736 175 158 168
-0.16391464 -0.48675263 -0.75406742 154 132 138
-0.16406378 -0.48696741 -0.75419223 156 134 140
-0.16331977 -0.48711422 -0.75126833 166 149 156
-0.16318499 -0.48647597 -0.75118488 164 148 155
-0.16316031 -0.48710194 -0.75055081 168 153 161
-0.16361605 -0.48808441 -0.75181204 167 147 155
-0.16372572 -0.48820055 -0.7522158 166 145 153
-0.16559651 -0.49143612 -0.75364059 173 160 173
-0.16558987 -0.49120709 -0.75378251 173 161 173
-0.16507357 -0.49149826 -0.75271535 172 160 171
-0.16462068 -0.49031845 -0.75234509 178 163 173
-0.16425765 -0.49196655 -0.75070876 171 156 168
-0.16477273 -0.4914811 -0.75207347 172 159 170
-0.16418375 -0.49026039 -0.75143009 179 162 173
-0.15833934 -0.44639739 -0.73046505 91 65 97
-0.15703088 -0.44627434 -0.72886688 99 78 93
-0.1576212 -0.44682029 -0.72933447 90 61 92
-0.15668799 -0.44616187 -0.72852743 102 84 94
-0.15642208 -0.44530678 -0.72832638 108 93 96
-0.15627684 -0.44443634 -0.72805983 112 97 100
-0.15633425 -0.44524261 -0.7281757 109 93 97
-0.15838253 -0.44747564 -0.7303822 88 54 100
-0.15811385 -0.44854754 -0.73028404 87 56 98
-0.15728593 -0.44875601 -0.72944427 94 66 98
-0.1569685 -0.44940576 -0.72936839 98 74 101
-0.15813561 -0.44761783 -0.7298997 84 48 92
-0.15724503 -0.44889054 -0.72945583 95 67 98
-0.15485907 -0.45878476 -0.72740585 154 136 137
-0.15511395 -0.45784461 -0.72748691 147 127 131
-0.15532494 -0.46148601 -0.72877944 153 132 141
-0.15556455 -0.46209982 -0.7295779 159 142 152
-0.15524749 -0.46115869 -0.72855532 150 128 137
-0.15496057 -0.46108991 -0.72757488 161 140 144
-0.15481722 -0.46150666 -0.72697598 170 149 151
-0.1544718 -0.46674123 -0.7281307 168 149 166
-0.1546281 -0.46635804 -0.72829002 169 150 165
-0.15505479 -0.46509787 -0.7285673 171 152 163
-0.1547135 -0.46567994 -0.72812122 170 151 164
-0.15538569 -0.46605599 -0.72987974 169 152 167
-0.15462604 -0.46551895 -0.72782767 171 151 163
-0.15557374 -0.46598974 -0.730416 168 152 168
-0.15538138 -0.46406561 -0.72910374 171 153 163
-0.15528983 -0.46482274 -0.72898775 171 153 163
-0.15545893 -0.46354428 -0.72923851 170 154 163
-0.155515 -0.46310931 -0.72931832 170 154 163
-0.15559873 -0.46307823 -0.72962546 169 155 163
-0.15539959 -0.46752685 -0.7301271 165 145 164
-0.15459536 -0.46788874 -0.72814649 164 140 159
-0.15456152 -0.46913958 -0.72772014 159 130 151
-0.15441667 -0.46783566 -0.72774345 164 140 159
-0.15471046 -0.46922484 -0.72804469 159 130 151
-0.15520354 -0.47036752 -0.73074239 133 120 131
-0.15530342 -0.4682155 -0.73002768 159 139 157
-0.15477416 -0.47009501 -0.72840965 150 123 142
-0.15513405 -0.47051141 -0.73047155 134 118 130
-0.15476923 -0.47039959 -0.72855747 147 120 138
-0.15468408 -0.47015184 -0.72798496 153 122 143
-0.15418522 -0.46909511 -0.72704327 162 132 153
-0.15449579 -0.47284475 -0.72796392 150 126 141
-0.15453127 -0.4732137 -0.72819668 149 127 140
-0.15512055 -0.47433716 -0.73035032 124 108 115
-0.15479776 -0.47279838 -0.72884065 138 113 127
-0.15489696 -0.4732646 -0.72930384 134 111 123
-0.15487742 -0.47279525 -0.72908831 134 110 124
-0.15468533 -0.4716067 -0.72822189 143 114 132
-0.1551982 -0.47388417 -0.73061651 122 106 114
-0.15495601 -0.47304827 -0.72946393 131 109 121
-0.15504296 -0.47167319 -0.73002994 132 113 125
-0.15365581 -0.47376272 -0.72713101 157 139 152
-0.15365502 -0.47354817 -0.72705686 157 137 151
-0.15472251 -0.47794613 -0.73071003 151 135 140
-0.1546014 -0.47689191 -0.72988474 153 137 144
-0.15485102 -0.47550881 -0.73002833 138 123 130
-0.1546516 -0.47571084 -0.72951812 147 132 140
-0.15433672 -0.47827372 -0.72984326 153 138 142
-0.15285006 -0.478333 -0.72794402 155 138 150
-0.15351059 -0.47714069 -0.72820163 156 140 150
-0.15263699 -0.47810894 -0.72756672 156 138 152
-0.15305348 -0.47806922 -0.7280733 155 138 149
-0.15239392 -0.47799513 -0.72720492 157 138 153
-0.15353274 -0.4784458 -0.72886032 154 138 146
-0.15277152 -0.47617048 -0.72704446 156 141 154
-0.15335642 -0.47499067 -0.72725725 156 143 154
-0.15445516 -0.47957832 -0.73066825 154 139 146
-0.15422708 -0.48105091 -0.7307325 153 140 150
-0.15319033 -0.48054191 -0.7292183 155 140 154
-0.15387399 -0.48055637 -0.73008674 153 140 150
-0.15420596 -0.47870791 -0.72981572 153 138 143
-0.15393814 -0.48123467 -0.73042095 153 140 152
-0.15332432 -0.48041818 -0.72934121 154 139 152
-0.15180458 -0.48007885 -0.72720039 158 138 156
-0.15117969 -0.4821339 -0.72701579 161 138 159
-0.15240103 -0.48054573 -0.72816372 157 139 155
-0.15218362 -0.48213732 -0.72838366 158 139 158
-0.15259127 -0.48225978 -0.72897834 157 140 157
-0.15231185 -0.48171204 -0.72842038 158 139 157
-0.1532526 -0.48126054 -0.72955483 155 140 155
-0.15101163 -0.48620629 -0.72775948 166 145 161
-0.1524886 -0.48559201 -0.72950333 151 127 152
-0.15193191 -0.48443124 -0.72852427 155 131 155
-0.15214957 -0.48492771 -0.72891694 153 129 154
-0.15274274 -0.48607701 -0.72993994 149 125 151
-0.15207805 -0.48614126 -0.72910595 155 132 155
-0.15128739 -0.48392433 -0.72758406 161 138 159
-0.15345897 -0.48501897 -0.73068017 147 125 150
-0.1532252 -0.48541328 -0.73043305 146 123 150
-0.15323693 -0.48411208 -0.73021454 150 130 153
-0.15176928 -0.48283401 -0.7279861 158 136 158
-0.15186527 -0.48290324 -0.72812927 158 136 157
-0.15138693 -0.48283178 -0.72746515 159 136 158
-0.15278 -0.48489347 -0.72973323 149 125 152
-0.15148947 -0.48810107 -0.72875112 177 164 172
-0.15284039 -0.48969012 -0.7307899 179 171 177
-0.15141782 -0.48722324 -0.72848564 170 152 166
-0.15208988 -0.48902392 -0.72970021 180 170 176
-0.15256071 -0.48690856 -0.72988153 156 135 157
-0.15288025 -0.48664546 -0.73023707 151 128 153
-0.15315177 -0.48642597 -0.73053998 146 122 150
-0.15085012 -0.48751271 -0.72785085 175 158 169
-0.15065634 -0.48940206 -0.72813809 180 165 174
-0.15136005 -0.48802185 -0.72857964 177 163 172
-0.1513952 -0.48898092 -0.72888017 180 167 175
-0.15104024 -0.48820299 -0.72825813 177 162 172
-0.15000731 -0.48977807 -0.7274912 176 158 172
-0.14988351 -0.4893811 -0.72724134 174 155 170
-0.15209904 -0.49343836 -0.7303887 184 167 174
-0.15040585 -0.49132615 -0.72826695 180 164 173
-0.15103687 -0.49157995 -0.72896069 182 166 175
-0.15198225 -0.4940922 -0.73038203 183 165 172
-0.15070403 -0.49249649 -0.72878295 179 163 171
-0.14984079 -0.49297136 -0.72799438 170 150 163
-0.14991617 -0.49275526 -0.72803128 172 152 164
-0.15014301 -0.49305373 -0.72831237 174 156 165
-0.15021686 -0.49360648 -0.72848552 174 156 164
-0.15023945 -0.49045438 -0.72793609 179 163 174
-0.149562 -0.49184829 -0.7275008 169 148 163
-0.15199155 -0.49697849 -0.7308175 177 159 168
-0.15202364 -0.49666178 -0.73080391 178 160 169
-0.15182227 -0.49513963 -0.73037326 180 162 170
-0.15141633 -0.49420106 -0.72981822 180 162 169
-0.15173104 -0.49788135 -0.73068094 174 156 166
-0.15146923 -0.49773976 -0.73038709 173 153 164
-0.15068233 -0.4963614 -0.72937083 171 151 162
-0.14980823 -0.49539647 -0.72831261 170 151 160
-0.14918403 -0.49785903 -0.72799361 161 139 153
-0.14859115 -0.49746543 -0.72730935 160 140 152
-0.14991899 -0.49618831 -0.7285406 168 147 159
-0.14835152 -0.49681443 -0.72699469 156 134 149
-0.14881313 -0.49645609 -0.72741967 161 140 153
-0.14888151 -0.49552423 -0.72738898 160 137 152
-0.15184408 -0.49817765 -0.73082864 174 155 166
-0.15106283 -0.49972576 -0.73008454 162 139 157
-0.1510714 -0.49863347 -0.73004138 167 144 159
-0.15071575 -0.50186628 -0.72983903 152 134 151
-0.15087925 -0.49966004 -0.72988999 161 138 156
-0.15024424 -0.50101662 -0.72930521 152 134 149
-0.14860292 -0.50151873 -0.72761047 144 128 140
-0.15038908 -0.4987534 -0.72933656 162 138 154
-0.14852744 -0.50113463 -0.72751087 145 128 141
-0.14973329 -0.49806577 -0.72860402 162 139 154
-0.14827962 -0.5010528 -0.7272436 145 128 140
-0.14822596 -0.49973649 -0.72710615 150 132 144
-0.14815126 -0.50123143 -0.72711831 143 127 139
-0.14913692 -0.49898714 -0.72802728 156 135 149
-0.15104894 -0.5019815 -0.7301898 153 134 153
-0.14826638 -0.50560135 -0.72775543 129 110 124
-0.14828573 -0.50476396 -0.72767526 136 121 130
-0.14909756 -0.50555617 -0.72860664 127 100 124
-0.14937368 -0.50312656 -0.7285983 143 128 140
-0.14790235 -0.50429767 -0.72721112 135 121 129
-0.14859055 -0.50323635 -0.72779155 140 125 136
-0.14843795 -0.5030266 -0.72760355 140 125 136
-0.14939626 -0.50209552 -0.72848469 145 130 143
-0.14864476 -0.50608832 -0.72820646 126 101 124
-0.16354106 -0.45094019 -0.74469399 100 84 103
-0.1637502 -0.45055562 -0.74549335 99 84 99
-0.16388631 -0.4503375 -0.74601567 98 84 96
-0.163987 -0.45038772 -0.74641526 97 82 94
-0.16388124 -0.45021793 -0.74598825 98 84 96
-0.16336982 -0.44964412 -0.74382424 105 92 105
-0.1631999 -0.44979385 -0.74281555 106 92 108
-0.1637695 -0.4535017 -0.74600977 108 93 105
-0.16360341 -0.45412302 -0.74557692 111 96 107
-0.16322468 -0.45375681 -0.74446422 104 91 104
-0.16354835 -0.45377547 -0.74539435 108 93 105
-0.16290618 -0.45495182 -0.74363446 109 96 108
-0.16390279 -0.45307031 -0.74636185 107 91 103
-0.16259947 -0.45479926 -0.74270129 105 94 107
-0.1635935 -0.45214972 -0.74537319 98 83 98
-0.16337997 -0.45158112 -0.74426591 101 85 105
-0.16273703 -0.45431143 -0.74301416 104 92 107
-0.16330235 -0.45186934 -0.74409533 101 86 105
-0.16307667 -0.45238665 -0.74344927 103 88 108
-0.16292314 -0.45566186 -0.74390173 108 97 111
-0.16270716 -0.45534605 -0.74316847 107 96 109
-0.16159299 -0.4581193 -0.74306142 117 103 115
-0.16207321 -0.45654061 -0.74278015 108 97 109
-0.16251765 -0.46141973 -0.74645132 117 91 126
-0.16165397 -0.46185941 -0.74546659 116 85 116
-0.16119355 -0.45959827 -0.74344236 119 99 114
-0.16150497 -0.460895 -0.74466175 118 92 116
-0.16091059 -0.46107084 -0.74311042 112 86 107
-0.16118 -0.46048415 -0.7438736 116 92 112
-0.16119038 -0.46285424 -0.74417257 108 75 107
-0.16083418 -0.46247613 -0.74303353 106 76 103
-0.16099048 -0.45961049 -0.74319184 118 97 111
-0.16101366 -0.47252098 -0.74520868 133 119 134
-0.16038971 -0.47417036 -0.74633056 89 81 89
-0.16018391 -0.47444534 -0.74544615 88 79 86
-0.160531 -0.47341165 -0.74428022 117 104 116
-0.16046482 -0.47351596 -0.74406993 116 103 115
-0.16085096 -0.47296235 -0.74555379 121 109 122
-0.16035172 -0.47119045 -0.74308825 160 147 159
-0.16135344 -0.4717648 -0.74538839 149 134 151
-0.16164616 -0.47074714 -0.74584746 167 152 171
-0.16166243 -0.47105357 -0.74593824 161 146 165
-0.16034462 -0.47189212 -0.74319875 147 134 146
-0.16123362 -0.47187081 -0.74514461 147 132 149
-0.16078092 -0.47597322 -0.74629098 105 97 110
-0.16083242 -0.47762975 -0.74504536 137 127 143
-0.16020662 -0.47747883 -0.74418014 133 123 134
-0.16153269 -0.47834751 -0.74557394 152 142 164
-0.16017325 -0.47737968 -0.74420702 131 121 132
-0.16058142 -0.47789946 -0.74443388 142 132 146
-0.15990263 -0.4747453 -0.74329275 97 86 93
-0.1598603 -0.47697976 -0.74358165 126 115 124
-0.15985987 -0.47651631 -0.74342471 121 110 118
-0.15974547 -0.47792855 -0.7426846 144 132 142
-0.1600024 -0.47479525 -0.74435949 92 82 89
-0.16005906 -0.47489434 -0.74498874 90 81 88
-0.1621567 -0.47964153 -0.74632031 155 143 166
-0.16134974 -0.48227477 -0.74503654 122 106 116
-0.16136701 -0.47974211 -0.74517125 139 128 148
-0.16143581 -0.48130801 -0.7452035 130 116 130
-0.16149627 -0.47999936 -0.74534804 139 128 147
-0.16131637 -0.48228288 -0.74498767 121 105 115
-0.16053399 -0.47880825 -0.74385661 151 139 155
-0.16001999 -0.47943231 -0.74306959 139 127 138
-0.16161004 -0.47882581 -0.74553269 154 143 166
-0.15968275 -0.48235095 -0.74260724 91 78 82
-0.15969488 -0.48139971 -0.74260569 106 93 99
-0.16080914 -0.47904745 -0.74429023 148 136 153
-0.16158082 -0.48507768 -0.74643159 169 151 160
-0.16049406 -0.48260134 -0.74385983 108 93 100
-0.16063318 -0.48261702 -0.7440685 110 96 103
-0.1617173 -0.48343292 -0.74597949 144 127 137
-0.16053265 -0.48330012 -0.74420273 120 105 111
-0.1614484 -0.48345587 -0.74559796 139 122 132
-0.16119307 -0.48319557 -0.74511993 130 114 123
-0.16054058 -0.48550665 -0.74476963 157 142 149
-0.16096258 -0.48580721 -0.74578804 168 151 158
-0.16042449 -0.4861775 -0.74451214 168 153 161
-0.16078499 -0.48527637 -0.74534738 156 140 146
-0.16066526 -0.48628995 -0.74509144 173 157 165
-0.16077645 -0.48537803 -0.74532998 158 142 148
-0.16251922 -0.48981065 -0.74624389 182 156 174
-0.16210523 -0.48960137 -0.74513751 176 151 169
-0.16206117 -0.48975798 -0.74488163 174 149 167
-0.16144094 -0.48682544 -0.74645942 183 164 172
-0.16153513 -0.48923638 -0.74449182 173 151 167
-0.16127717 -0.48856136 -0.74453658 171 151 165
-0.16136985 -0.48757362 -0.74562955 178 158 169
-0.16075718 -0.4886407 -0.743249 164 145 160
-0.16076617 -0.48933122 -0.74265438 160 141 159
-0.16058566 -0.4887757 -0.74271828 161 142 159
-0.1610906 -0.48858228 -0.7440986 168 149 163
-0.16090381 -0.48909867 -0.74319106 163 144 160
-0.16051286 -0.48749191 -0.74368954 166 149 161
-0.16264774 -0.49212232 -0.7455771 174 155 172
-0.1626752 -0.49175772 -0.74578363 176 155 172
-0.16257398 -0.49130169 -0.74560016 175 153 171
-0.1623978 -0.49213728 -0.74466747 173 151 169
-0.16254532 -0.49409607 -0.74436057 177 155 172
-0.16211164 -0.49244595 -0.74347532 173 147 166
-0.1626938 -0.49391183 -0.74498963 177 157 173
-0.16229907 -0.49182943 -0.74443644 173 149 168
-0.16257142 -0.49412021 -0.74444652 177 156 172
-0.16153723 -0.49030384 -0.74337882 164 141 161
-0.16188543 -0.49213904 -0.74320745 171 145 165
-0.16177014 -0.49283203 -0.7427029 171 145 165
-0.16273046 -0.49421138 -0.74501115 177 159 174
-0.16276383 -0.49560952 -0.74485064 183 169 181
-0.16271199 -0.49471185 -0.74484122 180 162 176
-0.16234343 -0.49572077 -0.74327379 184 163 178
-0.16242264 -0.49419481 -0.74387652 177 154 171
-0.16341029 -0.49760169 -0.74585813 182 160 179
-0.16303067 -0.49645045 -0.74528372 183 166 181
-0.16303645 -0.49634579 -0.74534225 183 166 181
-0.16338876 -0.49643323 -0.74627501 180 160 178
-0.16361465 -0.49890667 -0.74606484 183 159 179
-0.1633908 -0.49813867 -0.74562269 183 161 180
-0.16678597 -0.47877666 -0.76070666 0 0 0
-0.16683422 -0.47858164 -0.76053536 0 0 0
-0.1664792 -0.47947824 -0.76116866 0 0 0
-0.13822006 -0.45066342 -0.70444787 152 119 168
-0.13808408 -0.45040801 -0.70438176 155 125 171
-0.1378987 -0.44944775 -0.70446658 162 138 177
-0.13708752 -0.44997123 -0.70352775 163 137 177
-0.13873383 -0.45394641 -0.70426649 153 124 169
-0.13904725 -0.45483845 -0.70459247 155 131 170
-0.13891196 -0.45246267 -0.70488143 147 112 163
-0.13921249 -0.45506492 -0.70481688 155 132 170
-0.13885652 -0.45364159 -0.70453525 151 122 167
-0.1380868 -0.45141858 -0.70411617 151 117 168
-0.13807531 -0.45197865 -0.70398074 153 121 170
-0.13820367 -0.45410419 -0.70364082 158 132 174
-0.13959688 -0.45588747 -0.70549178 153 130 167
-0.13925949 -0.45620993 -0.70495033 155 131 169
-0.1392336 -0.45747668 -0.7054047 156 134 167
-0.13945121 -0.45818144 -0.70589375 155 134 164
-0.13909951 -0.45734212 -0.70521855 156 135 168
-0.13942143 -0.45802286 -0.70580304 155 134 165
-0.13750684 -0.45809788 -0.70386279 155 137 168
-0.13849901 -0.45850623 -0.70505589 157 141 167
-0.13841857 -0.4575561 -0.70460701 157 138 169
-0.13819604 -0.45813093 -0.70459527 156 139 168
-0.13840157 -0.4553678 -0.70374596 158 135 174
-0.13935326 -0.4590039 -0.7061134 155 136 163
-0.13920625 -0.46115646 -0.70701635 139 116 157
-0.13906126 -0.45961171 -0.70611697 151 133 163
-0.1388212 -0.46260425 -0.70733649 129 104 154
-0.13746421 -0.46223488 -0.70572335 146 123 162
-0.13730682 -0.46285126 -0.70585626 143 118 161
-0.1385323 -0.46086663 -0.70618504 144 124 161
-0.13798234 -0.46147081 -0.70589876 146 124 162
-0.13781016 -0.46195701 -0.70595294 144 121 161
-0.13604225 -0.46216246 -0.70419097 163 141 170
-0.13678135 -0.46212056 -0.70494896 155 132 166
-0.13607098 -0.46135262 -0.70383239 163 143 170
-0.13777708 -0.45947367 -0.70471871 158 141 167
-0.13736467 -0.45911184 -0.70411551 155 139 167
-0.13716556 -0.45923576 -0.70396662 155 138 167
-0.13522616 -0.46311855 -0.70380729 165 144 171
-0.13744695 -0.46315023 -0.70616323 140 116 160
-0.13762473 -0.46350291 -0.70654273 137 115 158
-0.1354454 -0.46884039 -0.70680666 160 136 168
-0.13522096 -0.46788868 -0.70620656 162 146 167
-0.13538699 -0.46981579 -0.70713955 159 128 170
-0.13499162 -0.4683491 -0.70616639 162 144 169
-0.1359459 -0.46797538 -0.70695031 160 138 162
-0.13478005 -0.4681237 -0.70587742 163 145 169
-0.13421308 -0.46900746 -0.7057541 166 146 173
-0.13464905 -0.46865413 -0.70598072 163 142 170
-0.1344891 -0.46910128 -0.70602667 163 140 171
-0.13428438 -0.47350892 -0.70738959 160 121 159
-0.13422228 -0.47263199 -0.70706564 161 123 164
-0.13372622 -0.47191352 -0.70640934 166 133 172
-0.13272917 -0.47361061 -0.70609844 174 147 171
-0.13376144 -0.47431505 -0.70721042 163 127 157
-0.13321167 -0.47411212 -0.7066735 169 137 164
-0.13253203 -0.47152975 -0.70527387 178 156 181
-0.13313022 -0.47199577 -0.70592725 172 143 176
-0.13153903 -0.47320935 -0.70495468 186 168 182
-0.13239054 -0.4722887 -0.70539051 179 156 180
-0.13291368 -0.47164586 -0.70563424 174 148 179
-0.13203104 -0.47272873 -0.70522255 182 161 181
-0.13219842 -0.4723815 -0.70525634 181 159 181
-0.12987302 -0.47448882 -0.70404601 183 173 173
-0.12927428 -0.47433534 -0.70355457 178 171 168
-0.13024125 -0.47218734 -0.70360059 188 181 184
-0.13145873 -0.47502902 -0.70543045 186 167 177
-0.1322826 -0.47657564 -0.70651221 180 155 171
-0.13111193 -0.47467881 -0.70504797 189 172 179
-0.13232185 -0.47721481 -0.70670074 180 156 172
-0.13162738 -0.47487178 -0.70553708 184 164 175
-0.13261324 -0.47585025 -0.70662022 176 148 168
-0.13112465 -0.47572938 -0.70532399 190 172 180
-0.13168965 -0.47773725 -0.70631093 187 162 177
-0.1314507 -0.47616935 -0.70570642 188 168 178
-0.13091844 -0.47801015 -0.7057482 195 170 182
-0.12953232 -0.47681287 -0.70441234 180 156 170
-0.12982506 -0.47821704 -0.70499307 185 157 173
-0.12828749 -0.47850668 -0.70393813 170 138 159
-0.12939553 -0.47812706 -0.70465386 181 152 169
-0.13031623 -0.47823292 -0.70535827 190 163 177
-0.12909105 -0.47828686 -0.70447165 178 148 166
-0.12820797 -0.47727641 -0.70355654 168 143 158
-0.12909229 -0.4748646 -0.70357281 176 167 165
-0.12872991 -0.47666976 -0.70378256 173 150 162
-0.13163361 -0.48011196 -0.7069239 182 158 174
-0.13146158 -0.48157042 -0.70719951 178 156 171
-0.13185665 -0.48013023 -0.70711243 180 155 172
-0.13087261 -0.48017505 -0.7063154 188 164 177
-0.13080657 -0.4798103 -0.70616132 190 165 178
-0.12975363 -0.48198554 -0.70600158 174 152 160
-0.13054557 -0.48500371 -0.70729172 184 173 178
-0.12812603 -0.48542941 -0.70576298 153 125 157
-0.12890472 -0.48605481 -0.70641959 167 147 167
-0.12896137 -0.48605874 -0.70645839 168 149 168
-0.12979545 -0.48528415 -0.70685005 175 159 172
-0.1282043 -0.48582986 -0.7059018 156 130 159
-0.12926815 -0.4826757 -0.7058391 169 147 155
-0.12928572 -0.48356855 -0.70610809 164 140 160
-0.12865978 -0.48304081 -0.70549297 164 141 150
-0.12865001 -0.48308629 -0.70549881 164 141 150
-0.12996434 -0.48256856 -0.70632416 172 150 162
-0.13012046 -0.48266569 -0.70646763 172 150 164
-0.1258589 -0.48618832 -0.70436466 140 113 141
-0.12532425 -0.48585677 -0.70389515 140 117 136
-0.12533745 -0.48598707 -0.7039417 140 116 137
-0.12659764 -0.48521337 -0.70460248 146 118 141
-0.12909786 -0.48781005 -0.7069661 171 145 166
-0.12982298 -0.48662752 -0.70716614 181 168 176
-0.12882586 -0.48816347 -0.7068693 167 137 163
-0.12807533 -0.48717219 -0.70612693 157 127 158
-0.12896559 -0.48712182 -0.70671117 169 146 167
-0.12967432 -0.48762244 -0.70730698 179 159 172
-0.12824576 -0.48922575 -0.7067343 159 119 154
-0.12737763 -0.48732188 -0.70569426 147 111 151
-0.12824248 -0.48980737 -0.7068668 161 117 152
-0.12720601 -0.4869321 -0.70548546 145 110 150
-0.12672758 -0.48677719 -0.70512563 141 106 147
-0.14924213 -0.45673472 -0.71532285 140 120 134
-0.14907929 -0.45587593 -0.71566522 129 109 126
-0.1499241 -0.45758599 -0.71550494 154 131 141
-0.15040353 -0.45986953 -0.71641988 166 140 152
-0.15068671 -0.46072647 -0.71891963 154 126 150
-0.15064172 -0.46066073 -0.71862113 155 127 150
-0.15049495 -0.46076742 -0.71809721 156 129 150
-0.1479156 -0.46230152 -0.71752006 146 125 153
-0.14688548 -0.4625046 -0.71664482 153 134 159
-0.1477564 -0.46240467 -0.71741146 148 127 154
-0.14815506 -0.46202192 -0.717637 143 120 150
-0.14889796 -0.46161357 -0.7180028 141 115 147
-0.14950216 -0.4623929 -0.71888125 144 119 148
-0.14931725 -0.46266627 -0.71892583 143 120 149
-0.14939934 -0.46046254 -0.71696347 151 124 149
-0.14897366 -0.46036035 -0.71672171 148 120 148
-0.15010136 -0.4611285 -0.718059 151 123 148
-0.1497875 -0.45949072 -0.71569198 164 138 152
-0.1486727 -0.4608779 -0.71737695 140 112 146
-0.14992881 -0.46105045 -0.71790969 150 123 148
-0.14614104 -0.46111751 -0.71539176 143 118 152
-0.14557773 -0.46280262 -0.71541756 155 136 159
-0.14802302 -0.4638637 -0.71800596 148 130 150
-0.14800893 -0.46415418 -0.71804291 147 129 148
-0.14837158 -0.46297467 -0.71817476 149 129 154
-0.14917089 -0.46348989 -0.71900117 143 122 147
-0.14870366 -0.46673036 -0.71912736 137 121 130
-0.14672393 -0.4644134 -0.71692395 149 130 149
-0.14771093 -0.46628493 -0.71815974 138 120 134
-0.14829017 -0.46642312 -0.71870011 138 122 133
-0.14672555 -0.46394473 -0.71683514 152 134 153
-0.14596926 -0.46593028 -0.71643591 140 118 138
-0.14607149 -0.46645558 -0.71664971 137 113 133
-0.14552525 -0.46627706 -0.71601343 139 116 136
-0.14569288 -0.46650535 -0.71624207 137 114 133
-0.14589006 -0.46376288 -0.71593833 153 134 155
-0.1459582 -0.46374631 -0.71600813 154 135 156
-0.14502066 -0.46551341 -0.71532017 144 122 142
-0.14848723 -0.46723813 -0.71903217 137 119 130
-0.14783715 -0.46834126 -0.71866876 137 116 132
-0.14810486 -0.46847299 -0.71893167 137 117 132
-0.14784782 -0.46990675 -0.71898073 139 116 135
-0.14710449 -0.46941647 -0.71832591 136 113 134
-0.14727925 -0.47061113 -0.71879292 137 115 136
-0.14512098 -0.46959221 -0.71657985 141 105 129
-0.14640096 -0.46742135 -0.71727467 134 110 129
-0.14518231 -0.47014421 -0.71681631 141 106 130
-0.14448355 -0.46963543 -0.71591228 144 102 127
-0.14533445 -0.47022665 -0.71700436 140 107 131
-0.14582056 -0.46893612 -0.71712393 137 108 130
-0.14437872 -0.46943006 -0.71573263 144 102 127
-0.14434633 -0.46812451 -0.71525943 141 109 131
-0.14430881 -0.46883395 -0.71545583 143 105 129
-0.14482974 -0.46845567 -0.71590304 141 106 128
-0.14763077 -0.47078282 -0.71903861 139 115 137
-0.14515822 -0.47167635 -0.71727502 143 114 130
-0.14394952 -0.4713698 -0.71588576 148 105 126
-0.14401875 -0.47115281 -0.71589035 147 104 127
-0.1439783 -0.47193956 -0.71609873 149 109 126
-0.14380637 -0.47135586 -0.7157284 149 104 126
-0.14336504 -0.4732669 -0.71586812 154 116 123
-0.14273 -0.47399223 -0.71542388 159 118 120
-0.14540145 -0.47367266 -0.71809292 146 120 136
-0.14592421 -0.47207662 -0.7181868 140 116 135
-0.14585418 -0.4724088 -0.71820694 141 117 136
-0.14597371 -0.471692 -0.71813124 139 116 135
-0.14544378 -0.47300112 -0.71795076 144 118 135
-0.14376183 -0.47440997 -0.7166211 155 121 128
-0.14455996 -0.47426784 -0.71739888 151 121 133
-0.14537315 -0.47682828 -0.7188828 155 135 152
-0.14413279 -0.47646958 -0.71752167 160 133 141
-0.14581972 -0.47576949 -0.71907705 149 129 149
-0.14515494 -0.47621903 -0.71850735 154 131 147
-0.14500415 -0.47561172 -0.71820146 153 128 143
-0.14330372 -0.47567838 -0.71647447 161 128 131
-0.14411323 -0.47562903 -0.71729225 157 128 137
-0.14376272 -0.47829482 -0.71770692 169 146 161
-0.1436429 -0.4779501 -0.71748871 169 143 157
-0.14399908 -0.47722143 -0.7176007 164 138 147
-0.14317149 -0.47781783 -0.71700466 170 143 157
-0.14307743 -0.47783318 -0.71692085 171 144 157
-0.1425647 -0.47580481 -0.71581668 165 130 135
-0.14236355 -0.47675562 -0.71590465 168 135 146
-0.14211717 -0.47763669 -0.71592575 170 140 157
-0.14445859 -0.4813695 -0.71904999 161 143 163
-0.14373997 -0.48096094 -0.71828502 165 145 164
-0.14354832 -0.47898546 -0.71767503 170 147 164
-0.14438912 -0.48002446 -0.71869206 164 145 162
-0.14291431 -0.47881448 -0.71704131 174 149 166
-0.14313076 -0.48214692 -0.71792424 167 151 172
-0.14265184 -0.48176673 -0.71737766 171 154 175
-0.14334975 -0.48125723 -0.71796322 167 148 168
-0.14318998 -0.47997639 -0.71755189 170 147 166
-0.14187716 -0.48046684 -0.71636486 172 148 169
-0.14061461 -0.48201197 -0.71544236 167 143 169
-0.14158684 -0.48156616 -0.71630031 170 148 171
-0.14169003 -0.48138562 -0.71636498 170 148 171
-0.14140821 -0.4798359 -0.71576864 170 144 168
-0.14149471 -0.48020953 -0.71593779 171 145 168
-0.14107215 -0.47900781 -0.71524805 168 139 168
-0.14292316 -0.48432779 -0.71840346 164 149 171
-0.14350949 -0.48360118 -0.71874052 162 146 168
-0.14284886 -0.48363888 -0.71810299 166 151 173
-0.14309262 -0.48569664 -0.71902186 159 145 167
-0.14261341 -0.4831048 -0.71769226 169 154 176
-0.14233188 -0.48422945 -0.71775126 167 153 174
-0.14155237 -0.4843075 -0.71693587 170 156 176
-0.14176014 -0.4840183 -0.71706682 170 156 176
-0.14182895 -0.48521534 -0.71752626 167 153 173
-0.14252219 -0.48592624 -0.71850252 163 149 170
-0.14101723 -0.48282698 -0.71601111 168 148 173
-0.14017618 -0.48383784 -0.71543074 169 150 172
-0.14037544 -0.48343867 -0.71553057 168 148 172
-0.14007735 -0.48448443 -0.71548694 170 153 174
-0.14133555 -0.48642194 -0.71737617 166 152 172
-0.14098193 -0.48651662 -0.71701902 166 153 173
-0.14179935 -0.48882118 -0.71840888 133 109 153
-0.14137366 -0.4887554 -0.71795791 139 117 159
-0.14233696 -0.48765779 -0.71872002 144 125 159
-0.14200006 -0.48917919 -0.71869457 125 98 148
-0.14210318 -0.48920804 -0.7188074 123 96 146
-0.14103222 -0.49153915 -0.71818298 120 96 136
-0.14066936 -0.49214196 -0.71792662 125 104 135
-0.14168967 -0.49145788 -0.71884602 112 86 129
-0.14144497 -0.49395174 -0.71908313 114 98 109
-0.14001867 -0.49255237 -0.71736228 128 107 138
-0.13940568 -0.49277076 -0.71683913 124 97 141
-0.1393294 -0.4930045 -0.71682751 121 92 139
-0.13965265 -0.49347499 -0.71725494 117 88 130
-0.13948208 -0.49378225 -0.71717316 113 81 128
-0.14071199 -0.4962939 -0.71898144 118 98 122
-0.14079136 -0.49469683 -0.71864665 114 93 115
-0.14035937 -0.49438512 -0.71815819 112 87 117
-0.14049238 -0.49459845 -0.71833867 113 89 117
-0.14100911 -0.4945409 -0.71881253 114 95 112
-0.13851525 -0.49456027 -0.71645999 110 71 133
-0.14003703 -0.49926129 -0.71904981 120 95 129
-0.13985291 -0.49873635 -0.71874982 118 95 131
-0.13929093 -0.50193048 -0.71893126 120 80 121
-0.13904907 -0.50261956 -0.71888047 125 85 127
-0.15868773 -0.44461218 -0.7318393 101 88 99
-0.15857027 -0.44614646 -0.73112303 97 73 104
-0.15846357 -0.44547021 -0.73109555 99 82 101
-0.15860961 -0.44471139 -0.73164028 101 88 99
-0.15919067 -0.44638544 -0.73318952 95 71 100
-0.15913676 -0.44632393 -0.73289746 95 70 101
-0.15926839 -0.44663814 -0.73370045 94 72 97
-0.15952422 -0.44443625 -0.73372185 100 78 102
-0.15918092 -0.44634619 -0.73312134 95 71 100
-0.15867601 -0.45077756 -0.73305953 90 65 96
-0.15884702 -0.44994339 -0.73315758 90 62 96
-0.15839894 -0.44908753 -0.73121995 92 64 105
-0.15859196 -0.44772992 -0.73108143 93 61 106
-0.15927365 -0.44888914 -0.73464704 91 69 90
-0.15885563 -0.44896275 -0.73266917 91 62 98
-0.15879546 -0.44780257 -0.73196781 93 63 102
-0.1590531 -0.4495123 -0.73381144 90 64 93
-0.15871376 -0.44806007 -0.73166788 92 61 103
-0.15921494 -0.44887394 -0.7343601 91 68 92
-0.15816635 -0.45005524 -0.73105693 92 67 106
-0.15918012 -0.45247272 -0.73469943 92 71 90
-0.15887362 -0.45258927 -0.73366511 94 74 96
-0.15910588 -0.45189947 -0.73455787 91 68 90
-0.1587096 -0.45142448 -0.73333389 91 68 95
-0.157562 -0.4612191 -0.73452967 123 93 126
-0.15682454 -0.46233407 -0.73428744 135 107 139
-0.15685876 -0.4618693 -0.7340374 131 104 134
-0.15658689 -0.46176058 -0.73362416 132 105 135
-0.15651289 -0.46194336 -0.73329806 137 112 139
-0.15620235 -0.4622561 -0.73201275 149 132 151
-0.15658595 -0.46286306 -0.73341846 147 126 152
-0.15653092 -0.46181029 -0.73339379 134 109 137
-0.15634426 -0.46519899 -0.7329666 155 134 160
-0.15691125 -0.46525368 -0.73451757 154 134 162
-0.15681662 -0.46567956 -0.73422146 157 139 165
-0.15697415 -0.46561283 -0.73465937 156 138 165
-0.15622167 -0.46544251 -0.73260939 157 137 161
-0.155955 -0.4656423 -0.73179299 160 142 163
-0.15610659 -0.46377274 -0.73179805 159 144 162
-0.15626179 -0.46456382 -0.73266327 154 133 158
-0.15590657 -0.46352315 -0.73092777 165 154 167
-0.15625651 -0.46378809 -0.73239577 155 137 159
-0.15636837 -0.46292168 -0.73256272 154 136 157
-0.15619944 -0.47000331 -0.73382568 153 141 153
-0.15575773 -0.47007042 -0.73238677 142 129 141
-0.15664351 -0.46899784 -0.73471427 161 149 164
-0.15569322 -0.47018746 -0.73224044 141 128 140
-0.15656506 -0.4692592 -0.7346071 160 148 162
-0.15600915 -0.46740779 -0.73209769 160 145 164
-0.15545242 -0.46997982 -0.73135972 136 123 135
-0.15626222 -0.46769264 -0.73287946 157 142 162
-0.15604234 -0.46773309 -0.7322886 157 142 161
-0.15546876 -0.46896052 -0.73109168 146 132 146
-0.1555623 -0.46761087 -0.73093402 160 144 161
-0.15588938 -0.47288457 -0.7333408 142 127 138
-0.15556766 -0.47359645 -0.73199767 130 116 123
-0.15597133 -0.47385615 -0.73420757 145 126 143
-0.15539317 -0.47422057 -0.73137748 124 109 116
-0.15564595 -0.47373632 -0.73246694 133 118 127
-0.15610111 -0.47324321 -0.73460114 150 132 149
-0.1560414 -0.47167036 -0.73365468 148 136 144
-0.15532199 -0.47140083 -0.73126233 131 117 127
-0.15572789 -0.47136897 -0.73262316 141 129 138
-0.15525346 -0.47155324 -0.73102379 128 115 124
-0.15578508 -0.47254577 -0.73274404 139 126 133
-0.15631451 -0.47571295 -0.7346195 151 131 153
-0.15683421 -0.47799924 -0.73416764 159 144 164
-0.15614879 -0.47604379 -0.7342127 151 132 152
-0.1563857 -0.47650293 -0.73430979 153 135 156
-0.15547472 -0.47721153 -0.73265046 153 135 148
-0.15551735 -0.47683537 -0.7329064 152 133 147
-0.15638496 -0.47681594 -0.734146 154 136 156
-0.15537834 -0.47578803 -0.73236871 140 122 134
-0.15549846 -0.47590277 -0.73307782 146 127 141
-0.15522145 -0.47690174 -0.73239762 151 132 143
-0.15527952 -0.47510245 -0.73133832 126 110 118
-0.15538567 -0.47533873 -0.73206699 134 116 127
-0.15484054 -0.48196292 -0.73215777 151 137 151
-0.15478681 -0.48217043 -0.73214066 151 137 151
-0.15503427 -0.47946635 -0.73177272 153 136 144
-0.15532584 -0.48069665 -0.73266435 152 135 146
-0.15448348 -0.48051283 -0.73103416 154 139 148
