ply
format ascii 1.0
comment PCL generated
element vertex 1040
property float x
property float y
property float z
property uchar red
property uchar green
property uchar blue
element camera 0
property float view_px
property float view_py
property float view_pz
property float x_axisx
property float x_axisy
property float x_axisz
property float y_axisx
property float y_axisy
property float y_axisz
property float z_axisx
property float z_axisy
property float z_axisz
property float focal
property float scalex
property float scaley
property float centerx
property float centery
property int viewportx
property int viewporty
property float k1
property float k2
end_header
-0.25117728 -0.29426691 -0.84568417 93 68 71
-0.25018579 -0.29283971 -0.84723312 93 71 73
-0.25083563 -0.29283598 -0.84647995 93 70 73
-0.24980077 -0.29471403 -0.84715706 94 69 70
-0.25035608 -0.29341617 -0.84687465 93 70 72
-0.25120205 -0.29431906 -0.84564084 93 68 71
-0.24998705 -0.29384494 -0.84718335 94 70 71
-0.25115487 -0.29107541 -0.84655339 91 73 76
-0.25081226 -0.29154608 -0.84684283 92 72 76
-0.25178486 -0.29453453 -0.84490293 93 67 70
-0.25191644 -0.29184431 -0.84544069 90 71 75
-0.25208101 -0.2950016 -0.84442008 93 67 70
-0.24953201 -0.29495826 -0.847399 94 69 70
-0.25148129 -0.29596773 -0.84480196 94 68 72
-0.25125235 -0.2954962 -0.8452239 94 68 71
-0.24963391 -0.29596317 -0.84695649 94 69 70
-0.25088441 -0.29607013 -0.84546387 94 69 71
-0.24890628 -0.29774308 -0.84723651 94 69 69
-0.24934737 -0.29747069 -0.84680909 94 69 70
-0.24935362 -0.29702187 -0.84694517 94 69 70
-0.24945909 -0.29693949 -0.84684849 94 69 70
-0.25045612 -0.29764971 -0.84545624 95 70 72
-0.24967319 -0.29833165 -0.84615028 95 70 71
-0.25180057 -0.29640564 -0.84428817 94 69 72
-0.24983396 -0.29769495 -0.8461687 94 69 71
-0.25097549 -0.29849815 -0.84457451 97 72 74
-0.24992059 -0.29881719 -0.84570634 95 70 72
-0.25077927 -0.29918483 -0.84460104 97 72 74
-0.24933165 -0.29992399 -0.84609485 95 71 73
-0.24806052 -0.29987207 -0.84759676 93 69 71
-0.2490214 -0.29923114 -0.84664607 94 70 71
-0.24845679 -0.30120191 -0.84677207 95 71 74
-0.24820024 -0.30053863 -0.84725237 94 70 72
-0.24977469 -0.30163085 -0.84518695 98 75 78
-0.24934776 -0.30129695 -0.84571427 97 73 76
-0.25007987 -0.30078706 -0.84502387 98 74 76
-0.25003365 -0.30209607 -0.84481525 100 78 79
-0.25046134 -0.30025896 -0.84471595 98 74 76
-0.24719886 -0.30223823 -0.8479386 94 70 72
-0.24772786 -0.30071181 -0.84775251 93 70 71
-0.24883543 -0.30376738 -0.84569627 99 77 79
-0.24852332 -0.30365232 -0.84606558 98 76 78
-0.2493443 -0.30301696 -0.84535533 100 78 79
-0.24829003 -0.3046985 -0.8460263 99 76 78
-0.24812719 -0.30623081 -0.84577554 100 78 79
-0.24957691 -0.30528674 -0.84451073 103 82 82
-0.24958135 -0.30661047 -0.8441869 105 83 84
-0.24950491 -0.30651715 -0.84428751 105 83 84
-0.24674118 -0.30586573 -0.84736711 97 75 77
-0.2465609 -0.30499992 -0.84781808 96 74 75
-0.24733086 -0.30528653 -0.84691453 97 75 77
-0.24699514 -0.30412734 -0.84761852 95 73 74
-0.24754229 -0.30450767 -0.84691763 97 74 76
-0.24764474 -0.30495036 -0.84667748 98 75 77
-0.2490724 -0.30792978 -0.84429789 108 85 86
-0.2483099 -0.30715051 -0.8453204 103 81 82
-0.2482277 -0.30725372 -0.84537226 103 81 82
-0.24924313 -0.30780688 -0.84417421 108 85 86
-0.24609521 -0.30878061 -0.84708554 105 81 83
-0.24553953 -0.3096942 -0.84731656 109 83 84
-0.246286 -0.30783013 -0.84722942 101 79 80
-0.24683614 -0.30983722 -0.84598011 110 85 86
-0.2458794 -0.30998045 -0.84687907 110 84 86
-0.24522227 -0.30996227 -0.8475374 110 83 85
-0.24685171 -0.31051183 -0.84572816 112 87 88
-0.24679935 -0.30810645 -0.84661591 103 81 82
-0.24731259 -0.30909163 -0.84576368 107 84 85
-0.24726819 -0.30691159 -0.84649062 100 78 79
-0.247971 -0.30815193 -0.84535754 105 82 83
-0.24616255 -0.31056571 -0.84639484 113 86 87
-0.24499442 -0.31145576 -0.84730208 114 88 87
-0.24560674 -0.31186622 -0.84658486 115 90 88
-0.24483351 -0.31218383 -0.84725595 116 90 88
-0.24505305 -0.31258413 -0.84693158 116 92 90
-0.2443583 -0.31264445 -0.84757352 116 91 88
-0.24408458 -0.31231087 -0.84794074 115 90 86
-0.24162401 -0.26969418 -0.87044996 90 70 67
-0.24162176 -0.27129197 -0.8694821 92 77 76
-0.24131516 -0.27069664 -0.87063646 89 74 70
-0.24184883 -0.27057627 -0.86933208 92 75 74
-0.24190696 -0.26970622 -0.86971217 91 71 69
-0.24209675 -0.27104896 -0.86840397 94 78 79
-0.24290662 -0.26822332 -0.8679173 90 68 59
-0.24233508 -0.26773006 -0.86974728 89 64 56
-0.24207132 -0.2686829 -0.86989182 90 67 63
-0.242405 -0.26994658 -0.86824483 93 74 72
-0.24215388 -0.26975548 -0.86903375 92 72 71
-0.2422265 -0.26775002 -0.87002754 89 64 56
-0.24034598 -0.27436623 -0.87100208 81 63 65
-0.2411955 -0.27488023 -0.8687073 84 67 74
-0.24074946 -0.27456617 -0.86993825 83 65 69
-0.24121554 -0.27475899 -0.86872524 84 68 74
-0.24089512 -0.2735123 -0.87016219 85 70 71
-0.24106093 -0.27396366 -0.86952353 85 69 72
-0.24122365 -0.27317929 -0.86954153 87 73 74
-0.24150302 -0.27447152 -0.86817139 86 71 77
-0.24156988 -0.27372169 -0.86837536 88 73 77
-0.24159315 -0.2744382 -0.86795545 86 71 78
-0.24174552 -0.27148706 -0.86904413 92 79 78
-0.24159706 -0.27462342 -0.86785233 86 71 78
-0.24021506 -0.27514696 -0.87088734 80 59 63
-0.24046725 -0.2755847 -0.87007093 80 60 65
-0.24051686 -0.27547327 -0.87000602 80 60 66
-0.24141659 -0.27586344 -0.86768401 83 66 73
-0.26788747 -0.27842981 -0.832165 127 99 109
-0.2688809 -0.27932954 -0.83152032 128 99 108
-0.26726893 -0.28226161 -0.83238459 133 109 114
-0.26886663 -0.29379925 -0.83076602 128 103 113
-0.26806194 -0.29440847 -0.83121568 125 99 106
-0.26841488 -0.29459921 -0.83099645 126 99 107
-0.26817194 -0.29465088 -0.83113855 125 98 106
-0.26777744 -0.29420757 -0.83139467 125 98 106
-0.26796973 -0.29395553 -0.83129233 125 99 108
-0.26890099 -0.29322159 -0.83077335 128 105 116
-0.27091378 -0.29412147 -0.8295365 132 109 120
-0.27137929 -0.29408392 -0.82927114 132 109 120
-0.27104092 -0.29267198 -0.82956165 132 108 121
-0.2702457 -0.29227284 -0.83004642 131 108 121
-0.2693961 -0.29168352 -0.83057541 130 107 121
-0.27012399 -0.29190555 -0.83014137 131 107 121
-0.26927829 -0.29270098 -0.8305741 130 107 121
-0.26667923 -0.29374787 -0.83211476 125 100 108
-0.26661232 -0.29311621 -0.83219397 126 103 112
-0.26609084 -0.29487631 -0.83241975 123 95 100
-0.26705465 -0.29115051 -0.83200955 128 108 123
-0.26710036 -0.29230121 -0.83192372 127 105 117
-0.2715168 -0.2957308 -0.82903248 133 109 119
-0.26803374 -0.29826984 -0.83081633 125 102 105
-0.26766098 -0.29678369 -0.83121407 124 99 103
-0.26866722 -0.2977336 -0.83049303 126 101 106
-0.26789963 -0.29856631 -0.83086371 124 102 105
-0.26833835 -0.29735419 -0.8307367 125 100 105
-0.27066961 -0.29810336 -0.82923347 131 104 112
-0.27021259 -0.29526162 -0.82986742 130 105 113
-0.27144277 -0.29551035 -0.82910341 133 109 119
-0.27090323 -0.29723993 -0.82920361 132 105 114
-0.26831213 -0.29507405 -0.83102262 125 98 105
-0.26968044 -0.29673642 -0.82999575 129 101 109
-0.26844454 -0.29516909 -0.83093166 126 98 105
-0.26697841 -0.29804838 -0.83150041 123 100 103
-0.26580617 -0.29781619 -0.83227867 121 97 100
-0.26716188 -0.29789674 -0.83139944 123 100 103
-0.26704329 -0.29667625 -0.8316142 123 98 102
-0.26698142 -0.2951929 -0.83182406 123 96 101
-0.27136755 -0.30046508 -0.82856917 133 107 115
-0.26942259 -0.30227289 -0.82954866 125 101 109
-0.26964039 -0.30157179 -0.82948613 126 101 109
-0.27011546 -0.30241641 -0.82912534 127 104 111
-0.27140412 -0.29944468 -0.82864398 133 106 115
-0.27020368 -0.3008793 -0.82921833 129 103 111
-0.26839173 -0.3001056 -0.83039278 124 101 106
-0.2692363 -0.30105019 -0.8297748 125 99 107
-0.26836824 -0.30073753 -0.83033705 123 99 105
-0.26920256 -0.2996183 -0.82995403 127 102 108
-0.26877347 -0.29939014 -0.83024013 126 102 107
-0.27046588 -0.29929852 -0.82922167 130 104 112
-0.26484597 -0.30228722 -0.83241373 116 92 99
-0.26630434 -0.30215406 -0.83148342 118 94 100
-0.26530033 -0.30126947 -0.83222902 118 94 99
-0.26731491 -0.30270854 -0.83076918 118 94 101
-0.26531076 -0.30196238 -0.83214766 117 93 99
-0.26699293 -0.29987741 -0.83128822 121 99 102
-0.26754591 -0.29969335 -0.83095372 122 101 104
-0.26703137 -0.30158162 -0.83107466 119 95 101
-0.26850981 -0.30368978 -0.82996762 120 96 104
-0.26861021 -0.30372885 -0.82990509 120 96 104
-0.27086061 -0.30273578 -0.82865447 130 108 115
-0.27039179 -0.30284461 -0.82892293 128 105 113
-0.26836991 -0.30543104 -0.8299095 117 90 101
-0.26832351 -0.30510512 -0.82996333 117 91 101
-0.26874927 -0.30627787 -0.82961249 117 91 100
-0.26899624 -0.30656004 -0.82944119 118 92 100
-0.27025715 -0.30508524 -0.82881504 124 101 107
-0.26823524 -0.30594823 -0.82994717 116 88 99
-0.26578328 -0.30529827 -0.83157688 113 86 95
-0.26545858 -0.30601293 -0.83175564 111 84 93
-0.26530719 -0.30661401 -0.83182329 110 83 91
-0.26523089 -0.30515423 -0.83196032 112 86 94
-0.26491657 -0.30386573 -0.83224899 114 89 96
-0.265495 -0.30406654 -0.83184451 114 89 97
-0.26685965 -0.30297551 -0.83104181 117 93 100
-0.26733902 -0.30306143 -0.83072436 118 93 101
-0.26707232 -0.3048678 -0.830751 115 88 98
-0.26674876 -0.30379984 -0.831047 116 91 99
-0.26819643 -0.30863822 -0.82974654 115 88 92
-0.26974609 -0.30693856 -0.8289625 121 96 101
-0.26905426 -0.30702573 -0.82936794 118 92 99
-0.2678721 -0.30855945 -0.82994652 114 86 91
-0.26812455 -0.30723551 -0.82990509 115 87 95
-0.26936942 -0.31041825 -0.82896191 116 88 90
-0.2684274 -0.30986708 -0.82951969 116 88 89
-0.26962355 -0.30872008 -0.82891285 119 93 96
-0.26971477 -0.30826837 -0.82888651 120 94 97
-0.26640564 -0.309582 -0.83083051 112 84 86
-0.26435968 -0.30912858 -0.83224392 110 84 88
-0.26468161 -0.31046993 -0.83190894 111 84 87
-0.26443467 -0.30972117 -0.8321411 111 84 88
-0.26639536 -0.30934533 -0.83085835 112 84 86
-0.26463363 -0.30755514 -0.83219957 110 83 89
-0.26604086 -0.30815336 -0.83119893 111 83 88
-0.26704812 -0.30689201 -0.8306191 112 83 94
-0.26741523 -0.30817127 -0.83026439 113 84 91
-0.2672835 -0.30855897 -0.83032179 113 84 90
-0.2665399 -0.30696091 -0.83095849 112 83 93
-0.26967099 -0.31064257 -0.82878065 117 88 91
-0.26817468 -0.31120354 -0.82958788 117 88 89
-0.26761487 -0.31117651 -0.82990289 116 87 88
-0.26514745 -0.31060165 -0.8315804 112 85 87
-0.26385343 -0.31255856 -0.83212382 119 91 91
-0.26408845 -0.31141609 -0.83215588 114 87 89
-0.26588285 -0.31109768 -0.83100438 114 86 87
-0.26539531 -0.31119561 -0.83131534 114 86 87
-0.2639446 -0.3111183 -0.83230191 113 86 88
-0.24756368 -0.26682729 -0.85740083 102 76 67
-0.24691395 -0.26745072 -0.85856038 103 79 68
-0.24643034 -0.26742876 -0.85958803 101 77 66
-0.24642813 -0.26737127 -0.85961211 101 76 66
-0.24815013 -0.26762664 -0.85591638 108 84 72
-0.24742876 -0.26777622 -0.85736609 106 82 71
-0.24801122 -0.26763886 -0.85618252 108 84 72
-0.2472249 -0.27035835 -0.8569572 102 82 77
-0.24692123 -0.26851186 -0.85819763 103 80 71
-0.24681897 -0.26841488 -0.85844499 102 80 70
-0.2475595 -0.27112237 -0.85600275 103 83 80
-0.24687049 -0.26910883 -0.85811108 102 80 73
-0.24711175 -0.27022934 -0.85722995 102 82 77
-0.24607733 -0.27130279 -0.85887665 102 84 84
-0.24625339 -0.26887348 -0.85942417 102 80 73
-0.24700281 -0.27138227 -0.8570202 102 84 82
-0.24641317 -0.26912573 -0.85901576 102 80 73
-0.24659216 -0.26907951 -0.85867935 102 80 73
-0.24502462 -0.27506268 -0.85976195 101 82 85
-0.24533859 -0.27490515 -0.8592459 101 82 86
-0.24653824 -0.27449578 -0.8572194 103 84 89
-0.24526201 -0.2742599 -0.85956651 101 83 85
-0.24564613 -0.27171078 -0.85960644 102 84 87
-0.24589871 -0.2725243 -0.85892349 102 84 87
-0.24558218 -0.27487263 -0.85882002 101 83 86
-0.24698946 -0.27415076 -0.85644984 103 84 88
-0.24635768 -0.27298042 -0.85794252 102 84 88
-0.24622235 -0.27193022 -0.85842991 102 84 86
-0.24738647 -0.27307755 -0.85589105 103 84 85
-0.24657093 -0.27177763 -0.85777372 102 84 85
-0.24701169 -0.2741943 -0.85639679 103 84 88
-0.24548624 -0.27878496 -0.85790455 102 83 85
-0.24560717 -0.27751264 -0.8580212 103 83 87
-0.24609935 -0.27907369 -0.85669428 104 84 89
-0.24506243 -0.2773762 -0.85906446 101 82 84
-0.2459524 -0.27908012 -0.85696411 104 84 88
-0.24526098 -0.27650511 -0.85893035 101 82 86
-0.24667808 -0.2770631 -0.85622668 104 85 90
-0.24583404 -0.27719191 -0.85769689 103 84 88
-0.24590358 -0.27567753 -0.85801458 102 83 87
-0.24588768 -0.27592933 -0.85796952 102 83 87
-0.24642086 -0.27795961 -0.85642451 104 85 90
-0.24655329 -0.27734452 -0.85636747 104 85 90
-0.2448276 -0.28040582 -0.8586657 98 77 79
-0.24448411 -0.28140512 -0.85897136 94 71 75
-0.24424098 -0.28221929 -0.85915458 91 66 73
-0.24524933 -0.28216335 -0.85736603 96 73 78
-0.24477391 -0.28257567 -0.8580898 93 68 75
-0.24462818 -0.27968857 -0.85924089 99 79 79
-0.2459584 -0.2818051 -0.85617352 99 77 83
-0.24586557 -0.28264871 -0.85610241 97 74 80
-0.24503638 -0.27972898 -0.85847485 100 80 81
-0.245884 -0.28272754 -0.85604566 96 74 80
-0.24524732 -0.28129932 -0.85763323 98 76 79
-0.24399583 -0.28237846 -0.85959917 90 64 70
-0.244812 -0.28488615 -0.85723174 91 65 73
-0.24523871 -0.28343377 -0.8569814 93 68 76
-0.24444726 -0.28539145 -0.85770613 89 62 70
-0.24423791 -0.28511351 -0.85817945 88 61 70
-0.2445289 -0.28391671 -0.85808176 90 64 72
-0.24538492 -0.28594401 -0.85595095 92 67 74
-0.24491936 -0.28553253 -0.85682142 91 65 73
-0.24490331 -0.28635916 -0.85661757 90 64 72
-0.24375775 -0.28393427 -0.85955262 86 59 67
-0.24352624 -0.28701597 -0.85881394 85 56 63
-0.24371515 -0.28680843 -0.85854459 86 57 65
-0.24388117 -0.28398362 -0.85930151 87 60 68
-0.24423368 -0.28822762 -0.85705215 88 62 67
-0.24424547 -0.28958613 -0.85649335 88 65 65
-0.24465807 -0.28836402 -0.8563087 89 65 69
-0.24370678 -0.28761852 -0.858244 86 58 64
-0.24326271 -0.28790227 -0.85894883 84 57 61
-0.2439366 -0.29142153 -0.85631347 87 65 63
-0.24404743 -0.29191834 -0.85591769 87 65 64
-0.24028952 -0.29836768 -0.85899323 94 72 72
-0.24123341 -0.29833469 -0.85758692 91 69 69
-0.24134164 -0.29836994 -0.8574053 91 69 69
-0.24251109 -0.29774424 -0.85588819 88 66 67
-0.24026334 -0.29960048 -0.85838956 96 76 77
-0.24049599 -0.29966721 -0.85800695 95 75 76
-0.24066015 -0.30056572 -0.85731226 95 74 76
-0.24149421 -0.29929209 -0.85669583 92 72 72
-0.24043968 -0.30097604 -0.85743845 96 75 77
-0.24131718 -0.30104831 -0.85608906 93 70 73
-0.24063291 -0.30216405 -0.85655743 96 73 76
-0.23902456 -0.30166778 -0.85947347 99 80 83
-0.23924719 -0.30053616 -0.85969609 98 79 81
-0.24007931 -0.3019509 -0.85754484 97 75 78
-0.23939103 -0.30059299 -0.8594234 98 79 80
-0.23871948 -0.30214751 -0.85973448 100 82 86
-0.23980281 -0.29894254 -0.85959011 96 77 76
-0.24060595 -0.30347073 -0.8559646 96 72 76
-0.23986511 -0.30273616 -0.85749114 98 76 80
-0.23920408 -0.30312908 -0.85841775 99 79 84
-0.23949033 -0.30364466 -0.85768777 99 78 84
-0.2391198 -0.30364373 -0.8583104 100 80 86
-0.23900709 -0.30377498 -0.85843313 100 80 86
-0.2398188 -0.30449083 -0.85672551 99 77 83
-0.23873486 -0.3051703 -0.85816073 99 79 86
-0.23880331 -0.30477732 -0.85825384 99 80 86
-0.23882383 -0.30579579 -0.8576957 98 78 85
-0.23854391 -0.30593181 -0.85807359 98 78 84
-0.23881735 -0.30547449 -0.85787183 99 79 85
-0.23896164 -0.30596012 -0.8573904 99 78 85
-0.23866908 -0.3062245 -0.85772228 98 77 84
-0.23672055 -0.30798134 -0.85972232 92 69 73
-0.23733713 -0.30880839 -0.85839349 93 68 74
-0.23799406 -0.30915412 -0.85730922 94 68 75
-0.23679259 -0.30874223 -0.85916346 91 67 72
-0.23878217 -0.30878276 -0.85624611 96 70 78
-0.23792954 -0.30749717 -0.85825926 95 73 80
-0.23813371 -0.30686066 -0.85825354 96 76 82
-0.23826249 -0.30724615 -0.857853 96 74 81
-0.23777008 -0.30779043 -0.85836661 95 72 79
-0.23845492 -0.31004331 -0.856134 94 66 74
-0.2388216 -0.3072691 -0.85694653 97 75 83
-0.24614042 -0.26740691 -0.8602879 100 76 64
-0.24584584 -0.26732293 -0.86105132 98 75 62
-0.24542087 -0.26670903 -0.86236441 94 69 56
-0.24579567 -0.26690173 -0.86135626 96 71 60
-0.24445176 -0.26925716 -0.86351949 97 79 67
-0.24455768 -0.27135333 -0.8622368 101 84 85
-0.24503976 -0.26987061 -0.86184639 98 81 73
-0.2445527 -0.2710318 -0.86240667 100 83 82
-0.24478339 -0.27034432 -0.86220902 99 82 77
-0.24460021 -0.26954031 -0.86303067 98 80 70
-0.2451659 -0.27085087 -0.86107051 100 83 81
-0.24577817 -0.26867408 -0.86060369 100 79 70
-0.24547105 -0.2693125 -0.86106777 99 80 71
-0.24571186 -0.26940006 -0.8604328 100 80 74
-0.24582693 -0.26976937 -0.85997856 101 81 77
-0.24513394 -0.26861253 -0.86222267 97 78 64
-0.24558979 -0.26923099 -0.86081213 100 80 72
-0.244753 -0.27158457 -0.86167157 101 84 86
-0.24417569 -0.2745243 -0.86164254 98 81 82
-0.24514426 -0.27247033 -0.86034906 100 83 85
-0.24435164 -0.27356437 -0.86168122 99 82 84
-0.24449576 -0.27204955 -0.86205262 100 84 85
-0.24474676 -0.27153233 -0.86171043 101 84 86
-0.24522761 -0.27265325 -0.86010122 101 83 85
-0.24497201 -0.27330497 -0.86038536 100 83 84
-0.24352834 -0.27480733 -0.86299682 95 79 81
-0.24366282 -0.27315456 -0.86348158 97 81 83
-0.24335526 -0.27457592 -0.86350274 94 78 81
-0.24411198 -0.2744844 -0.8618148 98 81 82
-0.24443012 -0.27751783 -0.86019909 99 80 79
-0.24447434 -0.2761451 -0.86048949 99 81 82
-0.24427876 -0.27900746 -0.86007869 99 79 77
-0.24269421 -0.27897918 -0.86345845 89 71 66
-0.2431114 -0.27926192 -0.86247641 91 73 68
-0.24317615 -0.27646774 -0.8631984 93 76 78
-0.24372275 -0.27776757 -0.86162543 96 78 77
-0.2433573 -0.27848077 -0.86218959 93 75 73
-0.24389382 -0.27657586 -0.861561 97 79 79
-0.24353649 -0.27664143 -0.86235869 95 78 79
-0.24365576 -0.2769877 -0.86199236 96 78 79
-0.24422964 -0.28030288 -0.85978365 96 74 75
-0.24286433 -0.27943483 -0.86295336 89 71 67
-0.24373996 -0.27966404 -0.86100471 95 75 72
-0.24312784 -0.28038982 -0.86208719 89 68 67
-0.24386182 -0.28247455 -0.85985219 89 63 69
-0.24380681 -0.28269681 -0.85989767 88 62 68
-0.24350104 -0.28273457 -0.86051071 86 60 66
-0.24256748 -0.28054833 -0.86316013 86 65 63
-0.24270028 -0.28043079 -0.86294621 86 66 64
-0.24340811 -0.28266576 -0.86071783 86 60 66
-0.24334557 -0.28414333 -0.86025935 85 57 64
-0.23986158 -0.29818773 -0.85991824 93 71 69
-0.23897831 -0.29787484 -0.86189586 91 67 62
-0.2388925 -0.29834524 -0.86176819 94 72 66
-0.23848842 -0.29833388 -0.86258274 94 71 64
-0.23862037 -0.29794729 -0.86256492 91 67 61
-0.23802768 -0.30135557 -0.86157829 99 80 79
-0.23767117 -0.30074435 -0.86264354 99 79 75
-0.23748648 -0.30160823 -0.86242914 99 80 78
-0.23799273 -0.30051479 -0.86218953 99 79 75
-0.23831025 -0.3016786 -0.86083871 100 81 82
-0.23655756 -0.30252364 -0.86357683 99 81 79
-0.23846318 -0.30225301 -0.8601746 100 82 85
-0.23927753 -0.29919156 -0.86046433 97 78 75
-0.23879434 -0.30121166 -0.860165 99 80 82
-0.23918311 -0.29933131 -0.86056554 97 78 75
-0.23823094 -0.30030674 -0.86185724 99 79 75
-0.23890918 -0.2990984 -0.86125869 97 77 73
-0.23634696 -0.30577752 -0.86178684 93 76 76
-0.23669593 -0.3045136 -0.86207283 97 79 79
-0.23688322 -0.30619338 -0.86065853 94 76 79
-0.23695621 -0.30385277 -0.86201674 98 80 81
-0.23688711 -0.3029221 -0.86270869 99 81 81
-0.23654796 -0.30294764 -0.86332923 99 81 80
-0.23721749 -0.30474627 -0.86098689 97 79 81
-0.23725055 -0.30506966 -0.86072952 97 78 81
-0.23713121 -0.30548802 -0.86070049 96 77 81
-0.23589234 -0.30493549 -0.86316586 93 74 73
-0.23616682 -0.30471715 -0.86281902 95 77 76
-0.23631912 -0.30599952 -0.86168724 93 76 75
-0.23581855 -0.30446962 -0.86361021 94 75 74
-0.23660879 -0.30773631 -0.8600595 92 70 73
-0.23599933 -0.30761209 -0.86117899 90 68 70
-0.26475832 -0.26888371 -0.83506292 128 98 106
-0.26358593 -0.27143785 -0.83555579 128 100 104
-0.26346239 -0.27079672 -0.83575922 126 97 102
-0.26654547 -0.27532178 -0.83321828 127 99 106
-0.26414669 -0.27301785 -0.83504415 127 100 104
-0.26521814 -0.27496383 -0.83417624 126 99 105
-0.26484907 -0.27270427 -0.83456594 128 100 105
-0.26629952 -0.27438107 -0.83344573 127 100 106
-0.26388338 -0.27535492 -0.83509678 124 99 103
-0.26508296 -0.27519137 -0.83425874 125 99 104
-0.26292381 -0.27370104 -0.83602685 123 97 102
-0.26277071 -0.27348793 -0.83617675 123 97 102
-0.2627075 -0.27347043 -0.8362332 123 97 102
-0.26342428 -0.2730341 -0.83561659 125 98 103
-0.2635037 -0.27420834 -0.83547318 124 98 102
-0.26485199 -0.27902651 -0.8342514 113 89 100
-0.26684165 -0.27788311 -0.83290303 123 95 104
-0.26493117 -0.27876434 -0.83420616 114 90 100
-0.26664707 -0.27900413 -0.83299553 121 93 103
-0.26744342 -0.2766183 -0.83253115 126 98 106
-0.26704249 -0.27723157 -0.83278787 124 96 105
-0.26678398 -0.2767328 -0.83298844 123 96 105
-0.26595473 -0.27566081 -0.83361936 125 98 105
-0.26372674 -0.27540025 -0.8352049 124 98 103
-0.26455277 -0.27739 -0.83453125 117 93 101
-0.26615798 -0.27569783 -0.83347416 125 98 105
-0.26514584 -0.27664417 -0.8341462 120 95 103
-0.26541293 -0.27696702 -0.83394289 119 94 103
-0.26403162 -0.27776864 -0.8348822 115 91 100
-0.26249039 -0.27651107 -0.83620393 119 95 101
-0.2623103 -0.2784853 -0.83622122 114 89 99
-0.26315865 -0.27850041 -0.83553404 112 89 99
-0.26351222 -0.27570051 -0.83536911 122 97 102
-0.26304635 -0.2768054 -0.83572465 118 94 101
-0.26392689 -0.28240898 -0.83465111 129 109 109
-0.26605776 -0.27964687 -0.83336997 120 94 103
-0.26375169 -0.27968761 -0.83498138 111 89 99
-0.26521114 -0.28103182 -0.83385706 125 102 107
-0.26601872 -0.27966321 -0.83339608 120 94 103
-0.26530546 -0.27975741 -0.83388823 118 93 102
-0.26573727 -0.28009376 -0.83356035 122 97 104
-0.26514208 -0.28187606 -0.83384538 130 108 109
-0.26477817 -0.28291529 -0.83403569 133 113 112
-0.26709145 -0.28038144 -0.83260632 127 100 107
-0.26714805 -0.28270113 -0.83244294 135 111 115
-0.26615545 -0.28261703 -0.83311939 133 111 113
-0.2631574 -0.2830489 -0.83520287 131 112 110
-0.26214573 -0.27984232 -0.83626235 114 91 100
-0.26215547 -0.28226212 -0.83608222 126 104 105
-0.2631214 -0.28074297 -0.83540201 118 97 103
-0.26352718 -0.28265634 -0.83492786 129 111 110
-0.26251388 -0.28356135 -0.83569819 133 113 111
-0.26438215 -0.29339075 -0.83362156 126 103 113
-0.26372108 -0.29484752 -0.833947 122 93 103
-0.26515117 -0.29450116 -0.83304703 123 96 104
-0.26459289 -0.29421294 -0.83342361 123 96 106
-0.26528713 -0.29274923 -0.83306432 126 104 115
-0.26403046 -0.29491007 -0.83374399 122 93 102
-0.26162553 -0.29458198 -0.83535457 122 99 108
-0.2619029 -0.29412672 -0.83521998 125 103 110
-0.26190466 -0.29325533 -0.83531016 131 110 115
-0.26056534 -0.29462093 -0.83604717 120 101 110
-0.26217598 -0.29351518 -0.83510464 130 107 113
-0.26055416 -0.29370594 -0.83615047 127 109 115
-0.26358655 -0.29448122 -0.83406973 124 97 106
-0.26275095 -0.29202762 -0.83484852 136 121 124
-0.26316789 -0.29320192 -0.83446413 130 109 116
-0.26270521 -0.29120228 -0.83494955 139 128 131
-0.26257277 -0.29230961 -0.83494663 135 118 122
-0.2647396 -0.29693887 -0.83306885 120 94 98
-0.26466414 -0.29566446 -0.83325517 121 94 100
-0.26464406 -0.29687399 -0.83313739 120 94 98
-0.26543191 -0.29538038 -0.83279163 122 94 99
-0.26402646 -0.2984156 -0.83336765 119 94 96
-0.26514044 -0.29869097 -0.83261156 120 96 99
-0.26419756 -0.2981295 -0.83328849 119 94 96
-0.25990039 -0.29850009 -0.83626264 114 90 96
-0.2602829 -0.29762653 -0.83603859 115 92 99
-0.26137781 -0.29880923 -0.83519065 116 91 95
-0.26037416 -0.29874599 -0.83591062 114 89 95
-0.2607148 -0.29624844 -0.83580762 117 97 105
-0.26010227 -0.29802662 -0.8361451 115 91 98
-0.26134604 -0.29637119 -0.83535016 118 97 104
-0.26133814 -0.29618177 -0.83537167 118 97 105
-0.26128629 -0.29542461 -0.83548754 118 97 106
-0.26243815 -0.29597116 -0.8346715 119 95 103
-0.26271135 -0.29724514 -0.83435434 119 95 100
-0.26281595 -0.29498854 -0.83452934 120 94 104
-0.26444626 -0.30072337 -0.83284664 118 93 98
-0.26370451 -0.30161944 -0.83323419 116 91 96
-0.26462418 -0.30042082 -0.83276296 118 94 98
-0.26446831 -0.3025001 -0.8326388 116 91 98
-0.26472569 -0.301842 -0.83254141 117 92 98
-0.26185009 -0.29954287 -0.83479339 116 91 95
-0.25999048 -0.30141884 -0.83596557 113 89 93
-0.2625784 -0.29914618 -0.8343063 117 92 95
-0.25988469 -0.30055407 -0.83611262 113 89 94
-0.26043072 -0.30098957 -0.83568686 114 90 94
-0.25978121 -0.29996517 -0.83623523 113 89 94
-0.2631709 -0.29997274 -0.8337999 117 92 95
-0.26234284 -0.3012706 -0.8342725 116 91 95
-0.26367065 -0.29994103 -0.8334347 118 93 96
-0.26072803 -0.30223179 -0.835361 114 90 93
-0.26167554 -0.30187047 -0.83470076 115 91 94
-0.26327798 -0.30093518 -0.83361864 117 92 96
-0.26208511 -0.30090311 -0.83450162 116 91 94
-0.26377681 -0.30386347 -0.8330065 113 88 94
-0.2643657 -0.30420247 -0.83260047 113 88 95
-0.26143283 -0.30541804 -0.83456123 108 83 88
-0.2615428 -0.30525386 -0.8345108 109 84 89
-0.26043952 -0.30389452 -0.83541864 110 87 91
-0.26028666 -0.30456433 -0.83542973 108 84 89
-0.2613222 -0.30606988 -0.83454698 106 80 86
-0.26005462 -0.30508769 -0.83551258 106 82 87
-0.26328993 -0.30518427 -0.83328515 111 85 91
-0.26272932 -0.30458114 -0.83373135 111 86 92
-0.2624301 -0.30322665 -0.8340258 114 89 94
-0.26275998 -0.30300963 -0.83379441 114 90 95
-0.26316506 -0.30546865 -0.83336169 110 85 90
-0.26353365 -0.30569625 -0.83307749 110 84 90
-0.25964752 -0.30566144 -0.83571267 104 79 85
-0.25970134 -0.30594304 -0.83563507 103 78 84
-0.26369256 -0.30827606 -0.83276373 109 83 88
-0.26435319 -0.30709273 -0.83242857 110 83 89
-0.26076317 -0.30801499 -0.83472556 104 78 82
-0.26015699 -0.30898911 -0.83507937 103 75 73
-0.26094455 -0.30986944 -0.83448458 105 77 74
-0.26160622 -0.30935258 -0.83406401 106 79 81
-0.26036948 -0.30804044 -0.83499354 103 76 79
-0.26009732 -0.30962387 -0.83508021 104 75 70
-0.26028717 -0.3090851 -0.83498418 104 76 74
-0.26178312 -0.30858886 -0.83399278 106 80 85
-0.262707 -0.30734554 -0.83349603 107 81 87
-0.26172215 -0.30836251 -0.83405316 106 80 85
-0.26090676 -0.30705371 -0.83470714 104 78 84
-0.26126245 -0.30727941 -0.83445281 105 79 85
-0.2602835 -0.30676353 -0.83514339 102 76 83
-0.25901529 -0.31048027 -0.83577472 103 74 66
-0.25899774 -0.3088856 -0.83594191 102 74 73
-0.25932249 -0.3082931 -0.83575636 101 74 74
-0.25911814 -0.3067562 -0.83602154 100 75 82
-0.26229835 -0.31280771 -0.8331629 116 88 88
-0.26239076 -0.31247371 -0.83315545 115 87 88
-0.26346096 -0.31225714 -0.83243692 117 89 90
-0.2618871 -0.31269026 -0.83347219 114 87 87
-0.25978893 -0.31143185 -0.83510149 106 77 68
-0.26028699 -0.3124218 -0.83461291 110 81 77
-0.26076645 -0.31149459 -0.83442271 108 79 75
-0.2615729 -0.31080583 -0.83397299 108 79 76
-0.26198223 -0.31207418 -0.83350366 112 85 85
-0.2606006 -0.31286016 -0.83433276 112 84 81
-0.26037672 -0.31283969 -0.83448917 112 83 80
-0.25843555 -0.31310397 -0.83583409 111 82 80
-0.25909391 -0.31423324 -0.83519846 115 86 85
-0.25799406 -0.31215736 -0.83628416 108 79 77
-0.25913072 -0.31294909 -0.83533251 111 82 78
-0.25891784 -0.31201363 -0.83561718 108 79 74
-0.25895587 -0.31152499 -0.83566362 107 77 71
-0.25919229 -0.31177157 -0.8354634 107 78 72
-0.25995204 -0.31762788 -0.83419663 120 98 93
-0.26031503 -0.31734896 -0.83397001 121 98 93
-0.25991517 -0.31731382 -0.83425623 120 97 92
-0.2597785 -0.31463239 -0.83463907 116 87 85
-0.26093 -0.31755301 -0.83352339 123 100 95
-0.25880456 -0.31685689 -0.83512753 119 94 92
-0.25736895 -0.31631094 -0.83622617 117 89 91
-0.2573331 -0.31633729 -0.83624864 117 89 91
-0.25763574 -0.31587994 -0.83608842 117 89 90
-0.25769377 -0.31727239 -0.83587301 118 92 92
-0.25929379 -0.31639495 -0.83481359 118 93 90
-0.25905004 -0.31475481 -0.8351714 116 87 87
-0.25773317 -0.31469741 -0.83616459 116 86 89
-0.25953558 -0.31746709 -0.83451796 119 97 93
-0.252175 -0.27184784 -0.84851211 97 70 75
-0.25216839 -0.27425209 -0.84810597 101 79 84
-0.24979286 -0.2747089 -0.85169888 102 82 88
-0.25085917 -0.27484077 -0.8500306 102 82 87
-0.25110191 -0.27378669 -0.8499077 100 79 84
-0.24967752 -0.27501506 -0.85180336 102 83 89
-0.2496521 -0.27521566 -0.85179484 102 83 90
-0.25036216 -0.27347293 -0.85111767 100 79 84
-0.25164786 -0.27407497 -0.84895849 100 79 84
-0.25164703 -0.27227843 -0.84926981 97 72 77
-0.25136793 -0.2737357 -0.84948534 100 78 83
-0.25112522 -0.27335805 -0.84995651 100 78 82
-0.25133392 -0.27234742 -0.84978169 98 73 78
-0.25163478 -0.27565116 -0.84866649 102 83 88
-0.25092039 -0.27605772 -0.84969562 102 83 89
-0.25073868 -0.27760324 -0.84970933 101 83 90
-0.25000191 -0.27614927 -0.85108763 102 83 90
-0.25139105 -0.27682766 -0.84884238 101 83 89
-0.25145718 -0.27821472 -0.84850341 101 83 89
-0.24925314 -0.27829197 -0.85168386 104 84 91
-0.24932098 -0.27673435 -0.85193801 103 84 91
-0.24976222 -0.27872452 -0.8508572 103 84 91
-0.24982053 -0.27714807 -0.85112917 103 84 91
-0.2500985 -0.27820858 -0.85049182 102 83 90
-0.2503725 -0.27840242 -0.85005569 102 83 90
-0.24909878 -0.28278807 -0.85103142 99 78 86
-0.24922062 -0.28088957 -0.85120583 102 81 89
-0.24966004 -0.28233981 -0.85030311 99 78 86
-0.24975055 -0.28209627 -0.85021728 99 78 87
-0.24863377 -0.28251612 -0.85175359 100 79 87
-0.24921972 -0.28003079 -0.85136569 103 83 90
-0.24993683 -0.28284547 -0.84980977 98 77 86
-0.24939664 -0.27986661 -0.85114247 103 83 90
-0.24923387 -0.2796734 -0.85141265 103 83 91
-0.25045735 -0.28009722 -0.84957886 101 82 89
-0.25002289 -0.27952656 -0.85031068 103 83 90
-0.25100321 -0.28256577 -0.84832364 97 76 85
-0.25108057 -0.2807779 -0.84855574 99 80 88
-0.25130415 -0.28166422 -0.84806544 97 78 86
-0.2499955 -0.28658998 -0.84911126 95 75 77
-0.25017577 -0.28662059 -0.84887785 95 75 76
-0.24948548 -0.28640074 -0.84979761 96 76 78
-0.24816729 -0.28686514 -0.85133082 97 77 82
-0.24883509 -0.28473738 -0.85103136 98 77 82
-0.24959743 -0.28560182 -0.84985888 96 76 79
-0.25011009 -0.28339314 -0.8494674 97 76 84
-0.25010192 -0.28505489 -0.84925175 96 76 80
-0.25026405 -0.28367895 -0.84920573 96 76 83
-0.25053573 -0.28550792 -0.84856284 95 75 78
-0.25021905 -0.28502271 -0.84908688 96 76 80
-0.25076717 -0.28505364 -0.84829056 95 75 79
-0.24802841 -0.28636548 -0.8516463 97 77 83
-0.24840167 -0.28928679 -0.85045588 96 75 80
-0.24832956 -0.28824171 -0.85079569 96 76 81
-0.24886268 -0.28902727 -0.8499406 96 75 78
-0.24980399 -0.28729662 -0.84917539 95 75 76
-0.24850345 -0.28841317 -0.85053706 96 75 80
-0.24858469 -0.28742361 -0.85067165 96 76 80
-0.24962483 -0.28952482 -0.84884089 94 74 76
-0.24982373 -0.28878748 -0.84878296 94 74 76
-0.24874726 -0.29074171 -0.84965092 95 74 78
-0.2496642 -0.29015964 -0.84861684 94 74 77
-0.24790686 -0.29067546 -0.85077715 96 74 79
-0.24759604 -0.28780964 -0.85191709 96 75 81
-0.24789968 -0.28761196 -0.85151505 96 76 82
-0.24880977 -0.29139945 -0.84935927 95 74 77
-0.2490076 -0.29228005 -0.84879035 95 73 75
-0.24941315 -0.29147145 -0.84854901 94 73 76
-0.24910457 -0.29250824 -0.84858352 94 72 75
-0.24910955 -0.2943646 -0.84805655 94 70 71
-0.24914458 -0.29365063 -0.84821081 94 71 72
-0.24616207 -0.2944822 -0.85186875 93 67 70
-0.24738197 -0.29285389 -0.85081559 95 71 74
-0.2470199 -0.29165396 -0.85177535 95 72 75
-0.24673204 -0.29259944 -0.85180807 94 70 74
-0.24677372 -0.29395291 -0.85123032 94 69 72
-0.24783668 -0.29251415 -0.85027218 96 73 76
-0.24799238 -0.2939145 -0.84954333 96 71 73
-0.24836795 -0.2954832 -0.84856904 95 70 70
-0.24824624 -0.29713228 -0.84819651 94 69 69
-0.24745744 -0.29590473 -0.84961259 94 69 70
-0.24716054 -0.29513302 -0.85025996 94 69 70
-0.24740268 -0.29645681 -0.84951723 94 68 70
-0.24709034 -0.29600403 -0.85008729 93 68 70
-0.24766652 -0.29721588 -0.84891933 94 68 69
-0.24650009 -0.29589352 -0.85093021 93 67 69
-0.24611777 -0.29822892 -0.85060132 91 69 70
-0.24696182 -0.29819101 -0.84951836 92 68 69
-0.24674833 -0.29726279 -0.85012412 92 68 69
-0.24557137 -0.29700926 -0.85174268 91 68 70
-0.24654996 -0.29647538 -0.85066038 92 67 69
-0.24659528 -0.29814354 -0.85001135 92 68 69
-0.24714316 -0.29878709 -0.84907192 92 69 69
-0.24464044 -0.30018565 -0.85179144 87 67 69
-0.24480607 -0.29974264 -0.85175174 88 68 70
-0.24493764 -0.30168363 -0.8508907 87 66 68
-0.24573599 -0.30271208 -0.84955782 89 67 69
-0.24642836 -0.30255386 -0.84878194 92 69 71
-0.24584986 -0.30172175 -0.84977937 90 68 71
-0.2460161 -0.30161387 -0.84961838 91 69 71
-0.2458616 -0.30074596 -0.85011846 91 70 71
-0.24687144 -0.29888621 -0.84939224 91 69 69
-0.24698742 -0.30175027 -0.84835011 93 70 72
-0.24578433 -0.30003321 -0.85044736 91 70 71
-0.24562156 -0.29994449 -0.85068643 91 70 71
-0.24533226 -0.29898348 -0.85136133 90 69 70
-0.24741948 -0.29982617 -0.84838778 92 69 70
-0.24663031 -0.29936129 -0.84955758 91 69 70
-0.24442779 -0.30506766 -0.85020405 91 70 73
-0.24516656 -0.3044602 -0.8495546 92 70 73
-0.2446153 -0.30586499 -0.84966415 94 73 75
-0.24625145 -0.30324951 -0.84872645 92 70 72
-0.24434778 -0.30414757 -0.85066295 88 67 70
-0.24419819 -0.3049157 -0.85054022 90 69 72
-0.2455855 -0.30494952 -0.84888369 94 73 75
-0.24444218 -0.30655172 -0.84963065 95 75 76
-0.24661447 -0.304012 -0.84805757 94 72 74
-0.24590929 -0.3044734 -0.84867901 94 72 74
-0.24352604 -0.30485114 -0.85146141 90 69 72
-0.24342878 -0.30445114 -0.85174966 89 67 71
-0.24298248 -0.30579552 -0.85182494 94 72 75
-0.24393049 -0.3030245 -0.85163444 84 62 66
-0.24504404 -0.30683297 -0.84888005 96 75 77
-0.24435538 -0.30982858 -0.84848863 110 82 83
-0.24459061 -0.30927625 -0.84844381 108 81 82
-0.24454086 -0.31036586 -0.84807491 112 83 85
-0.2420589 -0.31015956 -0.85129535 105 76 81
-0.24272975 -0.30782834 -0.85136324 100 76 79
-0.24192311 -0.30947265 -0.8517465 102 75 80
-0.24173667 -0.30995691 -0.85179323 103 75 80
-0.2437765 -0.30968675 -0.84926432 110 81 83
-0.24320148 -0.30953857 -0.85006726 107 79 82
-0.2435257 -0.30665961 -0.85075277 95 75 77
-0.24396043 -0.3071703 -0.84997213 97 76 78
-0.24387868 -0.30877054 -0.84947568 105 79 81
-0.24419671 -0.31072238 -0.84832811 113 84 85
-0.24232736 -0.31092533 -0.85066777 107 79 82
-0.24257116 -0.31082773 -0.85038483 108 79 82
-0.24148989 -0.31112906 -0.85156804 104 76 80
-0.24383998 -0.31180939 -0.8483817 113 86 85
-0.24170011 -0.3108969 -0.85144061 105 76 81
-0.24055751 -0.2706337 -0.87265843 87 71 65
-0.24114072 -0.26957312 -0.87180746 87 68 62
-0.2409012 -0.27047321 -0.87188601 87 71 65
-0.24074818 -0.27153781 -0.87157029 87 75 69
-0.24032243 -0.27159107 -0.87245476 86 73 67
-0.27233741 -0.29853046 -0.82830495 136 109 119
-0.27154458 -0.30079678 -0.82844353 133 108 116
-0.27172586 -0.30005792 -0.82843167 134 108 117
-0.27121419 -0.30562019 -0.82821286 128 106 109
-0.27135345 -0.30654302 -0.82805836 127 106 107
-0.2714307 -0.30587792 -0.82806844 128 107 109
-0.27187306 -0.3094472 -0.82767308 123 97 101
-0.27380714 -0.30906901 -0.82679468 129 106 108
-0.27240536 -0.30766603 -0.82750475 128 106 107
-0.27436408 -0.31028271 -0.82648379 128 103 106
-0.27463233 -0.31037736 -0.82635552 129 103 107
-0.27188218 -0.3085413 -0.82770854 125 101 104
-0.27376395 -0.30874801 -0.82683265 130 106 109
-0.2704252 -0.30817199 -0.82849497 121 96 100
-0.27070546 -0.30893052 -0.82830554 121 94 99
-0.27142105 -0.3086755 -0.82792282 124 98 102
-0.27129626 -0.30666399 -0.82808191 127 105 107
-0.27287355 -0.31099665 -0.82714468 124 95 100
-0.27440467 -0.31058803 -0.82645184 128 102 106
-0.27340573 -0.31104073 -0.82689673 125 96 101
-0.27360705 -0.31131446 -0.82679307 126 96 101
-0.27074209 -0.31201744 -0.82812035 119 89 92
-0.27077404 -0.31192899 -0.82810819 119 90 92
-0.25652465 -0.27136531 -0.8430298 110 87 84
-0.25758871 -0.27205804 -0.8416822 115 93 89
-0.25834647 -0.27178115 -0.84087247 116 94 89
-0.25742787 -0.27209139 -0.84185922 114 92 89
-0.25840223 -0.27151474 -0.84086275 115 93 88
-0.25762457 -0.27291605 -0.84146732 117 96 93
-0.2565209 -0.27234927 -0.84284323 113 91 89
-0.25710863 -0.27436683 -0.84180623 118 98 98
-0.25655869 -0.27535573 -0.84225738 119 99 102
-0.2582888 -0.27405572 -0.84061348 119 97 98
-0.25788623 -0.2744292 -0.84098721 119 97 99
-0.25651368 -0.27514941 -0.84232992 119 99 101
-0.25552467 -0.27378196 -0.84375489 113 92 93
-0.25544283 -0.27418655 -0.8437801 114 93 95
-0.25664276 -0.27557334 -0.84214902 119 99 102
-0.25593191 -0.27558941 -0.84288919 118 99 101
-0.25591987 -0.2786496 -0.8426283 116 95 99
-0.25593227 -0.2783238 -0.84264451 116 96 99
-0.25594899 -0.27563718 -0.84286708 118 99 101
-0.2573671 -0.27838954 -0.84111047 119 96 101
-0.25817585 -0.27706388 -0.84038818 120 97 102
-0.25614193 -0.27898577 -0.84236407 116 95 99
-0.2562516 -0.2787571 -0.84227169 116 95 99
-0.25494805 -0.27596021 -0.84411812 113 96 99
-0.25497815 -0.2789551 -0.8437385 111 91 97
-0.2557725 -0.2776753 -0.84289324 116 96 100
-0.25604954 -0.28000182 -0.84234142 116 95 99
-0.25594059 -0.28271261 -0.84212363 118 96 98
-0.25600207 -0.28047949 -0.84233356 117 95 98
-0.25603095 -0.2818225 -0.84213632 118 96 98
-0.25790086 -0.28017783 -0.84032285 121 97 102
-0.25653082 -0.28213271 -0.84155887 119 97 99
-0.25676924 -0.28288713 -0.84120691 121 98 100
-0.25761527 -0.28129694 -0.84049147 122 98 102
-0.25551572 -0.28299573 -0.84258926 116 94 96
-0.25537327 -0.2821739 -0.84286427 115 94 96
-0.25500277 -0.28172109 -0.84336632 113 92 95
-0.2551114 -0.28031641 -0.84341216 113 92 96
-0.25543591 -0.27947015 -0.84312433 114 93 97
-0.25655517 -0.28525308 -0.84107065 122 98 104
-0.25600609 -0.28596491 -0.84155011 121 97 104
-0.25609949 -0.28463614 -0.84166175 120 97 101
-0.25668886 -0.28610456 -0.84079832 124 100 107
-0.25712016 -0.28613007 -0.84033811 127 103 110
-0.25443912 -0.28493628 -0.84362286 109 88 92
-0.25447804 -0.28432849 -0.84364653 110 88 93
-0.25407892 -0.28696558 -0.84384102 105 84 85
-0.25462192 -0.28564167 -0.84330112 110 89 93
-0.25543481 -0.28448382 -0.84245521 117 94 99
-0.25493217 -0.28374878 -0.84317613 113 91 95
-0.25571102 -0.28339428 -0.84229797 118 96 97
-0.25664473 -0.28753611 -0.84061861 126 102 110
-0.25586328 -0.28754839 -0.8414433 121 98 105
-0.256376 -0.28941089 -0.84056979 123 102 105
-0.25486809 -0.29002431 -0.84227014 111 92 92
-0.25384143 -0.29081628 -0.84340543 102 84 86
-0.2541734 -0.28866568 -0.84340882 105 86 85
-0.25329629 -0.29096943 -0.84406054 97 79 82
-0.25367957 -0.29030484 -0.84370881 101 82 84
-0.25411066 -0.2906093 -0.84310752 104 86 87
-0.25445142 -0.2872982 -0.8433091 108 87 89
-0.2556951 -0.28917563 -0.84136987 119 98 100
-0.2552152 -0.28778875 -0.84223598 115 93 97
-0.25572678 -0.28759888 -0.84160948 120 97 103
-0.25485358 -0.2874746 -0.84275866 112 90 93
-0.256037 -0.29150981 -0.84051412 120 102 101
-0.25516129 -0.29157737 -0.84155726 113 95 94
-0.25501946 -0.29202068 -0.84161669 111 93 93
-0.25523052 -0.2916491 -0.84145105 113 95 95
-0.25580931 -0.2918039 -0.84068221 118 100 98
-0.25452301 -0.2931214 -0.8419354 105 88 88
-0.25499833 -0.29387158 -0.84113353 108 92 90
-0.25528961 -0.29343218 -0.84089208 111 95 93
-0.25324872 -0.29241437 -0.84371608 97 78 80
-0.25338963 -0.29398531 -0.84309703 99 78 80
-0.25326884 -0.29190093 -0.84383637 97 78 81
-0.25405073 -0.29446983 -0.84214026 103 83 83
-0.25332853 -0.29256147 -0.84357548 98 78 81
-0.25420937 -0.29390487 -0.84210336 104 85 85
-0.25272042 -0.2938849 -0.84395522 95 72 75
-0.25253579 -0.29629824 -0.84351385 97 71 74
-0.25385213 -0.29864052 -0.84141809 105 81 83
-0.25279105 -0.29786178 -0.8427738 100 76 78
-0.2525419 -0.29707897 -0.84327257 98 73 76
-0.25268114 -0.29815987 -0.84280032 100 76 78
-0.25260895 -0.29629374 -0.84343779 97 71 75
-0.2545228 -0.29658449 -0.84112835 106 85 85
-0.25477964 -0.29499274 -0.84109586 107 89 88
-0.25346097 -0.29661518 -0.84243941 100 75 78
-0.25507674 -0.29575044 -0.84059137 109 91 89
-0.25475866 -0.29649597 -0.84085184 107 87 87
-0.25489494 -0.29644659 -0.84069169 108 88 88
-0.25179738 -0.29687271 -0.84414059 95 69 73
-0.25201192 -0.3017818 -0.84279549 105 83 82
-0.25281301 -0.30103174 -0.84207857 106 84 83
-0.2524291 -0.30021685 -0.84262544 103 80 81
-0.2526044 -0.30082288 -0.84233522 105 83 82
-0.25211692 -0.29890847 -0.84318185 100 75 77
-0.25268099 -0.30105653 -0.84221381 106 83 83
-0.25353602 -0.30126694 -0.84130096 107 86 85
-0.25421679 -0.30210218 -0.84051335 107 86 87
-0.25367394 -0.30054149 -0.84125668 108 86 85
-0.2541104 -0.30236611 -0.84058565 107 85 87
-0.2541624 -0.29994676 -0.84084547 108 86 86
-0.25087222 -0.30117235 -0.84409404 101 78 79
-0.25131488 -0.29992032 -0.84387487 100 76 77
-0.25145486 -0.30177456 -0.84338373 103 81 81
-0.25163239 -0.29958102 -0.84359324 100 76 77
-0.25213933 -0.30569279 -0.84187758 110 86 88
-0.25225136 -0.30546173 -0.84181482 109 86 88
-0.25227714 -0.30343917 -0.84221923 107 86 85
-0.25249389 -0.30291915 -0.84211338 107 86 85
-0.25217351 -0.30617535 -0.84174085 110 86 89
-0.25335145 -0.30562592 -0.84074968 107 83 88
-0.2538175 -0.30539751 -0.84036183 106 82 88
-0.25260702 -0.30634177 -0.84131444 109 84 89
-0.24966708 -0.30654812 -0.8441155 105 83 84
-0.25050449 -0.30385232 -0.84391898 104 82 83
-0.25142139 -0.30526268 -0.84269869 108 84 87
-0.250287 -0.30612084 -0.84360862 106 84 85
-0.25186029 -0.30619231 -0.84205252 110 85 89
-0.2515316 -0.30316937 -0.84303254 106 84 84
-0.2513248 -0.30437663 -0.84298784 106 84 85
-0.25349101 -0.30711126 -0.84036791 106 83 89
-0.25235143 -0.30681056 -0.84146512 110 85 89
-0.25343025 -0.30756634 -0.84034067 107 85 90
-0.25134677 -0.3071841 -0.84234214 110 87 89
-0.25070155 -0.3068651 -0.84303784 108 85 87
-0.24830632 -0.26687288 -0.85584158 103 78 68
-0.2480644 -0.27055997 -0.8552503 103 83 79
-0.2483743 -0.26902273 -0.85519993 105 82 75
-0.24936989 -0.27003625 -0.85345632 101 78 76
-0.24822809 -0.27029288 -0.8550781 103 82 78
-0.24883404 -0.27065769 -0.85408401 101 80 78
-0.24891549 -0.27110934 -0.85384315 100 79 79
-0.24925341 -0.26948488 -0.85375673 102 78 74
-0.24970695 -0.27014178 -0.85289019 99 76 75
-0.24930221 -0.26933634 -0.85370469 101 78 74
-0.24776638 -0.27026984 -0.85584533 104 83 78
-0.2482293 -0.27497095 -0.85413086 103 84 90
-0.24889126 -0.27331164 -0.85344994 101 80 85
-0.24826008 -0.27154872 -0.85470188 101 82 81
-0.24811049 -0.27218586 -0.85480851 102 83 83
-0.24969897 -0.27225965 -0.85244393 99 77 81
-0.24901408 -0.27414936 -0.85307795 101 81 87
-0.24909741 -0.27521223 -0.85268021 103 83 90
-0.24891423 -0.2750535 -0.85301417 103 83 90
-0.24934019 -0.27375901 -0.85265046 101 80 86
-0.24744301 -0.27412453 -0.85559785 103 84 88
-0.24772559 -0.2734904 -0.85522693 103 84 87
-0.24755301 -0.27188125 -0.85581899 103 84 82
-0.24791919 -0.27152982 -0.85524404 102 83 82
-0.24828258 -0.27703843 -0.85347718 104 85 92
-0.24824741 -0.27814484 -0.85321873 105 85 92
-0.24828307 -0.27670386 -0.85357165 104 85 92
-0.24943784 -0.2758005 -0.85198188 103 84 91
-0.24905798 -0.27816623 -0.85199267 104 84 91
-0.24740292 -0.27837917 -0.85458797 105 85 92
-0.24782442 -0.27868906 -0.85377038 105 85 92
-0.24779351 -0.27830368 -0.85393292 105 85 92
-0.24725108 -0.27923781 -0.854608 105 85 92
-0.24796277 -0.2766116 -0.8541227 104 85 92
-0.24781558 -0.27795118 -0.85399503 105 85 92
-0.24889223 -0.27930433 -0.85197335 105 85 92
-0.24841599 -0.28121573 -0.85232115 102 82 89
-0.24841234 -0.2818464 -0.85220808 101 81 88
-0.24626778 -0.28196093 -0.85560179 99 77 84
-0.24721399 -0.28125429 -0.85428602 102 82 88
-0.24667533 -0.28120509 -0.85514563 101 81 87
-0.24690433 -0.28044736 -0.85497093 104 84 90
-0.24670346 -0.28133643 -0.85506922 101 80 87
-0.24767089 -0.28078693 -0.85359156 103 83 90
-0.24769513 -0.28081882 -0.8535437 103 83 90
-0.24761276 -0.2817294 -0.85351974 102 82 88
-0.24687468 -0.28011373 -0.8550936 104 84 90
-0.24716529 -0.28400087 -0.85365844 97 76 83
-0.2463551 -0.28328601 -0.85513657 96 74 81
-0.24784754 -0.28468436 -0.85239047 98 77 84
-0.24722612 -0.28570306 -0.85307384 96 75 81
-0.24703227 -0.28482482 -0.8536312 96 75 82
-0.24722336 -0.2860755 -0.8529709 96 75 81
-0.24599677 -0.28501406 -0.85522515 94 71 78
-0.24591373 -0.28698763 -0.85481697 92 68 75
-0.24641836 -0.28581494 -0.85433066 94 72 78
-0.24619471 -0.28528088 -0.85483509 94 71 78
-0.24707961 -0.28637293 -0.85311913 95 74 80
-0.24744681 -0.28674021 -0.85243064 95 75 81
-0.24553722 -0.28786224 -0.85518658 91 67 73
-0.24589804 -0.29090255 -0.85364735 93 71 72
-0.24489316 -0.29032442 -0.85526407 90 69 68
-0.24525541 -0.28796616 -0.85554993 91 66 72
-0.24544162 -0.28757048 -0.85542047 91 66 73
-0.24485251 -0.28968838 -0.85553682 90 68 68
-0.24540552 -0.2893877 -0.85485655 91 68 71
-0.24758255 -0.28764752 -0.85197699 95 75 81
-0.24691838 -0.28891629 -0.85272151 95 72 77
-0.24684928 -0.28726852 -0.85324597 94 72 78
-0.24667418 -0.28768331 -0.85342211 94 71 77
-0.24650469 -0.2872456 -0.8538034 93 71 77
-0.24692406 -0.28873238 -0.85275859 94 72 78
-0.24526788 -0.29468438 -0.85310876 90 65 68
-0.24426921 -0.29284284 -0.85526848 88 65 65
-0.2447238 -0.29260087 -0.85466832 89 67 66
-0.2452478 -0.29489371 -0.85306495 90 65 68
-0.24560305 -0.29108647 -0.8539983 92 70 70
-0.24613072 -0.2942214 -0.85201383 93 68 71
-0.24634403 -0.29290608 -0.85223168 94 69 72
-0.24687573 -0.2916325 -0.85198283 95 72 75
-0.24606568 -0.29233664 -0.85285026 93 70 71
-0.24494052 -0.29152372 -0.85476249 90 69 67
-0.24413843 -0.29395992 -0.8550635 87 63 65
-0.24479435 -0.29667208 -0.85299492 89 67 69
-0.2453375 -0.29603267 -0.85244721 91 67 69
-0.24429548 -0.29520804 -0.8543703 87 63 66
-0.24439593 -0.29708043 -0.85342246 88 67 68
-0.24543959 -0.29516885 -0.85266048 91 66 69
-0.24551955 -0.29647473 -0.85200399 91 68 70
-0.2456516 -0.2957423 -0.85210097 92 67 70
-0.24270833 -0.29796064 -0.85550648 88 67 68
-0.24280223 -0.29778782 -0.85544515 88 66 67
-0.24272493 -0.29716331 -0.85582536 87 64 66
-0.24262592 -0.29781434 -0.85568839 88 66 67
-0.24302547 -0.29793993 -0.8550573 88 67 68
-0.24424556 -0.2991696 -0.85277212 87 69 69
-0.2441799 -0.30112222 -0.85205704 85 64 67
-0.24404775 -0.30075535 -0.85239971 85 65 67
-0.24333967 -0.29999444 -0.85373795 87 67 68
-0.24317379 -0.29995996 -0.85399181 87 67 68
-0.24359374 -0.30141976 -0.85277331 85 64 67
-0.24406831 -0.30150223 -0.85205942 85 64 67
-0.24290432 -0.30155969 -0.8536737 87 65 68
-0.24179177 -0.30214879 -0.85492635 91 67 70
-0.24198623 -0.30147114 -0.85496664 90 67 70
-0.24270007 -0.30255717 -0.85350257 88 64 68
-0.24252456 -0.30267429 -0.85368919 88 65 69
-0.24205777 -0.30244973 -0.85442758 90 66 70
-0.24308108 -0.30114716 -0.85361856 86 65 67
-0.24066412 -0.30355999 -0.85583878 96 71 76
-0.24105254 -0.30663228 -0.85404581 98 76 83
-0.2406117 -0.30546123 -0.85511559 98 75 81
-0.2406031 -0.30523142 -0.85522312 98 74 80
-0.24083978 -0.30403444 -0.85541332 96 71 76
-0.2419177 -0.305657 -0.85331708 96 73 77
-0.24302143 -0.30361235 -0.85263598 88 66 69
-0.24286053 -0.3043859 -0.8525489 91 68 72
-0.24239698 -0.30325168 -0.8536312 90 66 70
-0.24248402 -0.30574203 -0.85252506 95 73 76
-0.24353918 -0.30335414 -0.85203171 86 64 68
-0.24196911 -0.30480871 -0.85359782 95 71 75
-0.2428935 -0.30560622 -0.85202003 93 71 74
-0.24078675 -0.30927366 -0.85325313 97 71 79
-0.24115732 -0.30814692 -0.85325325 98 73 80
-0.2404701 -0.30788556 -0.8542695 99 75 82
-0.240317 -0.30855459 -0.85418141 98 73 82
-0.24211407 -0.30745995 -0.85229278 97 73 78
-0.24049109 -0.30984434 -0.85339493 98 71 79
-0.24142602 -0.31037354 -0.85202438 103 74 80
-0.2416873 -0.30913189 -0.85217738 100 74 79
-0.24001837 -0.30985442 -0.85402608 98 71 80
-0.23989104 -0.30966976 -0.85428137 97 71 80
-0.23953219 -0.3090117 -0.85506046 97 71 80
-0.23908611 -0.3091495 -0.85561448 96 70 78
-0.24011385 -0.30899858 -0.85426497 98 73 81
-0.24073377 -0.31180364 -0.85211706 101 74 77
-0.24070355 -0.3107 -0.8527649 100 72 79
-0.24010032 -0.31159404 -0.85303366 98 71 76
-0.23988681 -0.31095162 -0.85368288 97 69 76
-0.23926878 -0.31081569 -0.85460848 96 67 75
-0.24448933 -0.26740819 -0.86434895 93 73 53
-0.24470717 -0.26743919 -0.8638097 94 74 54
-0.24420679 -0.26837394 -0.86455917 94 75 58
-0.24408418 -0.26890394 -0.86459583 95 76 63
-0.2440491 -0.26834464 -0.86496681 94 74 58
-0.2437513 -0.26797992 -0.86590856 92 71 56
-0.24387483 -0.27000743 -0.86456943 97 78 72
-0.2437634 -0.27102071 -0.86432153 98 81 81
-0.24357618 -0.271442 -0.86454958 99 83 84
-0.24296474 -0.26942098 -0.86710429 93 73 68
-0.24321268 -0.2680158 -0.86725366 91 68 57
-0.24337578 -0.26984471 -0.86588508 95 76 71
-0.24257444 -0.27127376 -0.86706054 96 80 82
-0.24235955 -0.27293083 -0.86675715 93 78 82
-0.24263451 -0.27311027 -0.86597937 94 79 82
-0.24203625 -0.27528986 -0.86641681 87 71 79
-0.2426855 -0.27480191 -0.86502528 91 76 80
-0.24214606 -0.27353349 -0.86699885 91 75 81
