ply
format ascii 1.0
comment PCL generated
element vertex 1070
property float x
property float y
property float z
property uchar red
property uchar green
property uchar blue
element camera 0
property float view_px
property float view_py
property float view_pz
property float x_axisx
property float x_axisy
property float x_axisz
property float y_axisx
property float y_axisy
property float y_axisz
property float z_axisx
property float z_axisy
property float z_axisz
property float focal
property float scalex
property float scaley
property float centerx
property float centery
property int viewportx
property int viewporty
property float k1
property float k2
end_header
0.26918685 0.0956567 -0.96118689 82 49 37
0.26307628 0.088439696 -0.95969117 73 39 22
0.26204786 0.088586658 -0.95807874 64 34 22
0.26362696 0.088770479 -0.95987511 70 37 20
0.26281127 0.08902844 -0.95836163 60 32 20
0.26264966 0.088641226 -0.95878905 67 35 21
0.2634514 0.088125706 -0.96071136 81 43 23
0.26642168 0.090987198 -0.95911855 60 32 20
0.26456171 0.088691153 -0.96080935 79 42 22
0.26417369 0.08891473 -0.96006703 71 37 20
0.26387575 0.088416561 -0.96054113 76 40 21
0.266922 0.091356084 -0.95905131 60 32 20
0.26448855 0.090162292 -0.95844209 53 28 17
0.26596174 0.090691924 -0.95911187 60 32 19
0.26711076 0.089634068 -0.95976847 54 29 18
0.26555023 0.088206038 -0.96067381 66 35 19
0.26580173 0.089366309 -0.96027744 68 36 20
0.26687318 0.090196148 -0.95969635 60 32 19
0.26732963 0.089769527 -0.95965892 52 28 17
0.26642036 0.089554898 -0.96002012 62 33 19
0.26471269 0.090737611 -0.9577288 47 24 15
0.26598814 0.091273136 -0.95815158 53 28 18
0.2678504 0.088157304 -0.96051413 44 24 17
0.26828343 0.088873051 -0.96112108 51 29 22
0.26840764 0.091237865 -0.96070707 61 36 28
0.26821232 0.091136239 -0.96037501 59 34 26
0.26766914 0.089686222 -0.95976615 49 27 18
0.26855987 0.091407746 -0.96094137 62 38 30
0.27332446 0.1084741 -0.9712835 74 44 39
0.27343184 0.10851794 -0.97292536 77 45 37
0.27321941 0.10804879 -0.97053903 72 43 39
0.27360871 0.11000869 -0.97243327 79 49 40
0.27362481 0.1098748 -0.972996 80 49 39
0.27321774 0.10965648 -0.9698289 77 50 43
0.27314344 0.10966653 -0.96941257 78 51 44
0.27313516 0.11074673 -0.96923482 82 57 46
0.27327436 0.10873735 -0.9702571 73 45 40
0.27316612 0.11058035 -0.96942794 81 55 46
0.27319071 0.10606976 -0.97286206 78 48 42
0.2729885 0.10478153 -0.97079372 80 55 51
0.27308118 0.10530099 -0.9718191 79 52 47
0.27301791 0.1037657 -0.97239828 82 59 53
0.27311096 0.10476693 -0.97290784 80 54 48
0.2731114 0.10711204 -0.97050226 72 43 40
0.2729902 0.10608299 -0.96953684 74 48 46
0.2730675 0.10685409 -0.97004086 72 44 41
0.27302688 0.10695981 -0.96928042 70 43 42
0.27322263 0.10691953 -0.97249162 76 45 39
0.27288365 0.10009044 -0.97226667 72 46 35
0.27279508 0.10044369 -0.97094178 77 49 36
0.27279514 0.10021878 -0.97102869 76 48 35
0.27293557 0.10002888 -0.97298712 69 44 35
0.2729373 0.10232747 -0.97212589 81 56 47
0.27302644 0.10346851 -0.97285116 82 59 53
0.27281502 0.1024337 -0.97002339 81 57 50
0.27291125 0.10345388 -0.97088897 82 60 56
0.27295247 0.10320824 -0.9717837 82 59 53
0.27293411 0.10321686 -0.97146237 82 59 54
0.26864845 0.097622849 -0.97287941 45 29 21
0.26796752 0.09603548 -0.9712829 47 29 20
0.26870865 0.096377544 -0.97199166 50 32 23
0.26873621 0.096884757 -0.97238523 48 31 23
0.26779205 0.097660199 -0.97238171 41 25 17
0.2722885 0.096953534 -0.9715724 67 43 37
0.27246189 0.097701281 -0.97204471 67 43 36
0.27213371 0.095942736 -0.97025508 65 42 37
0.27234936 0.096799873 -0.97065228 65 41 35
0.27221921 0.096680738 -0.97145122 67 44 37
0.27184501 0.095768318 -0.9722622 69 47 41
0.27285987 0.099495858 -0.97230577 69 43 32
0.27264002 0.099594802 -0.96920311 78 47 32
0.27273715 0.099234767 -0.97105861 72 44 32
0.27242443 0.097391285 -0.96968669 68 42 34
0.27277792 0.099044256 -0.9718982 69 43 33
0.26999679 0.094603047 -0.97060639 54 36 30
0.27117035 0.094301321 -0.9710145 59 40 35
0.26948789 0.094810672 -0.97059518 52 34 27
0.27008587 0.09472546 -0.97095096 55 36 30
0.27093747 0.094964869 -0.97223622 60 41 33
0.27076793 0.094830811 -0.97179395 59 40 33
0.2713128 0.095248111 -0.97297573 63 43 35
0.27086908 0.091960296 -0.96919423 45 33 31
0.27072576 0.09336552 -0.96941394 52 36 33
0.27032721 0.092613474 -0.96946263 45 33 29
0.2685658 0.093052685 -0.973005 32 17 11
0.26865938 0.093601182 -0.97232574 39 22 14
0.26882178 0.093703024 -0.9720915 42 24 16
0.26975852 0.093115017 -0.97012448 45 30 25
0.26972103 0.092944056 -0.97129196 45 27 21
0.26952425 0.093173482 -0.97137499 45 27 20
0.27050093 0.092133656 -0.97043335 44 30 26
0.26967323 0.093043841 -0.97107589 45 28 22
0.27038386 0.091988519 -0.97199357 44 26 20
0.27047327 0.092334352 -0.96954089 45 32 29
0.27178383 0.095594287 -0.97222275 68 46 40
0.27149984 0.094854459 -0.97237515 62 43 36
0.27152511 0.093577117 -0.96943331 57 40 37
0.27197489 0.095106579 -0.96943766 62 40 36
0.26039934 0.080143072 -0.89052707 118 88 81
0.26354897 0.081370272 -0.8900072 121 88 82
0.26303104 0.08216282 -0.89097106 120 88 81
0.26285648 0.080552809 -0.8896327 120 89 83
0.26260188 0.081570685 -0.89066321 120 88 81
0.26410145 0.081470393 -0.88994634 121 89 84
0.26461715 0.081457533 -0.88982993 122 91 85
0.26454255 0.080253921 -0.88877869 123 91 87
0.26393571 0.081582382 -0.89007926 121 89 83
0.26603568 0.08238145 -0.89071846 124 94 90
0.26653731 0.082263902 -0.89056766 125 95 92
0.26744768 0.080715105 -0.88874692 126 98 97
0.26580206 0.082596742 -0.89097464 124 93 89
0.26467514 0.081973732 -0.89028561 122 90 85
0.26567942 0.082310684 -0.89064682 124 93 88
0.26998609 0.08080411 -0.88896638 133 109 103
0.26971954 0.081024475 -0.88920844 133 107 102
0.26855031 0.081862904 -0.8901214 129 102 99
0.26964384 0.081227764 -0.88944018 132 107 102
0.26771685 0.081976548 -0.89021146 127 98 96
0.27046263 0.080977626 -0.88931209 135 111 105
0.27032065 0.081366919 -0.88991791 134 110 105
0.27038461 0.081542641 -0.89024454 134 111 105
0.2686252 0.082353875 -0.89089912 129 103 99
0.27312222 0.080919929 -0.89064372 134 106 103
0.27428928 0.08015959 -0.89006186 132 99 98
0.27417013 0.080483861 -0.89054245 132 100 98
0.273929 0.080689952 -0.8907463 132 101 99
0.27333027 0.080326915 -0.88975871 134 105 101
0.27481142 0.080468334 -0.89093214 131 97 96
0.25906077 0.079269387 -0.89093822 115 86 80
0.2587429 0.07730335 -0.88996649 117 90 83
0.25927809 0.077315904 -0.88944286 121 93 85
0.25968999 0.07962352 -0.89057249 118 88 81
0.25898829 0.076623663 -0.88926929 121 93 85
0.25780073 0.076321185 -0.89024794 114 87 82
0.25963339 0.079573423 -0.89059526 118 88 81
0.26300308 0.077503055 -0.88737804 125 91 85
0.26295084 0.078482106 -0.88807529 124 91 85
0.26220292 0.07675799 -0.88727647 126 92 85
0.26232338 0.077848211 -0.8879711 124 92 85
0.26273897 0.078712061 -0.8883509 123 91 85
0.26229748 0.077863224 -0.88799584 124 92 85
0.26191401 0.077885412 -0.88822186 124 94 86
0.26011634 0.079213358 -0.89004397 120 90 83
0.26002663 0.076539636 -0.88830668 126 99 88
0.26150641 0.078571014 -0.8889038 123 93 85
0.260582 0.079257824 -0.88983524 120 90 83
0.26302549 0.080057457 -0.88911736 121 89 84
0.26161689 0.079247005 -0.88929808 121 91 84
0.26152632 0.079438925 -0.88947248 121 90 84
0.2675221 0.078996435 -0.88718402 127 99 97
0.26740322 0.078950241 -0.88717914 127 99 97
0.26451102 0.079334356 -0.88811994 124 92 88
0.2637586 0.079711154 -0.88853115 122 90 85
0.26538458 0.079132743 -0.88780403 125 94 91
0.26367927 0.078551956 -0.88775331 124 90 85
0.27100906 0.079713352 -0.88788837 136 114 106
0.26950863 0.079132274 -0.88736081 132 107 102
0.26906648 0.079789586 -0.88785654 131 105 101
0.26866934 0.079653256 -0.88773143 130 104 100
0.27351773 0.077896595 -0.8871938 129 103 94
0.27447805 0.077723436 -0.88747561 126 97 90
0.27507886 0.079476386 -0.88976169 129 94 93
0.27363169 0.078870676 -0.88835466 131 103 97
0.27218723 0.078560151 -0.88728356 134 111 102
0.2752741 0.078791507 -0.88908261 126 93 90
0.27150732 0.078897402 -0.88726938 137 115 106
0.27434289 0.079892598 -0.88980699 132 99 97
0.27552128 0.079747632 -0.89034212 128 92 92
0.27750558 0.078723446 -0.89071363 105 72 77
0.27608269 0.077771641 -0.88852882 117 86 82
0.27806863 0.0780802 -0.89040077 97 66 71
0.27687854 0.078123175 -0.88954204 109 78 78
0.27686217 0.079042718 -0.89059108 112 79 81
0.27706152 0.079241291 -0.8909725 111 77 81
0.27761233 0.078694418 -0.89076155 103 71 76
0.27827066 0.077365972 -0.88965517 95 66 70
0.27693808 0.076335631 -0.88719457 113 86 79
0.27632496 0.076843239 -0.88752532 115 86 80
0.27922851 0.076695636 -0.88921428 90 62 68
0.2782107 0.076350175 -0.88803679 102 74 73
0.27932075 0.077719048 -0.89090979 84 54 64
0.28085551 0.076291509 -0.890203 84 59 67
0.27936304 0.076842278 -0.8895573 88 60 67
0.25799337 0.074888296 -0.8893714 119 94 89
0.25719437 0.076007016 -0.8906759 111 84 81
0.25885138 0.075069197 -0.88860106 124 99 91
0.25943649 0.075553305 -0.88824028 126 100 90
0.2565065 0.073777162 -0.89091408 95 70 71
0.25669682 0.074348092 -0.89081949 99 74 75
0.25732771 0.074051224 -0.88990235 109 85 83
0.25659457 0.073785566 -0.89079982 96 72 73
0.25733265 0.073731139 -0.88980764 109 85 82
0.26039031 0.075505421 -0.88754731 129 101 90
0.26073864 0.075999357 -0.88758218 127 97 87
0.27770144 0.07616204 -0.88743144 107 80 76
0.27958843 0.075144179 -0.8879258 86 58 66
0.28140208 0.075881004 -0.89034539 80 56 65
0.28111103 0.076031886 -0.89016509 82 58 66
0.28251052 0.075495608 -0.89100045 80 60 69
0.28185821 0.074871361 -0.88982284 81 61 69
0.28169563 0.075912163 -0.89064306 80 57 66
0.28200802 0.074033946 -0.88915533 81 60 69
0.28109801 0.074115567 -0.88840508 82 59 67
0.2813479 0.073842078 -0.88836831 82 59 67
0.2817719 0.073150441 -0.8880856 81 58 66
0.2808302 0.074571572 -0.8886022 82 59 68
0.28275317 0.072286665 -0.8879652 87 68 72
0.28241503 0.072524637 -0.8879658 85 64 70
0.2835544 0.074088164 -0.89043516 86 69 75
0.28344956 0.073790804 -0.89005476 86 69 75
0.28385082 0.072507635 -0.88892889 94 76 78
0.28316373 0.071318693 -0.88767791 90 77 76
0.28357983 0.071222402 -0.88789517 92 78 76
0.28331521 0.071780413 -0.88805974 90 75 76
0.25230706 0.092270531 -0.9062407 101 74 55
0.25306445 0.091916151 -0.90506947 104 76 58
0.25345707 0.09234935 -0.9055295 104 76 59
0.25541693 0.093311094 -0.9057529 109 82 67
0.25317153 0.092825763 -0.90656626 104 76 58
0.25360343 0.092431672 -0.90556437 105 77 60
0.25445274 0.093010984 -0.9059431 107 79 63
0.25474578 0.092291214 -0.90447873 108 80 64
0.25690222 0.092498511 -0.90398568 111 83 70
0.25605971 0.093119502 -0.9050886 111 83 69
0.25655448 0.092549346 -0.9040845 111 83 70
0.25711852 0.092532866 -0.90403873 112 83 71
0.25804165 0.092082821 -0.90323246 113 84 72
0.25705025 0.092878081 -0.9046402 112 84 71
0.25810173 0.093478359 -0.90581906 112 83 71
0.25651672 0.093907818 -0.90650368 111 83 69
0.25731263 0.093227908 -0.90525162 112 84 71
0.25807294 0.093010195 -0.90490031 112 84 72
0.25922146 0.093545452 -0.90606022 112 82 72
0.25914356 0.093519352 -0.90600151 112 82 72
0.26154786 0.092108786 -0.90446103 115 85 74
0.26278931 0.092171423 -0.90537977 115 85 74
0.25995094 0.093021251 -0.90520853 113 83 73
0.26083288 0.093175255 -0.90608406 113 83 73
0.26079839 0.092232265 -0.90421671 114 84 74
0.261632 0.093089618 -0.90643686 113 83 73
0.26050046 0.092804596 -0.90514243 113 83 73
0.2618078 0.093032472 -0.90643954 113 83 73
0.26442304 0.092170626 -0.90636837 116 85 75
0.24955325 0.089401998 -0.90652049 102 66 44
0.24931008 0.089158222 -0.90660441 102 65 43
0.25051999 0.088670366 -0.90495706 100 65 46
0.25126129 0.08795929 -0.90365684 98 63 48
0.25142077 0.088548899 -0.90391165 98 65 49
0.24962217 0.089105234 -0.90622503 103 66 44
0.25047123 0.088635065 -0.90498352 100 65 46
0.25144058 0.088706896 -0.9040044 99 66 50
0.2513586 0.089923985 -0.90496778 100 69 51
0.25106543 0.088139661 -0.90399492 99 64 48
0.25265783 0.088487558 -0.9027521 99 67 54
0.25278389 0.091014996 -0.9045077 102 74 57
0.25235918 0.08848346 -0.90299875 98 66 53
0.25400892 0.090520896 -0.90324783 105 75 61
0.25277081 0.08951965 -0.90344083 100 70 55
0.25258023 0.091102481 -0.90472108 102 74 56
0.25434873 0.090910338 -0.9032774 106 77 62
0.25308689 0.090336718 -0.90379578 102 73 57
0.26344579 0.09085653 -0.90294051 116 85 75
0.26304269 0.090976685 -0.90295076 116 85 75
0.26287445 0.091063865 -0.90303755 116 85 75
0.26250669 0.09174408 -0.90431851 115 85 74
0.26491085 0.091558583 -0.9053551 117 86 76
0.26459429 0.091201402 -0.90437877 117 86 76
0.26641035 0.091363035 -0.90571481 119 87 80
0.26665881 0.091557667 -0.90630019 119 87 80
0.26578388 0.090120874 -0.90283078 119 87 80
0.26614466 0.090747103 -0.90429318 119 87 80
0.26504526 0.090666756 -0.90348238 118 86 78
0.26541433 0.090662189 -0.90369165 118 87 79
0.26736009 0.090611354 -0.9047417 120 88 82
0.26755011 0.090069361 -0.90377325 120 88 83
0.27032244 0.090051517 -0.9055469 125 94 92
0.2686483 0.090644084 -0.90564698 123 90 86
0.2695455 0.090485133 -0.90590322 124 92 89
0.27101994 0.090317063 -0.90650624 126 95 93
0.27112445 0.088706233 -0.90342551 128 97 97
0.27098811 0.090251081 -0.90635723 126 95 93
0.26960626 0.09059453 -0.90615529 124 92 89
0.26775882 0.091291241 -0.90634704 121 88 82
0.2685034 0.089431927 -0.90313458 122 91 87
0.26903653 0.089283712 -0.90319395 123 92 89
0.26872838 0.090446547 -0.90530795 123 91 87
0.26897651 0.090222239 -0.90502578 123 91 88
0.26805732 0.090445459 -0.90485895 121 89 84
0.27174228 0.088130198 -0.90275902 129 100 99
0.27253291 0.088196523 -0.90462053 130 101 98
0.27272764 0.088935703 -0.90642905 130 101 96
0.27312911 0.088220514 -0.90578353 131 103 97
0.27160928 0.089292824 -0.90503305 128 97 96
0.27218768 0.089541391 -0.90660149 128 98 95
0.24733353 0.084307574 -0.90649641 117 81 52
0.2474781 0.084235832 -0.90630513 116 80 51
0.25088274 0.08561945 -0.90285963 100 64 46
0.24869394 0.084403783 -0.90497613 111 73 46
0.25020924 0.084733523 -0.90319121 103 66 44
0.25062433 0.086354427 -0.90365809 102 67 48
0.25142244 0.08676637 -0.90286672 98 64 48
0.25010723 0.087277047 -0.90460521 102 65 46
0.25071812 0.087651707 -0.90409577 100 64 47
0.24947451 0.085449696 -0.90459436 108 71 47
0.24950461 0.086534038 -0.90496802 105 67 45
0.25011745 0.087801583 -0.90479064 100 63 44
0.24847698 0.085410193 -0.90564042 110 71 44
0.2494303 0.086460844 -0.9050197 105 68 45
0.24807303 0.086256959 -0.90640193 109 69 41
0.27474964 0.08721967 -0.90530336 133 109 99
0.27461728 0.087375492 -0.90619409 132 107 97
0.27460381 0.087346822 -0.9056496 133 108 99
0.27354035 0.087839387 -0.90541738 132 105 99
0.27407032 0.087666519 -0.90570146 133 107 99
0.27422607 0.087338336 -0.90421343 134 110 101
0.27304786 0.08768788 -0.90338516 132 105 101
0.27901101 0.084153436 -0.90580755 113 95 68
0.27694449 0.085541718 -0.90312988 128 109 91
0.27916786 0.084048599 -0.90652221 111 93 66
0.27797902 0.084847622 -0.90534353 119 101 78
0.27909917 0.08409173 -0.90350688 118 97 71
0.2778188 0.084953561 -0.90350318 124 104 82
0.27657491 0.085796326 -0.90399975 128 110 92
0.27617082 0.086069711 -0.90361792 131 112 96
0.27565846 0.086567663 -0.90529108 131 108 96
0.27543125 0.086684167 -0.90454561 134 111 100
0.27724293 0.085355826 -0.90479434 124 105 85
0.27754086 0.085226797 -0.90611029 120 100 79
0.24674879 0.081944712 -0.90615976 118 87 73
0.24772194 0.083874017 -0.90588528 116 79 50
0.24705051 0.081068471 -0.90572315 122 92 77
0.24785964 0.082322948 -0.90535462 120 85 60
0.24683969 0.080557108 -0.90577948 123 95 83
0.24687274 0.080811292 -0.90580809 122 94 81
0.2490714 0.08025068 -0.90349966 115 78 52
0.24870692 0.082284182 -0.90438581 112 73 45
0.24811694 0.08252693 -0.90516454 119 83 55
0.24940224 0.083705328 -0.90373302 107 69 43
0.24881423 0.082770087 -0.90433627 111 72 44
0.24935004 0.082485847 -0.9035809 108 69 43
0.24834543 0.083452135 -0.90507567 113 74 45
0.24937367 0.082068481 -0.90347427 109 69 43
0.28288451 0.08159966 -0.905469 66 42 43
0.2819531 0.082222402 -0.90598625 77 55 47
0.28217646 0.082062185 -0.90560186 75 52 47
0.28168294 0.082367726 -0.90529042 82 59 52
0.28317702 0.081409708 -0.90544087 63 37 41
0.28032732 0.083298109 -0.90661955 97 78 56
0.28068733 0.083008267 -0.90505373 95 73 59
0.28213286 0.082014464 -0.90332329 79 54 54
0.2797299 0.083661519 -0.90341318 110 89 67
0.28166538 0.08233539 -0.90361261 85 60 56
0.28232756 0.081880979 -0.90328515 77 51 53
0.27978811 0.083620578 -0.90282303 111 88 68
0.27978894 0.08362107 -0.90342033 110 88 67
0.28433597 0.080334403 -0.90314132 67 42 51
0.2840831 0.080590606 -0.90423894 63 38 47
0.28416097 0.080553576 -0.90500265 60 37 46
0.28344941 0.081213877 -0.90621316 60 37 39
0.28337038 0.081165195 -0.903422 65 38 48
0.28388581 0.080833696 -0.90606904 59 36 41
0.24537915 0.079807967 -0.90662235 119 96 99
0.24597847 0.079534069 -0.90594029 121 95 92
0.24689974 0.079318009 -0.90513766 124 96 84
0.24656753 0.079257429 -0.90533376 123 95 86
0.24597549 0.078660429 -0.90544933 121 95 92
0.24507061 0.078217357 -0.90585041 117 93 99
0.24792799 0.07995382 -0.90474766 128 98 76
0.24877664 0.076898895 -0.90400606 134 119 91
0.24813785 0.076359071 -0.90461415 149 147 117
0.24812298 0.077620968 -0.90463614 142 130 102
0.2488412 0.078067541 -0.90395147 126 100 75
0.24917331 0.079381719 -0.90343314 117 82 57
0.2491803 0.078892916 -0.90349203 118 85 60
0.24877918 0.079629384 -0.90388429 121 88 63
0.24917181 0.079816319 -0.90337497 115 79 53
0.28690761 0.078740656 -0.90428025 71 50 62
0.2867533 0.078862227 -0.9040575 72 52 62
0.28565514 0.079480872 -0.90655106 56 35 47
0.28571269 0.079446107 -0.90645921 57 36 48
0.28518409 0.079785213 -0.9035809 69 45 54
0.28505594 0.079857379 -0.90361458 68 44 53
0.28591835 0.079362392 -0.90300953 74 52 61
0.28494024 0.079972319 -0.90564448 60 39 46
0.28762683 0.078361109 -0.90387511 79 60 68
0.28749645 0.078368694 -0.9048456 71 51 63
0.2874186 0.078474209 -0.9037534 77 58 67
0.28741014 0.078506596 -0.9032883 80 61 69
0.24774158 0.07478261 -0.90468776 145 143 123
0.24835223 0.074287839 -0.90463269 141 138 118
0.24927352 0.074017681 -0.90403551 130 116 96
0.24834719 0.072808079 -0.90474361 136 132 120
0.2485321 0.073623106 -0.90456057 137 131 115
0.24812016 0.075844891 -0.90467477 150 150 120
0.24864031 0.073657766 -0.90448558 136 129 112
0.24898504 0.07583151 -0.90391117 136 123 96
0.24818006 0.076115333 -0.90459079 149 148 118
0.248918 0.075262196 -0.9041577 138 128 102
0.24832606 0.071870029 -0.90494347 137 135 126
0.25331634 0.095822848 -0.91052508 103 75 57
0.25669277 0.095885433 -0.90999329 110 83 67
0.256448 0.095909677 -0.91000068 109 83 66
0.24849854 0.092059694 -0.90982383 98 63 39
0.25085926 0.092086367 -0.90736687 99 69 49
0.25158268 0.093331002 -0.90822476 100 71 51
0.25153029 0.092398785 -0.90714335 100 71 52
0.25172135 0.093174346 -0.90788805 100 71 52
0.24965522 0.092779003 -0.90957677 99 66 43
0.25087631 0.093844645 -0.90959305 99 69 48
0.24871838 0.09269584 -0.91045958 98 63 39
0.25031102 0.093490489 -0.90975517 99 67 46
0.2515291 0.094763152 -0.91002703 99 70 50
0.25411236 0.094707295 -0.90839684 106 78 61
0.25438011 0.095490769 -0.90951663 106 79 61
0.2549051 0.095531449 -0.90937889 107 80 63
0.25204366 0.095554836 -0.91051203 100 71 52
0.25276095 0.095374495 -0.90995574 102 73 55
0.25217634 0.09497688 -0.9097265 100 72 53
0.25246754 0.093785428 -0.90812314 101 73 55
0.25451693 0.09404891 -0.90738255 107 79 63
0.25220418 0.092473835 -0.90666062 101 73 54
0.25294504 0.094059482 -0.90820986 103 74 57
0.25455597 0.094025046 -0.9073332 107 79 63
0.25224546 0.094543613 -0.90916252 101 72 53
0.25869361 0.093968436 -0.90683097 111 82 71
0.25972059 0.094300151 -0.90756148 112 82 72
0.25744152 0.094180837 -0.90711612 111 83 70
0.25843704 0.094586141 -0.9079839 112 83 71
0.25922528 0.095199376 -0.90922827 112 82 71
0.25698736 0.094337963 -0.90737218 111 83 69
0.25831529 0.095316738 -0.90928125 112 83 70
0.25725695 0.095402636 -0.90915549 111 83 69
0.25714561 0.095606379 -0.90944606 111 83 68
0.25602862 0.094117455 -0.90684879 111 83 69
0.25991702 0.095143184 -0.90926182 112 82 72
0.26032448 0.094183728 -0.90769547 112 82 72
0.26129344 0.094905019 -0.90967935 113 83 72
0.26108503 0.094184563 -0.90818268 112 82 73
0.26095521 0.094402365 -0.908512 112 82 73
0.261507 0.094196856 -0.9084754 112 82 73
0.26307008 0.094258457 -0.90958703 113 83 73
0.2609084 0.093718909 -0.90718341 112 82 73
0.26352739 0.092945263 -0.90737057 114 84 73
0.260234 0.09382055 -0.90694892 112 82 73
0.26304576 0.093819134 -0.90873277 113 83 73
0.26301163 0.092948414 -0.90704888 114 84 73
0.26327834 0.093019754 -0.90735447 114 84 73
0.26621819 0.091856197 -0.90678436 118 86 78
0.26669365 0.092477985 -0.90870023 119 86 78
0.26687574 0.092139259 -0.90798682 119 86 79
0.26453826 0.092532016 -0.90730011 116 85 75
0.26502502 0.092390187 -0.90729368 116 85 76
0.26430345 0.093704358 -0.90940356 115 84 74
0.26405615 0.092569321 -0.90704399 115 85 74
0.2660802 0.093558155 -0.91050869 117 85 77
0.26626462 0.093019657 -0.90962434 118 86 77
0.26697719 0.093040295 -0.91021889 119 86 79
0.26516113 0.093000144 -0.90872735 116 85 76
0.26794586 0.092732623 -0.91048419 120 87 80
0.26765287 0.092464134 -0.90940136 120 87 80
0.24779052 0.091483906 -0.9099806 98 63 39
0.24760598 0.088765062 -0.90829682 103 66 43
0.24728945 0.08945556 -0.90921646 101 67 45
0.24796559 0.089616202 -0.90837634 101 64 39
0.24799477 0.090897307 -0.90921599 99 62 38
0.24674316 0.089008227 -0.90967703 102 71 50
0.2479881 0.08801654 -0.9072451 104 65 40
0.24829705 0.088078372 -0.90690434 103 63 39
0.24811319 0.091235705 -0.90929812 98 62 38
0.24880736 0.089408986 -0.90729976 101 64 40
0.24978411 0.090422779 -0.9070096 100 66 45
0.24857928 0.090725712 -0.9084605 99 63 40
0.24866141 0.090428181 -0.90816677 100 63 40
0.24918225 0.090397969 -0.90761042 100 65 42
0.24924035 0.091061637 -0.90801764 99 65 43
0.26811263 0.091564886 -0.90763009 121 88 82
0.27051258 0.090986699 -0.91012698 125 91 87
0.26958883 0.091490902 -0.90979213 123 89 85
0.2695713 0.091508225 -0.90980303 123 89 85
0.26955086 0.090963766 -0.90823895 124 91 86
0.2704213 0.090707377 -0.908629 125 92 88
0.26899216 0.09107656 -0.90718299 123 90 86
0.27079773 0.090593122 -0.90874523 126 93 90
0.27020022 0.09076418 -0.90840065 125 92 88
0.26886329 0.091152184 -0.90771133 123 90 84
0.27337047 0.088186599 -0.90879542 130 100 92
0.27257639 0.089033358 -0.90803027 129 98 93
0.27305123 0.088538691 -0.90838373 130 99 93
0.27346614 0.088266559 -0.90726453 131 103 96
0.27269614 0.088884369 -0.91021454 129 96 89
0.27150425 0.090432204 -0.91010565 127 94 90
0.27268827 0.088882685 -0.91002858 129 96 90
0.2718097 0.089944683 -0.90871948 127 95 92
0.24759574 0.085877419 -0.90680617 112 74 47
0.24745287 0.086958818 -0.90730488 108 72 49
0.24778889 0.087444492 -0.90716165 106 68 43
0.24595302 0.084746487 -0.90792936 116 90 71
0.24661201 0.084757403 -0.90733641 116 85 62
0.24643415 0.085597314 -0.90777582 113 83 64
0.24648952 0.085127465 -0.90756994 114 85 63
0.24535574 0.086364537 -0.90958965 109 86 72
0.24510458 0.086489245 -0.91004646 109 87 73
0.24475548 0.08496628 -0.90927029 115 96 86
0.24474455 0.085064515 -0.90936738 114 96 86
0.24516988 0.086727358 -0.91015273 108 85 71
0.24544312 0.086095929 -0.90924335 111 87 73
0.24640018 0.086976543 -0.90863043 107 78 59
0.24509259 0.086634934 -0.91017663 108 86 73
0.27429146 0.087441497 -0.90949088 128 99 89
0.27383721 0.087691322 -0.91007566 129 98 89
0.27443862 0.087344758 -0.91023642 126 96 86
0.27367303 0.087820046 -0.90970558 130 99 90
0.27528879 0.086922713 -0.90676713 131 104 94
0.27412573 0.087578386 -0.9087643 130 101 92
0.27847558 0.084538817 -0.90921599 99 78 58
0.27586424 0.08650925 -0.90665901 128 103 91
0.27795681 0.084950514 -0.90701741 115 94 73
0.27912542 0.084076889 -0.90747988 106 88 61
0.27859965 0.08444953 -0.90897691 100 79 58
0.27783266 0.085045345 -0.90680075 117 96 75
0.27709642 0.085584871 -0.9074173 117 94 77
0.27770343 0.085091516 -0.91039282 101 78 61
0.27552179 0.086717993 -0.9093942 122 96 85
0.27873167 0.084332488 -0.91041571 92 71 50
0.27697435 0.085652128 -0.90904868 111 87 72
0.27700058 0.085629135 -0.90926504 110 86 71
0.27786198 0.084972858 -0.91049165 99 77 59
0.24155313 0.082235724 -0.90999299 99 74 71
0.24265738 0.081196249 -0.90866941 106 80 84
0.24159487 0.081358366 -0.90905666 100 73 72
0.24334553 0.081213027 -0.90846658 109 85 92
0.24259362 0.080956049 -0.90859413 105 79 84
0.24327286 0.080989324 -0.90840054 108 84 91
0.24450833 0.081741109 -0.90815002 117 97 99
0.24474297 0.081103832 -0.90771812 117 95 99
0.24488924 0.08107686 -0.90759492 118 96 99
0.24514848 0.082437009 -0.90787435 119 99 92
0.24474211 0.082608797 -0.90830112 119 101 97
0.24500801 0.083010256 -0.90819812 119 99 91
0.24585372 0.083306074 -0.907534 119 93 77
0.24539809 0.083839357 -0.90812939 119 96 80
0.28310716 0.081858903 -0.90971488 63 43 37
0.28139022 0.082660221 -0.90904802 73 51 40
0.2830472 0.081760839 -0.9086352 62 41 37
0.2829653 0.081896469 -0.90941983 63 43 38
0.28090966 0.083018892 -0.90998781 76 56 41
0.28243983 0.082206301 -0.90975702 67 47 39
0.28044942 0.083184741 -0.90935647 79 58 42
0.28051087 0.083176859 -0.90692371 93 73 54
0.28175935 0.082357466 -0.90796542 71 48 40
0.28167659 0.08242508 -0.90687734 78 57 46
0.28120467 0.082712531 -0.90818971 76 55 43
0.2807501 0.083010986 -0.90780222 84 64 48
0.28328601 0.08174029 -0.90975982 62 42 37
0.2833527 0.081432804 -0.90768617 60 38 37
0.28337908 0.081639908 -0.90962142 61 41 37
0.2431998 0.080041938 -0.90802598 107 79 91
0.24529812 0.079853117 -0.90671885 119 95 99
0.28621352 0.079113699 -0.90701371 55 34 49
0.28690505 0.078614593 -0.90682781 55 34 52
0.28685781 0.078646041 -0.90680695 55 34 52
0.25194114 0.10072365 -0.93330806 99 73 55
0.25186515 0.10053143 -0.93148458 101 68 50
0.2508769 0.10006607 -0.93315011 96 70 55
0.25075096 0.099995881 -0.93316275 96 70 56
0.25108373 0.10011624 -0.93260556 96 69 54
0.25507754 0.099851288 -0.93270504 98 70 52
0.25427198 0.099632002 -0.93381906 97 73 56
0.25479105 0.10048 -0.9315908 100 70 51
0.25512818 0.10034396 -0.93150038 100 70 51
0.25383011 0.10038011 -0.93279344 99 72 54
0.25463656 0.10056414 -0.93159002 100 70 51
0.2535257 0.10062037 -0.93078536 101 68 49
0.25213802 0.10049971 -0.93008631 102 65 47
0.25282431 0.10055886 -0.93042511 102 66 48
0.25282881 0.10061748 -0.93120366 101 68 50
0.25256363 0.10057353 -0.93079144 102 67 48
0.25652599 0.09985245 -0.93093967 98 66 48
0.25623736 0.10032453 -0.93028378 100 66 48
0.24586633 0.097186603 -0.93204325 89 67 62
0.24765195 0.097173244 -0.93019956 90 74 63
0.24710755 0.097473726 -0.93121642 89 70 61
0.24628618 0.097497389 -0.93217099 88 67 61
0.24704163 0.097912528 -0.93268043 88 66 59
0.24687625 0.097921439 -0.93288583 88 65 59
0.24755365 0.098338038 -0.93348348 88 64 58
0.24737483 0.097486474 -0.93097067 89 71 61
0.24933766 0.09916462 -0.93255866 92 64 54
0.25044295 0.099550933 -0.93094379 95 64 50
0.24875423 0.098172382 -0.93061697 91 69 57
0.24830434 0.09871354 -0.93348825 89 64 56
0.24913037 0.098689616 -0.93129569 92 66 54
0.24871452 0.098219275 -0.93086761 91 69 57
0.2489747 0.098472722 -0.93100584 91 67 55
0.25500044 0.09960603 -0.93337822 96 70 53
0.25906011 0.098815486 -0.93045586 92 58 45
0.2582466 0.099053055 -0.93088299 93 61 46
0.25944453 0.098692872 -0.93030006 91 57 45
0.25682789 0.099302992 -0.93234873 95 65 48
0.25905696 0.098484725 -0.93361801 88 55 43
0.25673333 0.099108674 -0.93373561 93 64 49
0.25665739 0.099142313 -0.93359274 93 65 49
0.2582835 0.098819986 -0.93224549 91 60 46
0.25812775 0.09879823 -0.93295693 91 60 46
0.25921521 0.098599851 -0.93186587 90 56 44
0.26231647 0.095843688 -0.93254548 82 51 41
0.26126698 0.097118236 -0.93075711 88 55 44
0.26107448 0.097053751 -0.93212664 84 53 41
0.26143095 0.096704647 -0.932257 83 52 41
0.26119399 0.096983738 -0.93190277 84 53 41
0.26252419 0.095971122 -0.93073833 87 54 45
0.26012111 0.098034449 -0.93232286 87 53 42
0.25993228 0.098266639 -0.93195248 88 54 42
0.26082867 0.09724085 -0.93286526 84 52 40
0.2618109 0.096128181 -0.93374014 79 50 38
0.26108554 0.096916579 -0.93346238 82 51 39
0.26257083 0.095456161 -0.93349111 78 50 38
0.26259577 0.095479533 -0.93320829 79 50 39
0.26330176 0.095222212 -0.93099773 84 51 42
0.26322231 0.095387734 -0.93045342 86 53 44
0.26467544 0.093755849 -0.9311288 83 52 42
0.26429239 0.094229296 -0.9309243 84 52 42
0.26557389 0.092561148 -0.93244398 80 52 40
0.26428413 0.094270527 -0.93061173 84 52 43
0.26402813 0.094617829 -0.93016881 85 52 44
0.26441529 0.094123714 -0.93053031 84 52 43
0.26401028 0.094084024 -0.93383121 74 51 38
0.26555637 0.092402562 -0.93382156 78 52 38
0.26488653 0.093133427 -0.93381083 76 52 38
0.26379842 0.094533637 -0.93245149 78 51 40
0.2646699 0.09353447 -0.93276983 79 52 39
0.26649085 0.091235399 -0.93353409 78 56 44
0.26677617 0.091122746 -0.93227804 78 54 47
0.26689222 0.090496808 -0.93366647 78 61 52
0.26757419 0.089921549 -0.93166614 77 61 62
0.26658505 0.091444172 -0.93159008 78 53 46
0.26661235 0.091415972 -0.93154377 78 53 46
0.26837623 0.088205606 -0.93322498 81 78 80
0.26895049 0.088592246 -0.93041682 83 62 65
0.26826411 0.08883556 -0.9319526 80 70 72
0.26784408 0.089801714 -0.93078327 78 60 64
0.26912767 0.088008761 -0.931364 84 69 71
0.26776761 0.089200333 -0.93300337 78 70 69
0.26763532 0.089373067 -0.93313724 78 68 66
0.26882103 0.086385913 -0.93345946 86 78 80
0.27006695 0.084054708 -0.93039244 82 66 77
0.26923302 0.084310941 -0.93342501 95 71 73
0.26936054 0.084751382 -0.93260098 89 71 76
0.26997691 0.084355883 -0.9305144 81 67 78
0.26902166 0.087793611 -0.93204391 84 73 75
0.26920187 0.086393185 -0.93207467 82 74 80
0.26875764 0.087658897 -0.93293369 82 78 80
0.26998726 0.084653221 -0.93034273 81 66 77
0.26916984 0.08685784 -0.9319768 82 74 78
0.2744804 0.084511958 -0.93123621 97 77 66
0.27461538 0.084582962 -0.93129039 97 76 64
0.27386314 0.084202066 -0.93342918 114 92 83
0.27471235 0.084878661 -0.93275058 98 75 62
0.27390823 0.084068358 -0.9309566 102 84 76
0.27578291 0.085489161 -0.93365866 92 65 50
0.27724394 0.085319273 -0.93282241 90 65 47
0.27885562 0.085110649 -0.93164074 88 65 43
0.27764621 0.085342534 -0.933447 89 65 47
0.2760143 0.085453637 -0.93342108 92 65 49
0.27640203 0.084900282 -0.93085927 94 71 53
0.27637148 0.08531139 -0.93264419 92 66 49
0.27714121 0.084849656 -0.93038434 93 70 51
0.27747661 0.085050166 -0.93113333 91 67 47
0.27616176 0.08497104 -0.93124801 95 71 53
0.2808688 0.084939636 -0.93349504 95 74 57
0.28073451 0.08493568 -0.93321443 96 76 58
0.28074905 0.08491765 -0.93306094 97 77 59
0.28185028 0.084707603 -0.93294561 101 81 66
0.2816048 0.084590949 -0.93126738 109 91 72
0.28063664 0.08472649 -0.93057394 100 80 59
0.28008777 0.085037723 -0.93304205 94 74 54
0.28007635 0.084916063 -0.9315294 95 74 53
0.28049365 0.084815629 -0.93131536 99 78 58
0.28107575 0.084628999 -0.93044883 104 85 65
0.26335102 0.1039317 -0.94768775 85 60 47
0.26197159 0.10426244 -0.94641364 83 59 46
0.26202166 0.10456429 -0.94643509 82 58 45
0.26449138 0.10450531 -0.9495365 88 62 47
0.26279947 0.10171381 -0.94704396 88 61 45
0.26147276 0.10303089 -0.94597352 87 62 47
0.26268592 0.10186464 -0.9469561 88 61 45
0.26298633 0.10097441 -0.94714016 89 61 44
0.26278299 0.10105453 -0.94696414 88 61 44
0.26180625 0.10105398 -0.94602001 89 60 44
0.26121956 0.10314807 -0.94574666 87 62 47
0.26161167 0.10189396 -0.94594991 88 61 45
0.26398981 0.10014431 -0.94869566 89 60 42
0.2641848 0.10109054 -0.94909024 89 61 44
0.2641705 0.10132571 -0.94893205 89 61 44
0.26436654 0.10337945 -0.94924176 89 63 48
0.26376465 0.10312673 -0.94813859 88 62 48
0.26326284 0.098781392 -0.94739449 90 58 41
0.26200449 0.09952563 -0.94602484 91 59 42
0.26221433 0.099588089 -0.94621593 91 59 42
0.2630862 0.097467147 -0.94748592 90 56 40
0.26204616 0.095908009 -0.94602627 85 50 37
0.2630046 0.096876137 -0.94748878 89 54 39
0.26277578 0.095764168 -0.94709188 86 51 37
0.26180699 0.097247295 -0.94574708 87 53 39
0.2628167 0.097134531 -0.94722641 89 54 39
0.26396495 0.097263828 -0.94921064 89 55 38
0.26373893 0.098661177 -0.94808871 89 58 40
0.26374829 0.097704828 -0.948318 89 56 39
0.26381132 0.09774635 -0.94856685 88 56 39
0.25949034 0.092589706 -0.94620091 83 45 25
0.26143116 0.095230527 -0.94574827 84 48 34
0.26065728 0.094483346 -0.94570643 85 47 30
0.26065677 0.092529237 -0.94734234 78 42 25
0.26154754 0.09318421 -0.94762921 74 41 26
0.26031542 0.091804788 -0.94764638 77 41 22
0.26144975 0.093475044 -0.94728047 76 43 28
0.2617552 0.093621165 -0.94744754 75 42 28
0.26152745 0.093420886 -0.94740283 75 42 27
0.26346606 0.095103681 -0.94858867 85 50 35
0.26234344 0.093611486 -0.94814378 73 41 27
0.26301488 0.095111713 -0.94791847 83 49 34
0.26219159 0.094034582 -0.94757825 75 42 29
0.26301652 0.094743438 -0.9482187 81 47 33
0.26353467 0.094958387 -0.94883519 84 49 33
0.26376191 0.09487126 -0.94944257 84 48 31
0.26745236 0.10354482 -0.95454788 77 38 33
0.26698601 0.1042346 -0.95388275 80 46 39
0.26845849 0.10361326 -0.95712024 80 44 43
0.26810732 0.10427228 -0.95598924 80 43 39
0.26759252 0.10432704 -0.95462126 80 42 37
0.2674911 0.10216659 -0.95463938 78 40 30
0.26757064 0.10203029 -0.95474106 78 40 29
0.26677045 0.10260361 -0.95375162 78 45 34
0.26690584 0.10001428 -0.9540751 81 45 24
0.26642564 0.10024237 -0.95354569 80 45 24
0.26763037 0.099613182 -0.95496839 81 46 24
0.26833752 0.10119966 -0.95688838 81 46 34
0.26851472 0.10095255 -0.95739359 81 46 35
0.26775119 0.10160075 -0.95524234 80 42 30
0.26760811 0.10279398 -0.9548108 78 38 31
0.26806137 0.10281879 -0.95606488 79 42 37
0.26773295 0.10148952 -0.95519519 80 42 30
0.26695326 0.097875021 -0.95477527 84 47 28
0.26748672 0.096937537 -0.95568186 86 48 32
0.26732978 0.098438114 -0.9549762 83 46 27
0.26674542 0.096441984 -0.95489854 86 49 32
0.26652399 0.09836629 -0.95407814 83 46 26
0.26660141 0.09784694 -0.95432335 84 47 28
0.26591045 0.095826939 -0.95393896 86 50 33
0.26830286 0.097339764 -0.95737863 84 49 34
0.26821828 0.097377285 -0.95720798 84 49 34
0.26766324 0.096388288 -0.95621496 86 49 34
0.26776096 0.098597035 -0.9556967 83 47 28
0.26759067 0.098203667 -0.95536113 84 47 28
0.26805177 0.09885487 -0.95641828 82 47 29
0.26634163 0.095434397 -0.95477575 85 49 33
0.26735246 0.094649993 -0.95678622 79 45 31
0.26675361 0.094156735 -0.95629686 76 43 29
0.26628393 0.094493017 -0.95538539 78 44 29
0.266927 0.093073338 -0.95730156 69 37 25
0.26637605 0.092523232 -0.95689029 65 35 22
0.26601493 0.093537733 -0.95562929 72 40 26
0.26583293 0.093118258 -0.95494562 70 39 24
0.26592413 0.092404738 -0.95541847 65 35 22
0.26559371 0.094254978 -0.95380878 77 44 28
0.26565024 0.094159968 -0.95405304 77 44 28
0.26575232 0.094449826 -0.95442867 78 45 29
0.2676208 0.095456764 -0.95650846 86 48 35
0.25949532 0.089502171 -0.95412308 53 30 21
0.25789532 0.088021889 -0.95378911 45 25 18
0.25949779 0.087942377 -0.95607066 66 36 25
0.2728982 0.10755622 -0.97354949 70 39 32
0.27265197 0.1081229 -0.97417593 65 38 31
0.27230793 0.10960798 -0.97556365 56 36 30
0.27259621 0.10908869 -0.97491896 61 38 32
0.27252269 0.11049608 -0.9759745 56 38 32
0.27366501 0.11048049 -0.97316295 80 50 40
0.27225757 0.10366342 -0.97479433 67 45 36
0.27179244 0.10400989 -0.97572243 58 36 26
0.27205655 0.10434778 -0.97496712 63 40 32
0.2719546 0.10505947 -0.97489911 61 38 30
0.27163452 0.10606413 -0.97521067 55 31 23
0.2716521 0.10393582 -0.97607875 56 33 22
0.27265695 0.10624376 -0.97364229 70 43 36
0.2728444 0.10535713 -0.97338134 75 49 42
0.27242655 0.10532185 -0.97382671 70 45 39
0.27251816 0.10602514 -0.97377616 69 43 36
0.27059481 0.10040259 -0.97473872 45 26 17
0.26909649 0.10097957 -0.97489613 42 25 16
0.27018824 0.10089674 -0.97497696 45 26 17
0.27019742 0.10153311 -0.97534668 46 27 17
0.2709536 0.10262312 -0.97606725 50 29 18
0.26981208 0.099733323 -0.97425872 42 25 16
0.2690151 0.10178366 -0.9754951 48 28 15
0.26773188 0.10045851 -0.97456801 42 25 14
0.26882461 0.10144784 -0.97524995 46 27 15
0.26987195 0.10264812 -0.97609836 51 29 16
0.26906475 0.10161307 -0.97535944 46 27 16
0.26893204 0.10115609 -0.9750163 43 26 16
0.26986 0.10258656 -0.97605169 51 29 16
0.27163672 0.10296588 -0.97618693 54 32 20
0.27178863 0.10197537 -0.97547263 54 32 21
0.27191308 0.10007914 -0.97425908 53 32 22
0.27263564 0.1016417 -0.97385824 69 45 36
0.27291939 0.10012084 -0.97310084 69 44 35
0.27225769 0.10231026 -0.97477704 63 40 30
0.27250421 0.10107712 -0.97412485 64 40 30
0.2723161 0.10194787 -0.9746179 63 40 30
0.27248403 0.10271552 -0.97428024 69 46 37
0.26813436 0.098992191 -0.97377181 40 26 18
0.2677896 0.098814301 -0.9733054 38 24 16
0.27033263 0.097681515 -0.97370631 52 34 26
0.2703476 0.098930903 -0.97405928 46 28 20
0.26877004 0.098778792 -0.97383028 43 28 19
0.27118957 0.096030541 -0.97334331 61 43 35
0.27141336 0.095845096 -0.97331762 63 44 36
0.27123117 0.096450381 -0.97346622 59 41 33
0.27238664 0.099590406 -0.97354299 59 37 27
0.27232566 0.099336736 -0.97352755 60 37 28
0.2670323 0.073056228 -0.88298881 126 95 88
0.2665211 0.072742857 -0.88297135 126 95 87
0.26895538 0.072922498 -0.88266248 124 97 87
0.26961097 0.072850741 -0.88259411 123 98 86
0.26826409 0.073190331 -0.88285643 125 97 88
0.26955676 0.073175035 -0.88280207 124 98 87
0.26950875 0.073794529 -0.88319778 125 99 88
0.26996264 0.073568441 -0.88303846 124 99 87
0.27286685 0.072341546 -0.88260984 118 94 77
0.27201256 0.072764724 -0.88262957 121 99 82
0.26540709 0.07207337 -0.88298243 126 93 85
0.26569334 0.070424162 -0.88211483 125 91 81
0.26513219 0.071413219 -0.88279265 125 92 83
0.26698321 0.072007954 -0.88239115 125 95 86
0.26733026 0.070791781 -0.88178152 120 91 82
0.27057123 0.06985686 -0.88115501 113 92 77
0.27079898 0.068393022 -0.88047665 108 89 74
0.26893884 0.068612657 -0.88073921 110 85 74
0.271249 0.068433411 -0.88045514 108 90 74
0.27021325 0.068735018 -0.88068205 109 88 74
0.26920289 0.06905029 -0.88091278 111 86 75
0.26964286 0.072213531 -0.88220131 123 98 85
0.27070892 0.072019719 -0.88208735 121 99 83
0.26868579 0.069638379 -0.88121361 114 87 77
0.27103299 0.071836047 -0.88200325 120 98 82
0.26919568 0.070330746 -0.88147038 116 90 78
0.27457997 0.07114049 -0.88254297 102 76 63
0.27389666 0.071520098 -0.88251847 108 82 68
0.27373937 0.071861468 -0.88262993 111 86 71
0.27238601 0.071724907 -0.88217181 114 91 76
0.27339277 0.071241528 -0.88224286 107 82 69
0.27169228 0.07223101 -0.88220268 121 99 81
0.27215385 0.070105322 -0.88137424 108 87 72
0.27231929 0.069186434 -0.88100743 103 83 69
0.27329266 0.070163503 -0.88171989 99 75 64
0.27303761 0.068501309 -0.8809008 95 73 62
0.27381513 0.069517881 -0.88157612 92 67 58
0.27157253 0.070963345 -0.88159704 116 96 79
0.27575469 0.071551718 -0.88315624 103 74 63
0.2754764 0.070578739 -0.88256115 95 66 57
0.27561069 0.070352212 -0.88252896 93 64 56
0.27128333 0.067159772 -0.88003737 94 75 62
0.27101439 0.066768326 -0.87993354 91 71 59
0.26860389 0.065212637 -0.8796351 82 58 55
0.26998827 0.066139258 -0.87981558 87 66 58
0.26987439 0.065089852 -0.87948895 75 52 47
0.26812935 0.065783046 -0.87986088 88 62 59
0.27065444 0.068145774 -0.88040489 106 87 72
0.26889673 0.067974031 -0.88050395 106 81 71
0.2687279 0.066190012 -0.87994015 91 67 61
0.26983282 0.067937039 -0.88040954 105 83 71
0.26892722 0.06805107 -0.88052624 106 82 72
0.27362102 0.06452927 -0.87988263 62 42 33
0.27150786 0.065985538 -0.87966001 80 59 50
0.27218768 0.065391846 -0.87969118 73 52 43
0.27396941 0.064807892 -0.88007927 65 46 36
0.27199501 0.06776198 -0.88037688 100 83 67
0.27384189 0.064827234 -0.88004446 65 46 36
0.27244872 0.066744737 -0.88020176 88 70 57
0.27461907 0.068048425 -0.88119519 80 55 48
0.27380225 0.067807794 -0.88089991 86 64 54
0.27496213 0.06755279 -0.88115525 75 51 44
0.27452031 0.066614985 -0.88077366 76 55 45
0.27491313 0.067838371 -0.88121992 77 51 46
0.27380902 0.066786967 -0.88062137 82 63 51
0.27604684 0.067616276 -0.88161105 70 43 43
0.27576378 0.065481901 -0.88088745 63 42 36
0.27581963 0.065416962 -0.88089663 63 42 36
0.26615059 0.061830118 -0.87956852 87 51 43
0.2660315 0.062477633 -0.87972635 92 59 50
0.26933521 0.06436222 -0.87931585 70 45 43
0.27248824 0.0644219 -0.87949604 60 39 33
0.25847968 0.084234506 -0.89470387 109 80 72
0.25842848 0.08415509 -0.89465868 109 79 72
0.26086751 0.084343575 -0.89355856 114 84 75
0.26056227 0.084881634 -0.89420575 114 84 75
0.26137924 0.085138373 -0.89427614 115 85 76
0.26312548 0.084687829 -0.89321691 119 86 79
0.26262385 0.085797325 -0.89481217 118 86 77
0.26161537 0.084933065 -0.89394271 116 85 77
0.26251647 0.084739745 -0.89344776 117 86 78
0.26460543 0.085265204 -0.89386606 121 89 83
0.26530907 0.084145337 -0.89241689 122 91 86
0.26376292 0.085853696 -0.89461017 120 87 79
0.26500514 0.084061958 -0.89229584 122 90 85
0.26684037 0.084981687 -0.89384723 124 93 91
0.26650533 0.084957056 -0.89370906 123 92 90
0.26596716 0.085458785 -0.89444602 122 90 87
0.26382598 0.086021826 -0.89483941 120 87 79
0.2668533 0.084793553 -0.89351761 124 93 92
0.26838136 0.084144704 -0.8930375 127 99 97
0.26922318 0.084106162 -0.89345634 130 103 100
0.26765344 0.084518023 -0.89327765 125 95 95
0.26863757 0.084366307 -0.89357829 128 100 98
0.26808628 0.084916607 -0.89423412 126 96 95
0.27099398 0.084284246 -0.8948065 133 111 105
0.25964344 0.081597812 -0.89199734 115 86 78
0.25776452 0.080385812 -0.89277118 104 72 69
0.25873053 0.08217781 -0.89322066 108 78 71
0.25904506 0.082867675 -0.89344454 109 79 72
0.25864339 0.080968305 -0.89241725 109 79 73
0.25739482 0.080627941 -0.89327472 101 69 67
0.25916594 0.081400812 -0.89226955 112 82 76
0.25925934 0.081922926 -0.89256692 112 82 75
0.25924107 0.082178108 -0.89276892 111 82 74
0.25853887 0.083353348 -0.89410639 107 78 70
0.25743365 0.083035283 -0.89466876 104 73 68
0.2584933 0.083727159 -0.89432061 109 79 71
0.25768223 0.081935287 -0.89396405 101 70 66
0.25705916 0.082657941 -0.89473468 102 70 67
0.26168302 0.081759721 -0.89126867 118 87 80
0.26194635 0.081669539 -0.89107579 119 87 80
0.26365045 0.082954071 -0.89132702 120 87 80
0.26040486 0.081567243 -0.89164573 116 87 79
0.26198748 0.083329834 -0.89231128 117 86 78
0.26071501 0.083327658 -0.89279026 115 85 76
0.26148227 0.083166733 -0.89238518 116 86 78
0.26073748 0.081864417 -0.89173305 117 87 79
0.25987226 0.082286641 -0.89236242 115 85 77
0.26092964 0.083465405 -0.8928079 115 85 76
0.26695707 0.083696082 -0.89202297 125 95 93
0.26633292 0.083067596 -0.89142656 124 94 91
0.26591429 0.083875366 -0.89213949 123 92 89
0.26460129 0.083721682 -0.89196771 121 89 83
0.2646468 0.083575062 -0.89185166 121 89 84
0.2704269 0.083019279 -0.89263594 134 110 104
0.26879969 0.082622021 -0.89139497 130 103 100
0.26786691 0.082680181 -0.89113092 127 99 96
0.27012646 0.083009273 -0.89250594 133 109 103
0.27040184 0.082392119 -0.89164495 134 111 105
0.27069291 0.082339577 -0.89167356 135 112 106
0.26799709 0.083735198 -0.89228833 127 99 97
0.26868349 0.083702572 -0.89265376 129 102 99
0.26941243 0.08394976 -0.89331609 130 105 101
0.27174553 0.083479442 -0.89396566 136 115 107
0.27368486 0.082240701 -0.89335203 137 115 104
0.27339125 0.082705595 -0.89388645 136 115 104
0.27187005 0.083009183 -0.89331651 136 115 108
0.27241275 0.082835019 -0.89341539 136 115 106
0.2735301 0.082275525 -0.89330029 137 115 104
0.27430472 0.082795158 -0.89465994 136 115 102
0.27372462 0.081348196 -0.89179975 134 108 102
0.27518785 0.08175765 -0.89348572 134 108 98
0.27395403 0.082051992 -0.89320749 136 114 103
0.27539027 0.080932245 -0.89214218 132 100 95
0.27329156 0.081289023 -0.8914116 135 108 103
0.27449098 0.080818079 -0.89135176 132 101 98
0.27513278 0.081546992 -0.89307326 134 106 98
0.27923197 0.080366641 -0.89468968 92 58 67
0.27663124 0.080464952 -0.89245391 118 83 85
0.27729914 0.080492117 -0.89311993 111 77 81
0.27586854 0.082039207 -0.89456296 130 106 95
0.27795339 0.080923386 -0.89449573 106 75 77
0.27587444 0.081723988 -0.89400494 129 103 94
0.27585858 0.080636263 -0.8920458 126 92 91
0.25572824 0.076725014 -0.89294297 90 60 63
0.25558171 0.076916702 -0.89329588 88 58 60
0.25624764 0.076518551 -0.89208919 98 69 70
0.25590047 0.076964527 -0.89275938 92 62 65
0.25682548 0.077823497 -0.89206725 103 74 73
0.25750378 0.079615265 -0.8925088 103 72 70
0.25734255 0.079820082 -0.89277065 102 70 68
0.25822496 0.078903072 -0.89145619 111 81 77
0.25895214 0.079692073 -0.89127129 114 84 79
0.25768775 0.078685381 -0.89180511 107 78 75
0.25659791 0.079074576 -0.89299625 98 67 67
0.27881843 0.079140373 -0.89247113 92 60 69
0.27616078 0.080002353 -0.89119786 122 87 88
0.27844372 0.079452723 -0.89256305 97 65 72
0.27733436 0.079116382 -0.89104128 107 75 79
0.27864516 0.078362055 -0.89120108 92 61 69
0.27904427 0.07906352 -0.89257425 90 58 67
0.27939638 0.079357333 -0.89337587 88 56 65
0.27997947 0.079673648 -0.89456052 86 54 64
0.2804462 0.07883051 -0.89379632 83 54 64
0.28160483 0.07803154 -0.89384204 78 53 65
0.28014299 0.078049757 -0.89229852 82 53 64
0.27985159 0.079442248 -0.89407575 86 54 64
0.28085434 0.079087853 -0.89462125 82 54 65
0.28157514 0.078170776 -0.89401913 78 53 65
0.28023386 0.077673882 -0.89181656 81 53 64
0.28163844 0.077212349 -0.8925584 78 54 65
0.28154707 0.076927058 -0.89197671 79 55 65
0.28154099 0.076595925 -0.89141005 79 56 65
0.28044575 0.077094376 -0.89106596 82 55 64
0.28292686 0.076912083 -0.8933574 76 56 67
0.28296223 0.076990992 -0.89353848 75 55 67
0.28405732 0.076595202 -0.89398283 82 64 71
0.28336677 0.077403896 -0.89472449 74 55 67
0.28333983 0.0770014 -0.89392281 76 57 68
0.25575057 0.075442716 -0.89253122 87 59 63
0.25664797 0.075790524 -0.8912859 103 76 75
0.2568506 0.075817153 -0.89102077 106 80 78
0.2827988 0.075240768 -0.89102608 80 62 70
0.28512019 0.075964257 -0.89423352 91 73 76
0.28543413 0.076153681 -0.89476395 93 75 76
0.28472206 0.074978821 -0.8927123 92 77 77
0.28479162 0.075376309 -0.89323896 91 75 76
0.25183946 0.096707962 -0.91552937 97 63 47
0.25128809 0.096090548 -0.9144783 96 63 46
0.25130159 0.096247986 -0.91501784 97 63 46
0.25028387 0.096434169 -0.91803801 98 62 41
0.24930371 0.095779665 -0.91787201 99 62 40
0.24949293 0.095711507 -0.9171747 98 62 41
0.25076663 0.096362963 -0.91664386 97 62 43
0.2508027 0.096339874 -0.91647303 97 62 43
0.25505298 0.097811759 -0.91593993 103 74 56
0.25470105 0.097957291 -0.91672736 102 72 54
0.25481948 0.097841725 -0.91626638 103 73 55
0.25507253 0.098488599 -0.91791224 101 73 54
0.25384849 0.098105542 -0.91803366 100 68 50
0.25377631 0.098012745 -0.91783416 100 68 50
0.25197589 0.096963979 -0.91618752 98 63 46
0.25224057 0.097534254 -0.91797495 98 62 45
0.25441703 0.097238578 -0.91467679 103 73 56
0.2552149 0.097456917 -0.91464716 104 76 58
0.25227821 0.09747263 -0.91771388 98 62 45
0.25277972 0.0967355 -0.91453886 99 67 51
0.25976503 0.098080561 -0.91624385 109 80 68
0.25760454 0.098719709 -0.9179557 104 77 61
0.25916621 0.098655179 -0.91792369 107 78 65
0.25801757 0.09845525 -0.91719699 105 78 63
0.25855231 0.098659351 -0.91787195 106 78 64
0.25816369 0.097973213 -0.91575944 107 79 64
0.25824317 0.097838737 -0.91536939 107 79 65
0.25603628 0.098431483 -0.91695446 103 77 58
0.25657922 0.098124541 -0.91609031 105 78 60
0.25608695 0.098757982 -0.91791922 102 76 57
0.25659257 0.098179169 -0.91625202 104 77 60
0.26281822 0.096583888 -0.91682512 107 77 69
0.26238653 0.096783631 -0.91622865 108 79 70
0.26268065 0.096760839 -0.91746843 106 76 68
0.2628029 0.096517973 -0.91626692 108 79 70
0.2635105 0.09588635 -0.91500688 109 80 72
0.26022926 0.098449819 -0.91816157 107 78 67
0.2609961 0.097006381 -0.9146902 109 81 70
0.26189601 0.096558601 -0.91457874 109 81 71
0.26003641 0.09767662 -0.91539353 109 80 69
0.26194304 0.097019747 -0.91604233 109 80 70
0.2603437 0.097379535 -0.91491818 109 80 70
0.26228124 0.096772015 -0.91575944 109 80 70
0.2640461 0.095765375 -0.91764671 105 74 68
0.24750146 0.093232118 -0.91559964 102 68 45
0.24698856 0.092587441 -0.91543889 102 70 47
0.24768113 0.093196943 -0.91495675 102 67 44
0.24635352 0.092514247 -0.91738832 99 72 55
0.24646208 0.092467897 -0.9168877 100 72 54
0.24699047 0.092707798 -0.9157725 102 70 48
0.24672246 0.09295249 -0.91737831 100 71 52
0.24647672 0.09209235 -0.91577172 101 71 52
0.24893238 0.095170163 -0.91704643 100 66 44
