ply
format ascii 1.0
comment PCL generated
element vertex 1031
property float x
property float y
property float z
property uchar red
property uchar green
property uchar blue
element camera 0
property float view_px
property float view_py
property float view_pz
property float x_axisx
property float x_axisy
property float x_axisz
property float y_axisx
property float y_axisy
property float y_axisz
property float z_axisx
property float z_axisy
property float z_axisz
property float focal
property float scalex
property float scaley
property float centerx
property float centery
property int viewportx
property int viewporty
property float k1
property float k2
end_header
-0.013542134 0.29334754 -0.85880893 107 96 95
-0.01289315 0.29270133 -0.85740083 97 85 86
-0.013535154 0.2936185 -0.85877174 108 98 98
-0.013173681 0.2915979 -0.85811931 94 82 79
-0.012707144 0.29295501 -0.85698634 98 86 86
-0.012974487 0.29449067 -0.8575058 109 99 99
-0.012859965 0.29376704 -0.85728538 104 93 93
-0.012282432 0.29444462 -0.85603482 104 94 93
-0.012269663 0.29369175 -0.85603184 99 88 87
-0.013825634 0.28947276 -0.85964644 100 84 82
-0.013691219 0.2886039 -0.85895419 102 84 84
-0.013693869 0.28760907 -0.85879493 105 84 86
-0.013662646 0.28820136 -0.85878253 103 84 85
-0.013641261 0.28743616 -0.85860378 105 84 87
-0.01279752 0.28808931 -0.85683978 97 82 80
-0.012904452 0.28793633 -0.85705131 98 82 81
-0.012734751 0.28915578 -0.85687435 93 79 76
-0.012649341 0.28890181 -0.85664076 93 78 77
-0.013430662 0.29067627 -0.85868776 94 83 78
-0.013108149 0.29000574 -0.85785294 94 81 77
-0.012488128 0.28802684 -0.85613525 94 79 78
-0.013066368 0.2895264 -0.85768062 95 81 78
-0.01369457 0.28702718 -0.85866207 106 84 87
-0.013937753 0.28396246 -0.85802388 99 80 76
-0.013865825 0.28589842 -0.8587327 105 84 85
-0.013816015 0.28466234 -0.85791999 99 80 78
-0.013931056 0.2838417 -0.85793763 98 80 75
-0.013333834 0.28400743 -0.8564561 91 74 69
-0.013296833 0.28506872 -0.85686088 95 77 75
-0.01298688 0.28708401 -0.85708141 101 82 83
-0.012560874 0.28702655 -0.85610831 97 81 80
-0.013197545 0.28398913 -0.85615277 90 73 68
-0.014194671 0.28200421 -0.85796583 95 78 77
-0.01409993 0.28150105 -0.85734069 92 76 75
-0.01383354 0.2830615 -0.85717207 94 76 70
-0.01451783 0.28248465 -0.85942036 101 83 81
-0.014863727 0.28063112 -0.85963321 94 79 78
-0.014500232 0.28231773 -0.85926449 100 82 81
-0.014265412 0.2806316 -0.85748494 90 75 76
-0.014400588 0.28231755 -0.85890657 100 82 80
-0.015639545 0.27567533 -0.8590402 91 82 79
-0.015368608 0.27793446 -0.859685 90 80 78
-0.015757244 0.27612799 -0.85970867 94 85 81
-0.015407884 0.27715245 -0.8592909 90 79 78
-0.015185032 0.27780217 -0.85902184 87 76 76
-0.015625544 0.27386943 -0.85835516 89 78 76
-0.015923694 0.2726475 -0.85940886 86 77 74
-0.016004678 0.27227533 -0.85969025 85 76 74
-0.015751734 0.2740598 -0.85888565 90 80 77
-0.015857026 0.27518582 -0.85946965 94 86 81
-0.015443794 0.2739532 -0.85778713 86 75 74
-0.015737766 0.27531391 -0.85913587 92 83 80
-0.014714385 0.33052415 -0.86276746 129 110 103
-0.014362024 0.3314313 -0.86131811 124 105 96
-0.014604593 0.33047646 -0.86232376 128 109 102
-0.014708395 0.33122951 -0.86272639 128 108 102
-0.014856948 0.33176568 -0.86331552 129 108 103
-0.014465339 0.33317 -0.86163825 124 104 95
-0.014352931 0.33388746 -0.86110747 123 104 92
-0.01415081 0.33124015 -0.86044425 122 104 93
-0.014777801 0.3333514 -0.86295295 126 104 98
-0.014078495 0.33143881 -0.8601222 122 104 92
-0.013975165 0.32634449 -0.86004049 124 109 103
-0.014604081 0.32659048 -0.86237413 130 113 108
-0.014779056 0.32694292 -0.8630293 131 114 109
-0.014868515 0.32617912 -0.86334455 132 115 111
-0.014685212 0.32736382 -0.86269063 130 113 108
-0.014852897 0.32933575 -0.86335254 132 112 108
-0.014260225 0.32873741 -0.86103386 126 108 101
-0.014032548 0.32897675 -0.86009419 123 106 97
-0.013920981 0.32688817 -0.85979164 123 108 101
-0.014328523 0.32925856 -0.86127329 126 108 100
-0.014833496 0.32973894 -0.86328501 132 112 107
-0.014684118 0.32416132 -0.8630119 131 113 110
-0.014679832 0.32442141 -0.8629387 131 113 110
-0.014604328 0.32410613 -0.8627041 130 112 110
-0.014730133 0.32474315 -0.86307091 131 114 111
-0.014897125 0.32591847 -0.86348677 132 115 111
-0.014459283 0.32544008 -0.86191946 128 111 108
-0.014218505 0.32461399 -0.86112982 127 108 107
-0.014107247 0.32572365 -0.86058116 125 109 105
-0.014123044 0.3243978 -0.86080307 126 107 106
-0.014005649 0.32319254 -0.86051685 125 105 107
-0.014372944 0.32452545 -0.86171252 128 109 108
-0.014195833 0.31852603 -0.86258471 128 106 107
-0.013723465 0.3184917 -0.86074483 123 100 101
-0.013801582 0.31888083 -0.86093712 124 101 103
-0.013948014 0.32036972 -0.86106694 126 104 106
-0.013930723 0.3209084 -0.86082023 125 103 106
-0.014318515 0.32015434 -0.8625747 129 109 109
-0.014367465 0.32137835 -0.86241186 129 110 109
-0.014150549 0.32018456 -0.86189294 128 106 108
-0.014213183 0.32062164 -0.86201572 128 107 109
-0.014472769 0.32087657 -0.86298084 130 111 110
-0.013653204 0.31995079 -0.86008024 122 100 101
-0.014291014 0.3173697 -0.86329293 131 110 110
-0.014128632 0.31524605 -0.86327237 133 113 112
-0.014240265 0.31748056 -0.86306208 130 109 109
-0.014218399 0.31729481 -0.86303025 130 109 109
-0.013766889 0.31490409 -0.86141366 136 118 111
-0.013741496 0.31623495 -0.86115438 131 111 107
-0.013712952 0.31459209 -0.86114657 138 120 111
-0.013778269 0.31518662 -0.86145043 135 116 110
-0.013310895 0.31459266 -0.85991246 138 122 109
-0.013435252 0.31552532 -0.86017597 134 117 107
-0.013278814 0.31601158 -0.85981309 130 113 104
-0.013783728 0.31399676 -0.86160475 141 124 115
-0.014022871 0.31205165 -0.86316192 152 139 127
-0.014144965 0.31393966 -0.86358947 138 120 116
-0.013892647 0.31204343 -0.86248547 153 140 127
-0.013762769 0.31309924 -0.86166143 147 131 120
-0.013747964 0.3121641 -0.86182559 152 137 125
-0.01341292 0.31224221 -0.86080277 147 130 120
-0.01357225 0.31306288 -0.86101586 145 128 118
-0.013063486 0.31126916 -0.86013341 148 128 121
-0.013186257 0.3125799 -0.86011297 143 125 116
-0.013807673 0.30946347 -0.86276031 161 147 134
-0.014000235 0.30935597 -0.86362702 162 150 135
-0.013809618 0.30887836 -0.86291957 160 147 134
-0.013757321 0.30827039 -0.86287493 160 146 133
-0.01307576 0.30876032 -0.86104459 152 139 124
-0.013128361 0.3085016 -0.8612538 153 139 124
-0.013423204 0.3080036 -0.86211854 157 143 128
-0.01326914 0.30720183 -0.86201006 154 141 125
-0.013184152 0.30752313 -0.86170334 153 140 124
-0.013491774 0.31031165 -0.86151606 158 143 131
-0.012615578 0.30803201 -0.86015171 146 132 117
-0.012945722 0.30963644 -0.86036795 150 134 122
-0.014048755 0.30505681 -0.86366159 160 146 133
-0.014150212 0.30282038 -0.86292958 159 147 133
-0.013913698 0.30331078 -0.86226189 159 147 133
-0.01371141 0.30494162 -0.86236453 159 146 132
-0.013692945 0.30417466 -0.86186451 159 147 132
-0.013571609 0.30355373 -0.86122686 157 146 132
-0.013545262 0.30357975 -0.86118644 157 145 131
-0.013175856 0.30447051 -0.86086023 152 140 126
-0.012789858 0.30602542 -0.86073303 148 135 119
-0.012442293 0.30583727 -0.85980731 143 131 114
-0.012737294 0.30619174 -0.8606925 147 134 118
-0.012857126 0.30615914 -0.86096185 148 136 120
-0.013838615 0.30164462 -0.86118752 159 148 134
-0.013731983 0.30259606 -0.86116087 159 148 134
-0.014088967 0.30215454 -0.862396 159 148 134
-0.014417034 0.30152574 -0.86358422 156 144 133
-0.013833199 0.29896837 -0.86006939 160 149 136
-0.014064161 0.30027938 -0.86155868 159 148 135
-0.014100618 0.29974103 -0.86154765 157 146 135
-0.014055317 0.29974118 -0.86134052 158 147 135
-0.01406404 0.29962572 -0.86134231 157 147 135
-0.013283098 0.30228332 -0.85998815 153 142 129
-0.013555908 0.30212218 -0.86049104 157 146 133
-0.014401022 0.29670393 -0.86237574 128 117 116
-0.014422386 0.29589146 -0.86238408 121 110 108
-0.014184559 0.2949501 -0.86118287 113 102 102
-0.014099763 0.29579026 -0.86088502 121 111 111
-0.014630894 0.29730561 -0.86350256 133 122 119
-0.014089518 0.29784098 -0.86107862 144 134 127
-0.014197445 0.29865652 -0.86166877 151 141 133
-0.014080741 0.298035 -0.86106151 146 136 129
-0.0144117 0.29867885 -0.86265135 148 138 132
-0.01394775 0.29877031 -0.86054015 157 146 135
-0.014461288 0.29244679 -0.86275297 113 99 96
-0.014660436 0.29287192 -0.8636592 118 103 101
-0.01443398 0.29286346 -0.8625589 111 97 94
-0.014597422 0.29396662 -0.86319184 112 98 95
-0.014237372 0.29136118 -0.86182332 110 96 93
-0.013873736 0.29386875 -0.85983837 109 99 99
-0.013975977 0.29423591 -0.86027777 111 100 100
-0.014034553 0.29280493 -0.86067295 105 93 90
-0.013993924 0.29340318 -0.86043328 107 96 94
-0.01437503 0.29430261 -0.86211222 110 98 96
-0.014251659 0.29392782 -0.86157602 109 97 95
-0.014418782 0.28962368 -0.86252427 116 97 98
-0.014522818 0.29032215 -0.86314821 119 102 102
-0.014612712 0.28770494 -0.86321259 103 87 83
-0.014228045 0.2882382 -0.8613649 110 88 90
-0.014494452 0.28780308 -0.86263484 105 87 85
-0.014317044 0.28770256 -0.86173159 106 86 86
-0.014189714 0.28963789 -0.86140543 111 93 93
-0.014142953 0.28847662 -0.86097848 110 89 92
-0.014238484 0.29089904 -0.86185932 111 97 94
-0.013873198 0.28942075 -0.85982853 101 84 83
-0.014091483 0.29029739 -0.86104095 107 92 90
-0.015002497 0.28447855 -0.86340606 102 85 85
-0.014783903 0.2842581 -0.86204618 103 85 84
-0.014947115 0.28479132 -0.863316 102 85 84
-0.015078668 0.28383711 -0.86338413 103 86 87
-0.015017918 0.28409004 -0.86322308 102 86 86
-0.014782936 0.28631112 -0.86345798 100 84 80
-0.01433281 0.28443372 -0.85979891 105 84 83
-0.014482631 0.28482413 -0.86082995 103 84 82
-0.014133687 0.28577894 -0.85976928 105 82 84
-0.014288565 0.28699082 -0.86141646 103 82 82
-0.014666154 0.28688881 -0.86323398 99 83 79
-0.014242262 0.28552833 -0.86013275 104 83 84
-0.015385782 0.28124139 -0.86302692 100 86 86
-0.015285184 0.28186134 -0.86297011 100 85 87
-0.015363609 0.28197235 -0.86351806 102 87 88
-0.015190997 0.28178969 -0.86236441 98 83 85
-0.015453647 0.28066596 -0.86293203 99 86 86
-0.015056733 0.28012586 -0.86019641 92 79 79
-0.014698601 0.2826322 -0.86035901 102 84 83
-0.014644414 0.28315604 -0.86050719 104 86 84
-0.014892376 0.28134406 -0.86032909 97 81 81
-0.014784726 0.28198284 -0.8602801 99 83 82
-0.015089437 0.28229904 -0.86223364 100 84 86
-0.015933953 0.27734032 -0.86204427 98 88 85
-0.016324809 0.2755169 -0.86158794 100 88 86
-0.016093634 0.2761853 -0.86138123 98 88 85
-0.016451944 0.27669215 -0.86349493 102 89 88
-0.015985336 0.27723071 -0.86213553 99 88 85
-0.015960354 0.2756246 -0.86016244 96 88 83
-0.015443272 0.27770478 -0.85976821 91 81 79
-0.015767388 0.27709752 -0.86090249 96 86 83
-0.015535558 0.27925804 -0.86219841 95 84 83
-0.015779648 0.27815783 -0.86226779 98 87 85
-0.015516323 0.27858981 -0.86127138 94 83 81
-0.015742172 0.27736461 -0.86108261 96 86 83
-0.016841635 0.27206615 -0.86316538 90 77 81
-0.016188018 0.27184945 -0.86040682 85 75 74
-0.016493963 0.27167171 -0.8616581 86 75 77
-0.01680346 0.27433836 -0.86333132 100 85 86
-0.016531713 0.2731365 -0.86202526 93 80 81
-0.016685948 0.2727215 -0.86260951 92 79 81
-0.016315039 0.2732293 -0.86112696 91 80 79
-0.016196057 0.27344763 -0.86064827 91 81 79
-0.016186493 0.27399921 -0.86067724 93 83 80
-0.016642194 0.27525872 -0.86277533 102 89 88
-0.016012905 0.27434653 -0.85998255 93 84 80
-0.016918829 0.27053681 -0.86284816 87 73 79
-0.016876461 0.27089125 -0.86290824 87 74 79
-0.01645728 0.27091891 -0.86117387 85 73 75
-0.016508749 0.27107731 -0.86147392 85 73 76
-0.016791299 0.27089697 -0.86255592 87 73 78
-0.016542658 0.2712681 -0.86171818 85 74 76
-0.014567538 0.3388097 -0.88327348 135 110 96
-0.014596179 0.33925757 -0.88327563 130 107 95
-0.013845382 0.33491009 -0.88381797 92 70 60
-0.014554637 0.33401224 -0.88323158 92 67 59
-0.014159169 0.33330059 -0.88427925 84 63 52
-0.014156064 0.3306663 -0.88699126 93 78 59
-0.014180012 0.33246624 -0.88513416 84 65 52
-0.014773038 0.33198819 -0.88461453 97 75 64
-0.015120068 0.33035553 -0.88496727 89 71 59
-0.014902977 0.33261031 -0.88341004 85 63 54
-0.01488657 0.33197966 -0.8841604 90 69 59
-0.014713666 0.33274251 -0.88403946 95 72 62
-0.014334508 0.32889017 -0.88669825 122 106 88
-0.014755066 0.32816216 -0.88554919 111 95 84
-0.014076834 0.32634291 -0.88516349 123 111 100
-0.014021584 0.32618093 -0.88512176 124 112 101
-0.014322612 0.32686406 -0.88519973 119 105 95
-0.01507083 0.32912615 -0.88519245 98 81 70
-0.015121079 0.32772365 -0.88457996 100 85 79
-0.01530515 0.32996663 -0.88448018 81 64 53
-0.0155716 0.32972616 -0.88332283 67 50 44
-0.015329416 0.32668617 -0.88342822 93 78 78
-0.015398609 0.32869363 -0.88372898 81 65 59
-0.012216685 0.32909214 -0.88627034 110 99 75
-0.012280303 0.32895136 -0.88625574 115 104 80
-0.011929958 0.32846677 -0.88557446 114 104 82
-0.013087794 0.32800144 -0.88637477 127 114 92
-0.010869921 0.32939792 -0.88520908 103 94 69
-0.011799706 0.32846519 -0.8854453 113 103 81
-0.011161469 0.32732433 -0.88692045 75 67 60
-0.010566824 0.32769537 -0.88698959 46 40 38
-0.010496341 0.32834765 -0.88620156 70 63 51
-0.012097536 0.32747397 -0.88565582 118 108 90
-0.010886232 0.32880741 -0.88514805 104 96 73
-0.01213188 0.32767084 -0.88529098 116 106 88
-0.012577282 0.32662219 -0.88637984 127 116 101
-0.014086061 0.32554674 -0.88493729 125 113 100
-0.013864798 0.32387912 -0.88502991 136 124 101
-0.014358342 0.32486853 -0.88445276 121 108 95
-0.014001128 0.32488504 -0.88496989 129 117 100
-0.01472996 0.32344601 -0.88388097 121 110 88
-0.014144083 0.32228798 -0.88454306 138 128 95
-0.014053902 0.32305667 -0.88465786 134 123 97
-0.014029447 0.32033798 -0.88453972 101 76 71
-0.013736132 0.32202756 -0.88499802 140 127 97
-0.013889514 0.32145962 -0.88478053 126 109 88
-0.013773807 0.3193104 -0.88476318 84 51 60
-0.014460642 0.31849235 -0.8839649 84 48 63
-0.015103469 0.32008842 -0.88333178 105 82 76
-0.014911312 0.32004765 -0.88353831 101 77 72
-0.014243787 0.31824186 -0.88419449 79 42 60
-0.014386293 0.31699011 -0.88403946 94 64 68
-0.014081281 0.31818235 -0.88437051 77 39 57
-0.01445913 0.31634411 -0.88395816 100 73 70
-0.014299433 0.31460202 -0.88411474 99 79 63
-0.014797914 0.31392333 -0.88346428 100 80 62
-0.013829615 0.31399569 -0.88455594 105 84 67
-0.013839539 0.3108888 -0.88396251 128 103 85
-0.014216138 0.31131041 -0.8834244 119 94 80
-0.013697016 0.30821288 -0.88401198 112 79 71
-0.014002101 0.30759335 -0.88352841 106 71 66
-0.014000262 0.30657598 -0.88356423 101 64 60
-0.014021314 0.30059737 -0.88322234 97 76 61
-0.013676168 0.30176213 -0.8834669 94 71 61
-0.013548533 0.2988351 -0.88422281 79 56 46
-0.012525106 0.29894879 -0.88380814 66 46 39
-0.013194975 0.30166692 -0.88332021 86 65 56
-0.013119815 0.30098137 -0.88347846 83 61 53
-0.013899618 0.29633757 -0.88478404 83 60 54
-0.01399046 0.29868525 -0.88380396 88 67 52
-0.014318716 0.29557839 -0.88379651 84 63 56
-0.014394629 0.29519126 -0.88365906 83 63 56
-0.014312967 0.29511121 -0.88389337 82 61 56
-0.014256425 0.29654172 -0.88379693 87 67 56
-0.012969498 0.29497945 -0.88451302 65 41 40
-0.012851018 0.29627934 -0.88386279 64 41 36
-0.012968863 0.29613349 -0.88410276 66 43 38
-0.01365112 0.29794836 -0.88454956 79 56 47
-0.013295545 0.29564264 -0.88479894 71 46 44
-0.012893661 0.29786193 -0.88385737 68 46 39
-0.012955938 0.29880726 -0.88399988 71 50 41
-0.012715992 0.29720718 -0.88370824 64 42 36
-0.011684626 0.29881644 -0.8835243 54 36 33
-0.013826215 0.29186252 -0.88444954 74 51 49
-0.013802748 0.29358837 -0.88495862 76 52 51
-0.013991752 0.29248521 -0.88416368 76 54 51
-0.013745231 0.29204211 -0.88471442 73 50 49
-0.014364284 0.29286808 -0.8835718 78 56 54
-0.014235808 0.2919828 -0.88378316 76 52 52
-0.013184132 0.29116297 -0.88560468 68 48 44
-0.013102276 0.29127508 -0.8857879 67 48 44
-0.013030812 0.29261675 -0.88626927 69 48 45
-0.011742077 0.29231358 -0.88571459 55 37 32
-0.012537763 0.29410627 -0.88521689 64 41 40
-0.012372443 0.29417288 -0.88503045 62 39 38
-0.011999256 0.2921958 -0.88601404 57 40 35
-0.012353552 0.29238626 -0.88619369 61 43 38
-0.012695107 0.29308617 -0.88602597 65 45 42
-0.011948627 0.29183739 -0.88620698 57 40 34
-0.011426897 0.29170164 -0.88700569 43 31 28
-0.010445791 0.29239008 -0.88705951 23 13 18
-0.010633192 0.29255581 -0.88532424 37 22 20
-0.010062298 0.29319549 -0.883968 34 15 14
-0.010693165 0.29405683 -0.88326424 40 19 17
-0.012171304 0.29458463 -0.88418144 56 33 32
-0.01224638 0.29488695 -0.88347375 53 31 28
-0.013750658 0.28966603 -0.88509542 66 42 45
-0.013778147 0.290869 -0.88454998 71 48 48
-0.01422863 0.28852412 -0.88472652 67 42 48
-0.014165632 0.28898856 -0.88474053 66 39 47
-0.014584119 0.2888875 -0.88387173 74 49 53
-0.014499098 0.28917974 -0.88397759 72 47 52
-0.012640615 0.28980401 -0.88710642 58 40 38
-0.01277243 0.29075524 -0.88645214 64 46 41
-0.013201583 0.29021704 -0.88586879 65 44 43
-0.012673113 0.290481 -0.88675433 62 45 40
-0.012979385 0.28924608 -0.88669467 59 40 39
-0.014160395 0.28677553 -0.88561273 64 41 45
-0.015371899 0.28342482 -0.88697773 71 38 48
-0.01480442 0.28477165 -0.88659549 67 38 45
-0.014314373 0.2852791 -0.88703424 60 32 41
-0.014106018 0.28625932 -0.88632417 60 36 42
-0.015051546 0.28498057 -0.88582903 73 45 50
-0.015295037 0.28409666 -0.88635194 73 42 49
-0.015626995 0.28483146 -0.88347608 84 57 61
-0.015339735 0.28526378 -0.88458556 80 54 56
-0.015340402 0.28498298 -0.88500315 79 51 54
-0.015434005 0.28527826 -0.88398671 82 56 58
-0.015484976 0.28361499 -0.88617218 75 43 51
-0.015615402 0.28472206 -0.88371134 83 56 60
-0.014587007 0.28133887 -0.88673627 60 30 33
-0.015030133 0.28122911 -0.88574141 74 47 47
-0.014713998 0.28030679 -0.8853547 72 47 42
-0.01519326 0.28232291 -0.88661784 71 40 45
-0.01407969 0.27999181 -0.88626087 55 29 26
-0.01466437 0.28037947 -0.8855322 70 45 41
-0.01545234 0.28047767 -0.88345796 91 70 62
-0.015715946 0.28282189 -0.88488269 80 50 57
-0.015422001 0.2809788 -0.88429326 87 63 59
-0.015425622 0.28282511 -0.88666433 74 42 49
-0.015521242 0.28061998 -0.88322055 92 70 63
-0.014164804 0.27805266 -0.88481802 58 36 33
-0.013719883 0.27687779 -0.88521057 40 17 21
-0.015004994 0.2791695 -0.88362187 88 70 57
-0.014873554 0.27925029 -0.88391453 84 65 53
-0.014954172 0.27710491 -0.88358164 80 60 55
-0.014187677 0.27539185 -0.88429356 50 27 34
-0.015521856 0.27560404 -0.88325047 94 72 70
-0.013793151 0.33040398 -0.93509358 91 65 79
-0.014134017 0.3300373 -0.93464333 89 52 82
-0.0090472279 0.30956352 -0.85143834 89 67 61
-0.01623806 0.33795571 -0.87371254 101 83 84
-0.016299816 0.33817518 -0.87223488 107 92 87
-0.016288044 0.33846316 -0.87286747 102 87 83
-0.016319994 0.33843291 -0.87166852 107 93 86
-0.016109813 0.33607739 -0.87369645 104 85 88
-0.016105754 0.33632317 -0.87528783 93 73 78
-0.016032241 0.33405754 -0.87233424 112 95 96
-0.016134361 0.33674377 -0.87425637 101 81 85
-0.016063282 0.33513194 -0.8741383 100 81 84
-0.016035333 0.33429429 -0.87312776 107 89 90
-0.016179578 0.33744717 -0.87438595 99 79 83
-0.016109159 0.33525628 -0.87200195 114 97 97
-0.016192282 0.3364538 -0.87206835 111 95 93
-0.016172986 0.33667833 -0.87304723 106 89 89
-0.016248524 0.33741954 -0.87242079 108 92 90
-0.016018843 0.33137485 -0.87455559 101 78 79
-0.016047001 0.33063513 -0.87327003 111 88 89
-0.016020413 0.33023384 -0.87449682 105 80 78
-0.016024165 0.33227199 -0.87430042 101 79 82
-0.016002696 0.333464 -0.87527323 92 72 75
-0.016044311 0.33318791 -0.87176645 117 99 100
-0.016022993 0.33395541 -0.87300098 107 89 91
-0.01606513 0.3310411 -0.87241197 115 93 97
-0.016043914 0.33259785 -0.87258983 112 92 95
-0.016077518 0.33068579 -0.87157452 122 100 103
-0.016047467 0.33302665 -0.87164688 119 100 101
-0.016086506 0.32655683 -0.87275535 113 97 88
-0.016095327 0.32706445 -0.87453586 111 94 81
-0.0160698 0.32672846 -0.87205362 112 96 90
-0.016058046 0.32823437 -0.87482399 107 86 77
-0.016068412 0.32686657 -0.87228721 112 95 89
-0.016050277 0.32827735 -0.87301999 110 89 86
-0.016073095 0.32792905 -0.87195075 116 97 94
-0.016072504 0.3299326 -0.87209576 119 96 98
-0.016061502 0.32786158 -0.87247968 112 93 89
-0.016056143 0.32855487 -0.87276667 112 91 89
-0.01643301 0.32326323 -0.87498379 136 123 109
-0.016273323 0.32483506 -0.87519336 124 110 93
-0.016322754 0.32255462 -0.87347656 132 118 108
-0.016258666 0.32277048 -0.87317854 128 114 104
-0.016185118 0.32317841 -0.87298399 124 109 98
-0.01612273 0.32454741 -0.8737241 117 102 88
-0.016118525 0.32509306 -0.87362134 116 101 87
-0.01609402 0.32356152 -0.8715052 119 104 97
-0.016112175 0.32392764 -0.87282538 119 104 92
-0.016101249 0.3250607 -0.87246698 116 101 92
-0.015981376 0.31920666 -0.87350661 134 121 115
-0.015881216 0.31905857 -0.87230784 130 116 113
-0.015863657 0.31876606 -0.87279159 131 117 113
-0.016215764 0.32029903 -0.87437046 139 126 118
-0.015941678 0.31906918 -0.8732366 133 119 114
-0.015957743 0.32059973 -0.87165737 125 110 105
-0.01641034 0.32185453 -0.87420487 139 127 117
-0.016144674 0.3207379 -0.87300062 133 119 113
-0.016512385 0.3220391 -0.87485456 143 131 120
-0.016093407 0.32216689 -0.87150878 122 107 100
-0.015806055 0.31588292 -0.87306523 144 132 126
-0.015955471 0.31455755 -0.87438476 142 124 124
-0.015924491 0.31513029 -0.87418526 142 126 124
-0.015941916 0.31465307 -0.87425888 142 125 124
-0.015878648 0.3170554 -0.87415797 142 129 122
-0.015744824 0.31593627 -0.87215799 142 129 125
-0.015723135 0.31503022 -0.87188458 146 134 130
-0.015871046 0.31793666 -0.87400067 137 123 117
-0.015727781 0.3174352 -0.871773 133 118 116
-0.01570371 0.31616506 -0.87149 139 126 123
-0.015852723 0.31688982 -0.87379134 142 129 122
-0.015705576 0.31128278 -0.87517238 133 116 112
-0.015673921 0.31230596 -0.87365234 139 120 120
-0.015789736 0.31229708 -0.87495524 136 118 116
-0.015566262 0.31126237 -0.87364048 137 119 117
-0.015946474 0.31360203 -0.8752169 138 119 119
-0.01561024 0.31186822 -0.87344062 138 120 120
-0.015656035 0.31359875 -0.87200737 145 131 129
-0.015794571 0.31355914 -0.87358057 142 124 124
-0.015673408 0.31297728 -0.87289274 142 125 124
-0.015439874 0.31186253 -0.87155944 142 126 125
-0.015602991 0.31222415 -0.8729561 140 122 122
-0.015361867 0.30670619 -0.87177104 137 117 117
-0.01551102 0.30751449 -0.87370914 133 115 112
-0.015559511 0.30801219 -0.87432647 132 114 111
-0.015536796 0.30812696 -0.87401837 133 115 112
-0.015633129 0.30856606 -0.8752746 130 113 108
-0.015559928 0.31041381 -0.87437034 134 116 112
-0.015437423 0.31025955 -0.87298518 136 119 117
-0.015379035 0.30849755 -0.87213194 137 118 117
-0.015426563 0.30941722 -0.87276763 136 118 116
-0.015336746 0.3072868 -0.87152153 138 118 118
-0.015388783 0.30336285 -0.87290478 107 97 95
-0.015517312 0.30395842 -0.87458074 112 99 94
-0.015476638 0.30472776 -0.87373227 116 103 100
-0.015626026 0.30636206 -0.8753674 126 110 105
-0.015436454 0.30365571 -0.87350249 110 98 95
-0.015468585 0.30529663 -0.87348086 120 107 104
-0.015422719 0.30642068 -0.87263048 133 114 113
-0.015404643 0.30535105 -0.87261945 123 108 107
-0.015337519 0.30379272 -0.87206137 111 101 99
-0.015355966 0.30639741 -0.87174833 135 116 115
-0.015665205 0.2997067 -0.87283784 112 98 91
-0.015588313 0.30178288 -0.87496251 107 92 87
-0.015702119 0.29911572 -0.87324518 110 97 89
-0.015689924 0.29905254 -0.87220138 114 100 93
-0.015662359 0.30002809 -0.87377667 109 95 89
-0.015701596 0.29961371 -0.87496197 104 91 85
-0.015513488 0.30091479 -0.87212062 110 98 93
-0.015548915 0.30172205 -0.87388444 109 95 90
-0.015657179 0.29916021 -0.87150431 115 102 94
-0.015519354 0.30266005 -0.87490284 106 92 87
-0.015593736 0.30024266 -0.87225199 112 99 93
-0.015696822 0.29716364 -0.87453824 106 89 84
-0.015730621 0.2966398 -0.87475431 107 89 84
-0.015792051 0.29659253 -0.875337 107 88 83
-0.015784146 0.29626542 -0.87519211 107 88 83
-0.015693899 0.29590961 -0.87424678 109 89 85
-0.015638381 0.29766884 -0.87317705 109 93 88
-0.015667873 0.29835558 -0.8720606 114 99 92
-0.015706575 0.29854882 -0.87379473 107 94 87
-0.015619049 0.29753792 -0.87246627 111 95 90
-0.015567375 0.29696369 -0.87158 114 96 93
-0.015378788 0.29152158 -0.87199664 97 80 76
-0.015408188 0.29161116 -0.8733694 90 72 71
-0.015438794 0.29177073 -0.87421006 86 68 69
-0.015635846 0.29332301 -0.87496716 97 77 75
-0.015331724 0.29115185 -0.87180674 94 79 75
-0.015478224 0.29199499 -0.87512755 84 64 66
-0.015583751 0.29358986 -0.8733651 105 85 82
-0.015606628 0.2933521 -0.87365508 104 84 80
-0.015668605 0.29446051 -0.87392998 109 87 84
-0.015589263 0.29399773 -0.87329936 107 86 84
-0.015593361 0.29340249 -0.87351239 104 85 81
-0.015591227 0.29375401 -0.87338936 106 86 82
-0.015593625 0.28746602 -0.87496787 82 69 68
-0.015536293 0.28718087 -0.87289214 93 77 79
-0.015439973 0.28934464 -0.87432593 81 64 68
-0.015503362 0.28727308 -0.87217653 97 79 83
-0.015437679 0.28930932 -0.87419832 82 65 69
-0.015364335 0.29053706 -0.87380719 82 65 67
-0.01540956 0.28933367 -0.87309939 88 70 74
-0.015372685 0.29042065 -0.87403184 81 64 67
-0.015336334 0.29092637 -0.87305051 86 70 69
-0.015343834 0.2905477 -0.87233156 90 74 73
-0.015853327 0.28456724 -0.87434077 91 79 75
-0.01580175 0.28495866 -0.87437534 90 77 74
-0.015984938 0.28323415 -0.8739084 97 84 79
-0.015942611 0.28482714 -0.87524611 89 79 73
-0.015739717 0.28355053 -0.8724826 98 81 80
-0.015714535 0.28504947 -0.87384588 90 76 74
-0.01556681 0.28572845 -0.87204731 98 80 82
-0.015584648 0.28487948 -0.87158501 100 82 84
-0.015628183 0.28565925 -0.87362415 90 74 74
-0.015571158 0.2860454 -0.87251645 95 79 80
-0.015547844 0.28663456 -0.87254262 95 79 81
-0.015621388 0.28709126 -0.87503153 82 70 68
-0.016838336 0.27973977 -0.87438124 91 81 79
-0.01656343 0.2812359 -0.87376583 99 87 82
-0.016815165 0.27987862 -0.87318093 98 85 83
-0.016504867 0.28155029 -0.8740235 98 87 81
-0.016647158 0.28076482 -0.87534183 89 80 76
-0.016780222 0.2800602 -0.87387758 95 83 81
-0.016572813 0.28086272 -0.87261462 102 88 85
-0.01658744 0.28065398 -0.87223214 103 88 86
-0.016613804 0.28045389 -0.87195355 104 88 87
-0.016432552 0.28158849 -0.87330627 100 87 83
-0.016085992 0.28293169 -0.87396508 97 85 80
-0.016533837 0.28100708 -0.87267309 102 88 85
-0.017417023 0.27579221 -0.87439555 92 78 79
-0.017344829 0.27646935 -0.87337464 86 75 76
-0.017217461 0.27736542 -0.87361842 84 74 75
-0.017492181 0.27544856 -0.87298423 88 75 77
-0.017381405 0.27598128 -0.8748849 93 79 79
-0.016965255 0.27899846 -0.87485808 86 77 75
-0.016981509 0.27891859 -0.87295306 96 83 83
-0.016988188 0.27887818 -0.87274051 97 83 83
-0.017069479 0.27833089 -0.87437177 84 75 75
-0.016973954 0.27897865 -0.87210524 101 86 86
-0.017826755 0.27331972 -0.87239242 92 74 76
-0.017786475 0.27356109 -0.87262976 91 74 76
-0.017837245 0.27334139 -0.87162817 90 73 76
-0.017796187 0.27360341 -0.87173724 89 73 76
-0.017717969 0.27411792 -0.87181723 88 73 76
-0.017908329 0.27266061 -0.87358159 93 73 76
-0.017504189 0.27517542 -0.87455535 92 77 79
-0.017554993 0.27510974 -0.8725453 85 73 76
-0.018128252 0.27128217 -0.87200904 94 72 75
-0.013843345 0.33060098 -0.88955694 89 85 53
-0.014394108 0.33024904 -0.88795573 107 94 71
-0.014284044 0.33013707 -0.88979053 109 102 70
-0.013819554 0.32936504 -0.88999885 106 103 68
-0.014276896 0.32937726 -0.88723886 123 107 85
-0.014008643 0.32892245 -0.88743562 126 112 89
-0.014305588 0.330024 -0.88984245 112 105 72
-0.013876228 0.28588748 -0.88749242 51 27 35
-0.014378795 0.28445816 -0.88922697 38 21 27
-0.01457838 0.28458637 -0.88761783 57 30 39
-0.013731602 0.28563234 -0.88919437 32 18 24
-0.014245252 0.28529871 -0.88724446 57 31 39
-0.015139103 0.28361934 -0.88874984 56 32 38
-0.01492625 0.28377771 -0.88827407 54 29 37
-0.015593528 0.2832244 -0.88910478 64 40 43
-0.014179793 0.284704 -0.89091694 24 16 18
-0.014155476 0.28006339 -0.88820469 44 19 17
-0.014886409 0.27960688 -0.89058411 50 31 26
-0.01494764 0.28201148 -0.88752353 61 30 36
-0.014446899 0.27972305 -0.8893646 46 24 20
-0.014431167 0.28107733 -0.8875193 51 22 25
-0.015345162 0.28220007 -0.8886624 64 37 40
-0.015448011 0.28246489 -0.88911915 63 38 40
-0.015354566 0.2820718 -0.88908565 62 37 39
-0.015333125 0.28184125 -0.88942915 60 37 37
-0.01531712 0.28114408 -0.89099938 53 37 31
-0.013896639 0.27911785 -0.88923502 36 14 11
-0.011410282 0.31882113 -0.85580695 98 79 70
-0.010791117 0.3187719 -0.8545965 91 71 63
-0.010098682 0.31908405 -0.8531844 82 61 55
-0.011188028 0.31873521 -0.85539484 95 76 67
-0.010773991 0.31951711 -0.85450417 88 69 62
-0.011397644 0.31551871 -0.85583985 106 84 75
-0.011124671 0.31573972 -0.8552931 102 80 72
-0.010994031 0.31800407 -0.85503477 95 75 66
-0.011389249 0.31826204 -0.85582727 99 79 70
-0.0098238764 0.3183333 -0.85268992 81 58 52
-0.010024643 0.31659919 -0.85306799 88 66 57
-0.010361367 0.31635845 -0.85375315 92 70 62
-0.010027764 0.31712535 -0.85308516 87 64 56
-0.010541112 0.31572202 -0.85410845 96 74 65
-0.010266061 0.31557539 -0.85354179 93 72 61
-0.0097442064 0.31521386 -0.85247988 88 68 55
-0.0095807714 0.31717405 -0.85230017 82 60 52
-0.011027733 0.31383187 -0.85517418 107 86 75
-0.010940623 0.31387797 -0.85498869 105 85 73
-0.010623183 0.31223366 -0.85458833 108 90 75
-0.010432651 0.31261998 -0.85413909 104 86 71
-0.010217183 0.31345567 -0.85357034 99 80 65
-0.009953008 0.31413302 -0.85292596 94 74 59
-0.0098039452 0.31093422 -0.85262769 97 75 65
-0.0098521719 0.31208348 -0.8527329 96 75 63
-0.010035932 0.31301543 -0.85317343 97 78 64
-0.0098145511 0.3132723 -0.8526268 93 73 59
-0.010011995 0.31157723 -0.85313123 100 79 67
-0.0097077899 0.31312352 -0.85243052 92 71 58
-0.0097193662 0.31437713 -0.85243142 90 70 55
-0.010561245 0.30881751 -0.85433304 113 95 83
-0.01104349 0.30878416 -0.85551423 121 105 92
-0.0099456618 0.31051809 -0.85297751 100 78 69
-0.011082212 0.30882767 -0.85561329 122 106 92
-0.01047019 0.30929866 -0.85415363 111 92 81
-0.0098284204 0.31022805 -0.85265672 99 76 68
-0.010192987 0.30878061 -0.85339904 108 86 78
-0.010477906 0.30664778 -0.85384691 116 95 90
-0.010390436 0.30712226 -0.85368562 114 93 87
-0.010742164 0.30718696 -0.85459483 119 101 91
-0.010297277 0.30777237 -0.85353291 111 90 83
-0.0096612684 0.30917481 -0.8522166 99 74 70
-0.010963278 0.30503252 -0.85498136 123 104 97
-0.011090422 0.30558044 -0.85534358 125 108 98
-0.011083748 0.3042323 -0.85523635 124 106 98
-0.010865687 0.30520624 -0.85474306 121 102 95
-0.011303738 0.30406654 -0.85578865 127 111 101
-0.010647146 0.30558044 -0.85420847 118 97 92
-0.010492452 0.30379748 -0.85374993 116 97 91
-0.010478701 0.30424377 -0.85372263 116 95 91
-0.010133674 0.30534485 -0.85289896 111 87 86
-0.010499494 0.30402938 -0.8537702 116 96 91
-0.010562231 0.30411232 -0.85392392 117 96 92
-0.0099115027 0.30565479 -0.85236311 108 83 83
-0.011985512 0.29746696 -0.85568243 119 105 99
-0.011990235 0.2939527 -0.85538167 99 88 87
-0.01269762 0.28464708 -0.85538572 90 74 70
-0.01239139 0.28673947 -0.85562533 95 79 78
-0.015771672 0.33874354 -0.86694485 114 101 90
-0.01576864 0.33972239 -0.86697668 102 90 80
-0.015882082 0.33879501 -0.8674891 116 105 92
-0.015297633 0.33459607 -0.86552298 125 106 100
-0.015499454 0.33506167 -0.86656356 124 108 100
-0.015495449 0.33551052 -0.86627626 126 109 100
-0.015603653 0.33535019 -0.86707282 124 109 100
-0.015294785 0.33452141 -0.86554796 125 106 100
-0.015491136 0.33565679 -0.86616302 126 109 100
-0.01550441 0.33656806 -0.86585021 125 109 99
-0.015164614 0.3348693 -0.86451352 126 106 100
-0.015786204 0.33765879 -0.86702067 125 113 100
-0.015309606 0.3321242 -0.86597997 127 109 104
-0.01548622 0.33085316 -0.86679178 132 115 112
-0.01554609 0.33058512 -0.86708713 133 117 114
-0.015562414 0.33108106 -0.86723799 132 115 112
-0.015610787 0.33071035 -0.86745751 133 117 114
-0.015620643 0.33041218 -0.86747473 134 118 116
-0.015283397 0.3328253 -0.86583114 126 107 102
-0.015280475 0.33297849 -0.86580634 125 107 102
-0.015141099 0.33320928 -0.86489165 126 106 101
-0.014987262 0.33302134 -0.86389905 128 106 101
-0.015059507 0.33336887 -0.86435527 127 105 101
-0.015363158 0.3331618 -0.86633664 124 107 101
-0.015029049 0.32654884 -0.86408228 133 116 112
-0.015356455 0.32736903 -0.86601466 135 118 115
-0.015325874 0.32800433 -0.86577976 134 118 115
-0.015199928 0.32742393 -0.86505663 134 117 114
-0.015498392 0.32784092 -0.86684346 136 120 116
-0.015098373 0.3293139 -0.86454463 133 115 111
-0.015003184 0.32872584 -0.86400431 133 114 110
-0.015235058 0.32788175 -0.86525029 134 117 114
-0.015108132 0.327663 -0.86454719 133 116 112
-0.015281739 0.32976791 -0.86556464 134 116 113
-0.015340304 0.32448617 -0.86650461 137 120 115
-0.015229749 0.32262877 -0.86629075 137 120 116
-0.015054709 0.32291561 -0.86525023 135 119 114
-0.015090038 0.3226696 -0.86550117 136 119 114
-0.0150489 0.32257521 -0.86529177 135 119 114
-0.015122856 0.32523012 -0.86499125 134 118 113
-0.015295726 0.32557863 -0.8659305 136 119 114
-0.014969558 0.32567623 -0.86391097 133 116 112
-0.014920775 0.32405519 -0.8641448 133 117 112
-0.015100215 0.32520548 -0.86486137 134 118 113
-0.015104738 0.3242172 -0.86521274 134 118 113
-0.015065647 0.31893212 -0.86660063 141 125 120
-0.014703876 0.31869984 -0.86481625 135 115 114
-0.01519827 0.31961969 -0.86707962 142 126 121
-0.015232057 0.32053432 -0.86698651 140 123 119
-0.015280655 0.3208189 -0.86715251 141 124 119
-0.014833661 0.31989947 -0.86512429 135 114 113
-0.015068508 0.32108101 -0.86595333 137 118 115
-0.014787477 0.3213554 -0.86427069 133 116 112
-0.01476864 0.32113937 -0.86425382 133 115 112
-0.014933022 0.32207385 -0.86479014 134 118 113
-0.015167765 0.31697834 -0.86755359 150 137 131
-0.014463933 0.31491375 -0.86485398 141 123 120
-0.014538574 0.31535757 -0.86510491 140 124 120
-0.014949501 0.31500551 -0.86692607 155 139 136
-0.014933065 0.3162486 -0.86665988 147 133 128
-0.014724175 0.31680638 -0.86560738 139 123 119
-0.014438313 0.31585908 -0.86450279 136 118 115
-0.014565661 0.31674379 -0.86481959 137 119 116
-0.014613667 0.31686252 -0.86502033 137 120 116
-0.015028907 0.31820834 -0.86663634 141 127 121
-0.014593821 0.31087223 -0.86618763 161 145 136
-0.014428446 0.31187671 -0.8650375 162 150 139
-0.014960097 0.31354371 -0.8672393 161 146 142
-0.014810478 0.31201875 -0.86694223 161 145 138
-0.014911608 0.31189492 -0.86749572 160 143 138
-0.014486014 0.3141112 -0.86505556 147 130 126
-0.0141903 0.31322542 -0.86387354 145 128 122
-0.014652846 0.31326726 -0.86585695 158 144 137
-0.014397773 0.3138772 -0.86469978 146 129 125
-0.014570059 0.31296551 -0.86553144 158 144 137
-0.014163724 0.30710319 -0.86488014 157 142 131
-0.014769305 0.30719721 -0.86719042 149 134 126
-0.014509406 0.30699572 -0.86619455 152 137 128
-0.014694684 0.30748922 -0.86691409 151 136 127
-0.014071776 0.30744603 -0.86453915 159 144 133
-0.014549327 0.30742815 -0.86635846 153 138 129
-0.013981254 0.30815139 -0.86388582 160 147 134
-0.01454495 0.31004947 -0.86618787 160 144 135
-0.014008905 0.30900848 -0.86376834 161 149 135
-0.013894295 0.30700693 -0.86378753 160 146 133
-0.014171974 0.30964094 -0.86440915 161 148 135
-0.014221068 0.3092491 -0.86477768 161 146 135
-0.014725994 0.30375782 -0.86657894 149 137 127
-0.014757723 0.30428535 -0.86679691 148 136 126
-0.014815943 0.30401304 -0.86727184 147 134 125
-0.014714017 0.30494243 -0.866413 150 137 127
-0.014798511 0.30488035 -0.86708212 147 134 125
-0.014771882 0.30320972 -0.86697346 148 135 126
-0.014254189 0.30569461 -0.86475164 156 142 130
-0.013955468 0.30626047 -0.86388874 159 145 132
-0.014081014 0.30655593 -0.86451095 156 143 131
-0.014283724 0.30476943 -0.86441392 157 144 131
-0.014282069 0.30488315 -0.86446297 157 144 131
-0.015026236 0.29893681 -0.8662293 129 116 111
-0.015004179 0.30011192 -0.86686075 132 119 113
-0.015049057 0.30005512 -0.86710578 130 117 111
-0.014737457 0.29999518 -0.86510658 144 133 128
-0.014847131 0.30057645 -0.86617738 140 129 122
-0.015147795 0.29969093 -0.86748815 125 111 105
-0.014697598 0.30237168 -0.86621124 149 137 128
-0.014567408 0.30204588 -0.86500078 152 141 130
-0.014801828 0.30214337 -0.86690223 146 134 126
-0.014401251 0.30258033 -0.86399615 158 146 133
-0.014606696 0.30213183 -0.86535901 151 140 129
-0.01460031 0.29926214 -0.86367714 147 138 133
-0.014969636 0.2954855 -0.86562788 113 100 96
-0.015076766 0.2972748 -0.86630827 116 102 97
-0.014792322 0.29517227 -0.8641994 113 99 96
-0.015175398 0.29819137 -0.86701816 118 103 98
-0.01516223 0.29731882 -0.86700904 116 102 97
-0.014680901 0.29825786 -0.86389959 139 129 125
-0.014802618 0.29695341 -0.86446774 124 112 108
-0.014717543 0.29567111 -0.86373848 118 105 102
-0.014904465 0.29693717 -0.86510587 120 106 102
-0.01476505 0.29612836 -0.86410654 120 107 103
-0.015187695 0.29445904 -0.86751127 111 99 94
-0.015173991 0.29215297 -0.86742818 107 86 89
-0.015142377 0.29346845 -0.86721408 110 95 93
-0.015064795 0.29380509 -0.86669844 113 101 96
-0.015099273 0.2918824 -0.86693364 108 88 91
-0.014806447 0.2947585 -0.86438537 113 99 96
-0.014900266 0.29326087 -0.86553377 116 103 99
-0.014984878 0.29417291 -0.866005 114 102 97
-0.014666235 0.29265052 -0.86375344 118 103 101
-0.0148538 0.29358751 -0.86506855 116 102 99
-0.01475774 0.29410002 -0.86414742 114 101 97
-0.015105199 0.2888552 -0.86659819 102 81 83
-0.015246773 0.28814602 -0.86745721 102 82 82
-0.014891225 0.28741747 -0.86488837 100 83 80
-0.015163892 0.28800088 -0.86686242 101 82 82
-0.015207122 0.28945917 -0.86739933 103 80 84
-0.014959294 0.28787604 -0.8654325 100 82 81
-0.014706325 0.2905795 -0.86424547 117 100 100
-0.01495899 0.29083878 -0.86597168 110 88 93
-0.014802394 0.28810528 -0.86439961 101 84 82
-0.015050681 0.29079768 -0.86657172 107 84 89
-0.014760515 0.28744364 -0.86399275 99 83 79
-0.015032998 0.29088706 -0.86647189 108 85 90
-0.01533666 0.28454202 -0.86614829 101 86 84
-0.01527216 0.2846722 -0.86551178 102 85 86
-0.015362788 0.28496945 -0.86677545 100 85 83
-0.015353329 0.28490257 -0.86661595 100 86 83
-0.015385358 0.28412288 -0.86638218 100 86 84
-0.015423446 0.28440258 -0.86703229 99 86 83
-0.015232314 0.28578082 -0.8660444 102 85 84
-0.015211101 0.28539938 -0.86556995 102 85 85
-0.015003887 0.28495851 -0.86376309 101 85 85
-0.015018008 0.28640872 -0.86510849 100 84 82
-0.015072519 0.28605044 -0.8651756 101 84 83
-0.015800178 0.28027326 -0.86502719 99 89 86
-0.015859013 0.28061739 -0.86576742 100 91 85
-0.016245443 0.2803987 -0.86741936 103 96 87
-0.015907625 0.2809608 -0.8664555 100 92 85
-0.015596242 0.28270775 -0.86715829 97 88 82
-0.015718717 0.28121018 -0.86583245 98 89 84
-0.015508355 0.28318861 -0.86705554 97 87 83
-0.015575349 0.281427 -0.86487424 100 88 86
-0.01556267 0.2825658 -0.86663413 98 88 83
-0.015502975 0.28187284 -0.86479336 100 87 86
-0.015557399 0.28172562 -0.86516875 99 88 85
-0.015425765 0.28258315 -0.86509961 100 87 86
-0.016939852 0.27583471 -0.86556381 103 91 88
-0.017026013 0.27596468 -0.86681646 101 92 88
-0.016924236 0.27683556 -0.86724406 102 94 88
-0.016885107 0.27546218 -0.86422801 104 90 89
-0.016762318 0.2772719 -0.86615723 104 95 89
-0.01644269 0.27765056 -0.86472827 103 92 89
-0.016483217 0.27918613 -0.86703187 105 99 89
-0.016429618 0.27827871 -0.86552215 104 94 89
-0.016186375 0.27815703 -0.86413753 102 90 88
-0.01650038 0.2785705 -0.86627567 104 97 89
-0.016007625 0.2786369 -0.86389887 101 89 87
-0.017758455 0.27152216 -0.86754137 98 81 82
-0.017224303 0.27176318 -0.86502582 92 77 82
-0.017259374 0.27455023 -0.86731136 99 88 85
-0.017265283 0.27321884 -0.86633223 96 83 84
-0.017140012 0.27393737 -0.86627781 96 85 85
-0.017364372 0.27269858 -0.86641175 96 82 83
-0.017129157 0.27476305 -0.86670554 98 88 86
-0.017058052 0.27532411 -0.86609727 101 90 88
-0.0169593 0.27342191 -0.86417359 96 82 85
-0.016939763 0.27348149 -0.86396843 96 82 85
-0.016957592 0.27225342 -0.86368358 92 77 83
-0.015087698 0.33860081 -0.88146943 100 76 75
-0.015130288 0.3385371 -0.88128424 96 72 73
-0.014914466 0.33922443 -0.88232356 112 90 84
-0.014967366 0.33822227 -0.8818379 113 86 82
-0.014974896 0.33820608 -0.88180381 112 86 82
-0.015617504 0.3391667 -0.87942547 69 44 52
-0.015701422 0.34075245 -0.87936729 82 54 54
-0.015582962 0.34077269 -0.87988997 83 58 58
-0.014742146 0.33509189 -0.88254088 103 76 71
-0.014768536 0.33698028 -0.882442 129 100 91
-0.014727649 0.33447769 -0.88259894 95 69 64
-0.015164765 0.33418176 -0.88067788 75 50 60
-0.014771181 0.33685154 -0.88242924 127 98 90
-0.015046916 0.33708799 -0.88134354 106 78 78
-0.015167796 0.3353993 -0.88067931 92 65 73
-0.014720598 0.3375423 -0.88267791 137 107 95
-0.014995222 0.33632612 -0.88146168 110 81 82
-0.015009474 0.33734843 -0.88151991 110 82 80
-0.015455681 0.3312076 -0.8816064 68 48 45
-0.014628491 0.33384234 -0.88317984 91 67 59
-0.015659191 0.33047518 -0.88149476 62 44 41
-0.015257669 0.33170289 -0.88242602 73 53 47
-0.015196275 0.33180013 -0.88286436 75 54 48
-0.015552607 0.33094946 -0.88125652 65 46 43
-0.015095447 0.33334744 -0.88131219 76 52 55
-0.015682753 0.33223608 -0.87931412 59 37 49
-0.014895778 0.33397886 -0.8818593 82 57 59
-0.015261269 0.33245516 -0.88104963 73 50 51
-0.015459384 0.33252349 -0.88014454 66 43 51
-0.015614314 0.32920831 -0.88292909 67 51 46
-0.015687939 0.32828385 -0.88216853 68 52 49
-0.015879797 0.3274596 -0.88080186 63 46 46
-0.015565106 0.3274157 -0.88250154 78 62 62
-0.015593208 0.32763657 -0.88243401 75 60 58
-0.016051987 0.32652739 -0.87930936 60 43 46
-0.015794829 0.32911077 -0.88149202 60 43 40
-0.015954698 0.32745883 -0.88015258 60 43 44
-0.015883023 0.32929289 -0.88033575 58 40 40
-0.015804185 0.32932842 -0.88129359 60 42 40
-0.016054662 0.32319006 -0.88032866 99 78 71
-0.015585667 0.32440662 -0.88220149 101 85 78
-0.01535362 0.32345334 -0.88305718 112 100 80
-0.015884338 0.32338756 -0.88099766 101 83 73
-0.015413053 0.32508615 -0.88290137 99 86 80
-0.015911192 0.32367119 -0.88090652 99 79 73
-0.016011186 0.32605895 -0.87962395 64 47 50
-0.015956705 0.32458463 -0.88042772 86 67 65
-0.016000416 0.32576403 -0.87978405 69 51 53
-0.015892006 0.32465479 -0.88075656 88 70 68
-0.016040817 0.3241879 -0.88010514 88 68 64
-0.015868606 0.32539552 -0.88062972 80 62 63
-0.015424097 0.3215344 -0.88260353 117 106 80
-0.015309334 0.32154992 -0.88306797 116 104 79
-0.015815409 0.31920233 -0.88068408 105 88 84
-0.015233788 0.31884983 -0.88297421 101 72 77
-0.015844867 0.31964716 -0.88063103 108 94 84
-0.016206484 0.32076988 -0.87942958 102 81 75
-0.016039625 0.32166091 -0.88023615 105 86 73
-0.016260985 0.32124302 -0.87930328 101 79 72
-0.015823277 0.3211711 -0.88098651 109 94 78
-0.015817968 0.32059464 -0.8809036 109 95 81
-0.016044732 0.32216924 -0.88030756 106 86 71
-0.015518109 0.31557342 -0.88164949 93 72 68
-0.015604665 0.31451559 -0.88125807 91 74 64
-0.015338717 0.31449431 -0.88231713 92 74 61
-0.015148523 0.31651914 -0.88316405 96 69 68
-0.015380084 0.3156409 -0.88220257 93 71 67
-0.015967961 0.31618237 -0.87987143 94 76 76
-0.01608664 0.31782225 -0.87944931 100 83 84
-0.015438521 0.31752339 -0.88204902 96 68 76
-0.015642105 0.31747106 -0.88122743 97 73 78
-0.015896957 0.3154631 -0.88013291 91 73 72
-0.014832611 0.31260198 -0.8827433 108 86 73
-0.015364778 0.31258604 -0.88138163 111 89 80
-0.01472004 0.31161761 -0.88240194 116 92 81
-0.015331722 0.31065226 -0.88023335 128 103 100
-0.014891594 0.31144008 -0.88185316 119 94 86
-0.015339253 0.3126592 -0.88149303 110 89 79
-0.015913429 0.31419745 -0.87991464 92 77 71
-0.015964074 0.31386119 -0.87956798 95 79 75
-0.015590903 0.31437728 -0.88127756 92 75 65
-0.015743364 0.31419292 -0.8805905 93 77 69
-0.015626268 0.31098765 -0.879677 126 102 100
-0.015212528 0.30710867 -0.88042367 90 71 70
-0.014229928 0.30837521 -0.88316089 111 79 71
-0.015003177 0.30687392 -0.88106084 92 68 67
-0.014164232 0.31009191 -0.88316917 120 92 82
-0.014211848 0.31030875 -0.88300675 120 94 84
-0.014504778 0.30900243 -0.88229018 110 84 77
-0.01524021 0.3095445 -0.88036025 116 93 91
-0.014721913 0.30925378 -0.88166541 109 87 81
-0.015542706 0.31051326 -0.87962919 129 104 103
-0.015604373 0.30736929 -0.87935197 91 74 77
-0.014697984 0.30997738 -0.88175392 118 94 87
-0.015604305 0.30943525 -0.87943137 116 94 95
-0.014497462 0.30298114 -0.88119274 100 84 68
-0.01398685 0.30431318 -0.88303077 100 72 64
-0.01481194 0.30344719 -0.88057029 101 86 69
-0.014767186 0.30395585 -0.88088661 101 83 67
-0.014237572 0.30577365 -0.8829658 101 69 62
-0.014035213 0.30410266 -0.88282329 100 74 64
-0.0151019 0.30630621 -0.88069272 90 69 67
-0.015115516 0.30316463 -0.87967253 101 90 70
-0.015108685 0.30362225 -0.87983531 100 87 70
-0.014816697 0.30552155 -0.88128167 97 74 66
-0.015139153 0.30359688 -0.87973833 99 88 70
-0.015542183 0.30609652 -0.87933999 85 71 71
-0.01111068 0.30322483 -0.88306111 54 34 33
-0.0099776275 0.3030524 -0.8825686 36 17 19
-0.013970549 0.30109978 -0.88311845 97 76 62
-0.014121654 0.30126467 -0.88241071 91 71 60
-0.014567607 0.30052939 -0.88113099 80 62 54
-0.014230628 0.30140743 -0.88188446 87 67 58
-0.014212248 0.3002387 -0.88273126 93 73 59
-0.014304374 0.30190262 -0.88165432 92 73 62
-0.015244755 0.30079585 -0.87932599 83 72 58
-0.014845573 0.30207428 -0.88025218 94 82 65
-0.014350807 0.30255228 -0.88148522 98 81 67
-0.014556283 0.30178323 -0.88101697 91 75 62
-0.015163185 0.30071068 -0.87954187 82 70 57
-0.011584638 0.30196387 -0.88279766 62 42 39
-0.012932227 0.30176669 -0.88319623 83 62 55
-0.011227305 0.30229667 -0.88263756 57 37 35
-0.010525165 0.30250502 -0.88240939 45 26 26
-0.01214777 0.30234867 -0.88287354 72 51 46
-0.011478991 0.30221227 -0.88272119 61 40 38
-0.01021277 0.29901093 -0.88301677 35 19 22
-0.014789151 0.29644433 -0.88171464 90 71 61
-0.014578649 0.29679865 -0.88262624 90 71 59
-0.014716092 0.29709843 -0.88186455 92 73 61
-0.014827315 0.29652262 -0.88150471 90 71 61
-0.014707722 0.29596886 -0.88225925 88 69 60
-0.014926037 0.29645807 -0.88104528 90 71 62
-0.014819472 0.29817182 -0.88130665 84 67 55
-0.015111609 0.2968643 -0.88024217 83 65 58
-0.015327821 0.29798132 -0.87930632 69 53 49
-0.01526476 0.29795781 -0.87955785 71 55 50
-0.014814259 0.29815069 -0.88132882 84 67 55
-0.01117708 0.2966319 -0.88310874 42 23 23
-0.01158688 0.29630551 -0.88318223 47 27 25
-0.011347234 0.29573834 -0.88299352 44 23 23
-0.010391115 0.29729098 -0.88288331 35 17 20
-0.011589801 0.29503134 -0.88294184 46 25 23
-0.010737072 0.29599139 -0.88273561 39 19 20
-0.014774406 0.29128346 -0.88245225 75 48 55
-0.014661698 0.29137921 -0.88304788 76 48 55
-0.014953728 0.29126072 -0.88149458 74 49 56
-0.014636756 0.2923784 -0.88310331 78 53 56
-0.014746634 0.29309559 -0.8824594 79 57 57
-0.015222164 0.29489321 -0.88008749 87 67 64
-0.014885584 0.29382893 -0.88170016 81 61 59
-0.015225333 0.29485342 -0.88007128 86 67 64
-0.015273105 0.29162642 -0.87977093 74 52 59
-0.015289364 0.2934266 -0.87972999 81 60 62
-0.010439077 0.294058 -0.88308805 38 17 16
-0.010477469 0.29486495 -0.88237828 39 18 17
-0.015186583 0.28753245 -0.88195044 87 64 63
-0.015176361 0.28819498 -0.88124609 87 62 65
-0.015350715 0.28730321 -0.88058573 91 66 68
-0.015093699 0.28734493 -0.88310903 84 64 60
-0.015189868 0.28787094 -0.88150537 87 63 64
-0.015330963 0.28736168 -0.88071239 90 66 67
-0.015296414 0.28969187 -0.87992483 80 55 63
-0.015167752 0.2901769 -0.88052362 78 53 60
-0.015289702 0.29086354 -0.87974417 73 50 59
-0.015282383 0.28916594 -0.88009715 83 58 64
-0.015215132 0.28858489 -0.88056445 87 60 66
-0.015931062 0.28381839 -0.88279402 85 57 63
-0.015765063 0.28459463 -0.88188702 85 62 63
-0.015889402 0.28401807 -0.88252187 85 59 63
-0.015997678 0.28376758 -0.8807795 85 64 64
-0.015825082 0.28446218 -0.88086277 85 66 63
-0.015829165 0.28485087 -0.8799271 87 67 66
-0.015761249 0.28496599 -0.88040859 86 67 65
-0.015620984 0.28538755 -0.88108599 86 66 63
-0.015362673 0.28669482 -0.88141716 88 66 65
-0.015531041 0.28637192 -0.88028812 90 67 68
-0.016066639 0.2822971 -0.88250512 87 60 67
-0.015809247 0.27962551 -0.88135731 95 75 72
-0.015335692 0.27968013 -0.88316363 94 76 64
-0.016022885 0.28140202 -0.88196236 90 65 70
-0.016050812 0.28203028 -0.88235366 88 61 68
-0.015695386 0.27964863 -0.88179952 95 75 70
-0.016219106 0.28166339 -0.87940907 89 70 72
-0.016168576 0.2830191 -0.87977815 85 66 66
-0.016144728 0.28316921 -0.88049793 85 64 65
-0.016097063 0.28287899 -0.88259453 85 57 65
-0.016120953 0.28259161 -0.88202602 86 60 67
