ply
format ascii 1.0
comment PCL generated
element vertex 728
property float x
property float y
property float z
property uchar red
property uchar green
property uchar blue
element camera 1
property float view_px
property float view_py
property float view_pz
property float x_axisx
property float x_axisy
property float x_axisz
property float y_axisx
property float y_axisy
property float y_axisz
property float z_axisx
property float z_axisy
property float z_axisz
property float focal
property float scalex
property float scaley
property float centerx
property float centery
property int viewportx
property int viewporty
property float k1
property float k2
end_header
-0.27953953 -0.0019396603 -0.83919591 106 57 67
-0.27897069 -0.0018268955 -0.83901268 109 60 70
-0.27881643 -0.0011915427 -0.83946043 113 66 73
-0.2784932 -0.0015085087 -0.83907431 113 66 73
-0.28341791 -0.0042489711 -0.83978307 103 60 53
-0.28343469 -0.005780532 -0.83868533 106 64 57
-0.28331649 -0.0047267172 -0.83937502 104 61 54
-0.28458744 -0.0053811367 -0.83968353 106 64 60
-0.2792992 -0.0030830055 -0.83815038 105 56 63
-0.28129718 -0.0041293558 -0.83861881 106 60 62
-0.28111035 -0.0049514747 -0.83784693 105 60 58
-0.2810972 -0.0055481251 -0.83736616 104 60 55
-0.28047681 -0.0048251534 -0.83753604 104 59 58
-0.28143689 -0.0047463006 -0.83822119 106 60 59
-0.28198346 -0.0049111783 -0.83844519 106 61 59
-0.2797423 -0.0024038581 -0.83897597 106 57 67
-0.28265721 -0.0047224239 -0.8389923 106 62 57
-0.2825397 -0.0048508346 -0.83883083 106 62 58
-0.28085953 -0.0027411541 -0.83938223 105 59 62
-0.2827442 -0.0035102293 -0.83991975 102 59 54
-0.28262129 -0.0032824026 -0.84001338 102 59 54
-0.27688026 -0.0039865444 -0.83649921 118 74 70
-0.2769087 -0.0036905813 -0.83672374 119 75 70
-0.27688703 -0.0037927935 -0.83664209 119 75 70
-0.27746671 -0.0022373982 -0.83807462 118 72 73
-0.27713394 -0.0031331005 -0.83722985 118 75 70
-0.27887341 -0.0029420913 -0.83808839 107 60 65
-0.27845928 -0.002059469 -0.83861905 112 64 71
-0.2775254 -0.0035250126 -0.83707857 115 71 67
-0.27740771 -0.0027251891 -0.83766431 117 72 71
-0.28332216 -0.0088178087 -0.8365714 103 62 55
-0.28324825 -0.0082231415 -0.83692598 104 62 55
-0.28429666 -0.0072797798 -0.83820611 109 69 60
-0.28436792 -0.0095304493 -0.83673197 107 68 59
-0.28534809 -0.0084604062 -0.83806211 112 75 63
-0.28471041 -0.0080780014 -0.83792442 110 71 61
-0.28392184 -0.0075904708 -0.83776397 108 67 58
-0.28496411 -0.0077948105 -0.83827293 111 73 62
-0.28508672 -0.0066153426 -0.83913875 109 69 62
-0.2855415 -0.0074078436 -0.83888805 111 73 64
-0.28355381 -0.0058969171 -0.83867645 107 64 58
-0.28615215 -0.0064903786 -0.8398779 109 70 66
-0.28506583 -0.0059973383 -0.83953953 107 67 62
-0.28111818 -0.0063932948 -0.836775 103 59 54
-0.28162956 -0.00696819 -0.83672071 103 60 54
-0.28071702 -0.0063370755 -0.83655256 102 59 53
-0.28264004 -0.0071659251 -0.83724338 104 61 55
-0.28209433 -0.0060979966 -0.83760643 105 61 55
-0.2871514 -0.011881733 -0.83698946 114 79 64
-0.28608432 -0.011844985 -0.83635467 110 72 60
-0.28641057 -0.011113626 -0.8370086 113 76 63
-0.28432339 -0.0097903535 -0.83653045 107 68 59
-0.28678405 -0.011317229 -0.83711469 114 78 63
-0.29513603 -0.02126132 -0.83648121 123 90 67
-0.30315563 -0.024802376 -0.83749509 100 76 65
-0.30320659 -0.024541987 -0.83761573 100 76 65
-0.3051286 -0.023890896 -0.83847672 103 77 72
-0.30376592 -0.025217101 -0.83751857 101 79 68
-0.30513367 -0.024702424 -0.83815193 103 80 73
-0.30280077 -0.02369467 -0.83782989 100 72 62
-0.3065896 -0.02284422 -0.83937603 102 82 75
-0.29885277 -0.024437882 -0.83648282 102 71 57
-0.30059451 -0.024009885 -0.83708221 107 82 65
-0.3017101 -0.025086487 -0.83697701 101 76 62
-0.30021101 -0.025043244 -0.83661228 99 71 58
-0.29945046 -0.02455896 -0.83659393 102 72 59
-0.30146927 -0.022666113 -0.83784938 107 80 66
-0.3016693 -0.023682311 -0.8374998 106 82 66
-0.3025215 -0.023027793 -0.83801454 101 72 62
-0.30155352 -0.023268064 -0.83763212 106 81 66
-0.30245301 -0.023511238 -0.83779991 101 74 63
-0.29818663 -0.023933381 -0.83645988 106 74 58
-0.29873776 -0.023284374 -0.83686566 110 82 64
-0.29706851 -0.02319104 -0.83638149 111 78 60
-0.30390844 -0.027812038 -0.83657134 105 86 73
-0.30319151 -0.027292255 -0.83656085 103 84 69
-0.3027713 -0.025452293 -0.83711505 100 78 64
-0.30496281 -0.029032551 -0.83642066 108 92 80
-0.30469936 -0.025843255 -0.83756042 104 83 73
-0.30552194 -0.025511052 -0.83794856 104 83 75
-0.30405214 -0.026056452 -0.83727419 103 82 71
-0.30488878 -0.02587357 -0.8376075 104 83 74
-0.30474427 -0.026010621 -0.83750814 104 83 73
-0.30482623 -0.025643513 -0.83767915 103 82 73
-0.30115667 -0.025448216 -0.83670592 98 71 59
-0.30254915 -0.027276782 -0.83639181 102 82 67
-0.30232993 -0.026385268 -0.83666158 100 79 65
-0.30700952 -0.029912133 -0.83667058 116 100 92
-0.30673078 -0.029542826 -0.83672899 115 100 91
-0.27992997 -0.013158625 -0.83240223 97 53 51
-0.27836877 -0.013263655 -0.83178777 96 51 51
-0.27780461 -0.013090659 -0.83172065 97 52 51
-0.27661777 -0.012570774 -0.83162028 100 53 52
-0.27777356 -0.012892041 -0.83180279 97 52 51
-0.27699301 -0.01224945 -0.8318544 99 52 52
-0.27665514 -0.012809211 -0.83153248 99 53 52
-0.27670461 -0.012988462 -0.83147228 99 53 52
-0.27395579 -0.013496966 -0.8308723 113 69 61
-0.28071859 -0.014565813 -0.83218545 96 53 49
-0.28168112 -0.015938437 -0.83208376 95 53 47
-0.28147373 -0.015895439 -0.83200437 94 52 47
-0.28207439 -0.016685754 -0.83200371 94 52 46
-0.28029382 -0.014981903 -0.83184123 94 51 49
-0.28228581 -0.017302923 -0.83191609 94 52 45
-0.27955186 -0.016733717 -0.8311395 91 49 48
-0.27693737 -0.016454699 -0.83057898 95 50 51
-0.27758586 -0.016396428 -0.83072561 93 50 50
-0.27719972 -0.016151791 -0.83069611 94 50 51
-0.27696717 -0.016143557 -0.83064955 95 51 51
-0.27637681 -0.015005757 -0.83076251 97 52 51
-0.27558506 -0.017253241 -0.83013338 96 50 54
-0.27775955 -0.015863182 -0.83088088 94 50 50
-0.27923265 -0.015855534 -0.83126301 92 49 49
-0.27837217 -0.014956869 -0.83127242 94 50 50
-0.27662811 -0.014333468 -0.83098286 97 53 51
-0.27901608 -0.016573561 -0.8310222 91 49 48
-0.27743348 -0.014671238 -0.83110374 96 52 51
-0.27320325 -0.017560709 -0.83003646 113 66 63
-0.27202508 -0.016385784 -0.83025301 125 80 69
-0.27392954 -0.01712198 -0.83011341 109 62 61
-0.27403989 -0.016632184 -0.83020169 109 63 61
-0.27488101 -0.016460469 -0.83024567 102 56 57
-0.27407703 -0.01388393 -0.83076054 111 67 60
-0.27355292 -0.014230357 -0.83067709 116 72 63
-0.27429208 -0.016432531 -0.83023822 108 62 60
-0.27384743 -0.015151218 -0.83049327 113 68 62
-0.27052057 -0.017013628 -0.83041042 129 81 71
-0.28444052 -0.019819794 -0.83238786 93 51 45
-0.28368455 -0.020923503 -0.83188266 90 49 40
-0.28430885 -0.02116942 -0.83211821 90 49 42
-0.28333741 -0.021172162 -0.83169621 89 48 39
-0.28287688 -0.021292452 -0.83151871 89 48 38
-0.27972198 -0.020699009 -0.83069617 89 47 41
-0.28013608 -0.019768668 -0.8308872 89 48 43
-0.28172818 -0.020304883 -0.83128279 89 48 41
-0.28048751 -0.020654699 -0.83091122 89 48 41
-0.27983052 -0.017896162 -0.83097041 90 48 47
-0.28297171 -0.019017333 -0.83186978 92 51 42
-0.28177145 -0.017971396 -0.83161497 92 51 45
-0.28223377 -0.019918201 -0.83149099 90 48 41
-0.28180712 -0.018175511 -0.83159763 92 50 45
-0.28103542 -0.01881849 -0.83124453 90 48 44
-0.27563316 -0.019766722 -0.83002383 98 51 51
-0.27669901 -0.020070933 -0.83016968 95 50 48
-0.2763775 -0.018638678 -0.83014798 95 49 51
-0.27630022 -0.020304954 -0.83010936 96 50 49
-0.27605352 -0.02104529 -0.83006209 97 51 48
-0.27685028 -0.019454619 -0.83020133 94 49 48
-0.27753916 -0.018353326 -0.83040756 93 48 49
-0.27754843 -0.017835656 -0.83045214 93 48 50
-0.27879277 -0.018528981 -0.83065301 90 48 46
-0.27891165 -0.01930037 -0.83061409 90 48 45
-0.27759296 -0.019703422 -0.83030742 93 48 46
-0.27655298 -0.017579393 -0.83026683 94 49 52
-0.27197751 -0.018546674 -0.83004731 121 75 66
-0.27152312 -0.018654719 -0.83007783 123 76 67
-0.27212474 -0.018130945 -0.83002764 121 75 66
-0.27250198 -0.017734759 -0.830033 118 72 65
-0.27436361 -0.019620011 -0.82999545 106 59 56
-0.27529371 -0.018360209 -0.83001333 98 51 54
-0.27510896 -0.021145137 -0.82996756 101 54 51
-0.2748659 -0.019062741 -0.83000302 102 55 55
-0.27008173 -0.020279456 -0.83050954 127 74 68
-0.26884934 -0.020083802 -0.83078986 133 77 73
-0.26938543 -0.019176202 -0.83066195 132 79 72
-0.26990193 -0.018666079 -0.83050418 131 79 71
-0.27112079 -0.017866813 -0.83014727 127 79 70
-0.26979852 -0.019399799 -0.83055985 130 77 70
-0.28581268 -0.025211232 -0.8323878 86 48 42
-0.28494507 -0.022758625 -0.83223361 88 48 42
-0.28547937 -0.02432248 -0.83232373 87 48 42
-0.28539953 -0.025130479 -0.83225769 86 48 42
-0.28400177 -0.023899157 -0.8318274 88 48 41
-0.28438026 -0.023610717 -0.8319481 87 48 40
-0.2802164 -0.025109494 -0.83097172 92 51 42
-0.27998716 -0.024634855 -0.83089083 92 51 42
-0.28031993 -0.025059007 -0.83098763 92 51 42
-0.28105029 -0.025049439 -0.83112717 91 51 42
-0.28010908 -0.025302159 -0.830966 92 52 42
-0.28184032 -0.023817644 -0.83120102 89 49 41
-0.28069121 -0.021913527 -0.83089632 89 48 39
-0.28237343 -0.023442004 -0.8313508 89 49 40
-0.28091481 -0.022455467 -0.83095443 89 48 40
-0.28179273 -0.022405157 -0.83119732 89 48 39
-0.28316987 -0.025346719 -0.83155811 89 49 42
-0.27700111 -0.023121769 -0.83031785 97 53 47
-0.278308 -0.025210083 -0.83071834 96 54 44
-0.27706036 -0.024011334 -0.83045214 98 54 46
-0.27597898 -0.022294747 -0.83012241 99 53 48
-0.27592289 -0.024095349 -0.83038145 101 57 48
-0.27826431 -0.023697916 -0.83053946 94 52 44
-0.27743596 -0.022734692 -0.83034754 96 51 45
-0.27867541 -0.023935726 -0.83061618 94 51 43
-0.27820116 -0.022749227 -0.83045697 94 51 43
-0.27768341 -0.021644609 -0.83029801 94 50 44
-0.27490452 -0.025047738 -0.83051169 106 62 50
-0.27420396 -0.024324518 -0.83044648 109 63 52
-0.27384892 -0.024148751 -0.83044338 110 64 53
-0.27516943 -0.024609767 -0.83043075 105 60 49
-0.27336368 -0.022867206 -0.83028096 111 63 55
-0.2735464 -0.021931412 -0.83013356 109 60 55
-0.2751452 -0.024771284 -0.83045572 105 60 49
-0.28605217 -0.026806353 -0.83230382 87 48 41
-0.28515315 -0.026066201 -0.83210385 87 48 42
-0.28394979 -0.025828084 -0.83175278 88 49 42
-0.28679079 -0.028940551 -0.83229703 88 48 38
-0.2840876 -0.029273825 -0.83195007 91 50 41
-0.28393558 -0.027975261 -0.83184129 90 50 41
-0.28561398 -0.028571662 -0.83210707 88 48 39
-0.28378251 -0.028633105 -0.83186555 90 50 41
-0.28465083 -0.028619887 -0.83198112 89 49 40
-0.28343323 -0.028216604 -0.83179033 90 50 42
-0.27987021 -0.027796416 -0.8312372 95 52 44
-0.28151724 -0.028558481 -0.83153468 93 51 43
-0.27994388 -0.027734106 -0.83123624 95 52 44
-0.27964869 -0.028792279 -0.83135974 96 52 46
-0.28128025 -0.028480427 -0.83149654 94 51 43
-0.28064832 -0.027797377 -0.83132458 94 52 43
-0.28287736 -0.025865927 -0.83153683 89 50 42
-0.28284088 -0.025531434 -0.83150703 89 50 42
-0.27999845 -0.025795836 -0.83097923 93 52 42
-0.2820631 -0.026565539 -0.83142805 91 51 42
-0.28143805 -0.02637489 -0.83129513 92 51 42
-0.28162616 -0.026865555 -0.83136469 92 51 42
-0.27843902 -0.029163482 -0.83140773 100 54 48
-0.27560854 -0.025804101 -0.83063471 104 60 49
-0.27751222 -0.028278101 -0.83121455 102 56 49
-0.27543408 -0.028475482 -0.83139104 110 61 54
-0.2779485 -0.028310595 -0.83119822 101 55 48
-0.27599746 -0.029077131 -0.83152622 109 60 54
-0.2792961 -0.027978912 -0.83119988 96 53 45
-0.27770907 -0.026285192 -0.83083344 99 56 46
-0.27691066 -0.026131142 -0.83075243 101 57 47
-0.27754527 -0.026067168 -0.83078921 99 56 46
-0.27839607 -0.026101019 -0.83085632 97 54 45
-0.2783927 -0.026013365 -0.83084309 97 54 45
-0.27470648 -0.025997614 -0.83074898 109 63 51
-0.27529231 -0.026605077 -0.83087796 107 61 51
-0.28725234 -0.031872336 -0.83232921 88 47 42
-0.28756288 -0.03295536 -0.83234155 88 47 43
-0.28477353 -0.031668756 -0.83208644 91 49 43
-0.28334674 -0.031811301 -0.83205146 91 49 42
-0.28326371 -0.032526039 -0.83210951 91 49 42
-0.28344837 -0.033183224 -0.83217144 91 48 42
-0.28325805 -0.029585129 -0.83185929 91 50 42
-0.28657597 -0.030761944 -0.83226186 89 48 41
-0.28694507 -0.032784928 -0.83227873 89 48 44
-0.28559622 -0.031197678 -0.8321234 90 49 42
-0.28666031 -0.030273767 -0.83228105 88 48 40
-0.28537947 -0.029801032 -0.83211684 90 49 40
-0.28533709 -0.030869078 -0.83209395 90 49 42
-0.2803942 -0.031881157 -0.83195239 97 53 45
-0.27954003 -0.032931384 -0.83222085 101 55 47
-0.28189036 -0.032243337 -0.8319872 94 50 43
-0.28066188 -0.032261688 -0.83203101 97 52 45
-0.28167805 -0.032571252 -0.83206928 95 51 44
-0.28259155 -0.033107001 -0.83216274 93 50 42
-0.2826733 -0.029363597 -0.83177924 92 51 42
-0.28092751 -0.030459058 -0.8316766 95 51 44
-0.28135625 -0.029662143 -0.83165693 94 51 44
-0.28040034 -0.030223377 -0.83159745 96 51 45
-0.28256643 -0.029812843 -0.83180547 92 51 42
-0.27807561 -0.032917041 -0.83240604 108 60 52
-0.27748677 -0.031622492 -0.83206189 107 59 52
-0.27690575 -0.029838622 -0.83165884 107 58 52
-0.27880803 -0.03022618 -0.83163667 100 54 48
-0.27922925 -0.030338494 -0.83163786 99 53 47
-0.27906671 -0.030440358 -0.8316707 99 54 47
-0.27736142 -0.030557007 -0.831797 106 58 51
-0.27792716 -0.029590277 -0.83154219 103 56 50
-0.2874063 -0.034911983 -0.83239967 87 47 41
-0.28635651 -0.0346018 -0.83236778 89 47 42
-0.28548041 -0.035162378 -0.83240545 89 47 41
-0.28678611 -0.035353716 -0.83239561 88 47 41
-0.28548974 -0.033945259 -0.83235037 90 47 44
-0.28387132 -0.034072574 -0.83232546 91 47 43
-0.28456369 -0.033323061 -0.83222908 91 48 43
-0.28389102 -0.0338609 -0.83229244 91 48 42
-0.28221843 -0.034190625 -0.83236867 94 49 44
-0.28173074 -0.033689599 -0.83231199 96 51 44
-0.29819414 -0.040509433 -0.83202398 80 35 44
-0.29700315 -0.039865546 -0.83224618 76 36 36
-0.29614463 -0.040407561 -0.83219302 76 38 35
-0.29848176 -0.040514801 -0.83200216 81 35 45
-0.29501814 -0.038961645 -0.83238494 75 39 30
-0.29576355 -0.038669173 -0.83241332 75 38 31
-0.29495913 -0.040893395 -0.83216572 75 40 32
-0.29161459 -0.040722903 -0.83241451 77 41 31
-0.29481819 -0.039139107 -0.83237261 75 40 30
-0.29175025 -0.040785979 -0.83239794 77 41 31
-0.29936457 -0.042412635 -0.83166021 90 47 57
-0.29904991 -0.043344516 -0.83155072 87 40 51
-0.2957074 -0.042142317 -0.83196676 76 39 35
-0.29535443 -0.042212974 -0.83200914 75 39 34
-0.29704255 -0.043582629 -0.83168548 80 37 40
-0.29709682 -0.044040203 -0.83164579 80 37 40
-0.2955834 -0.042138748 -0.83198363 76 39 35
-0.29712847 -0.042690646 -0.8317703 80 38 40
-0.29817396 -0.041428611 -0.83186311 81 36 46
-0.29873541 -0.041037217 -0.83187485 82 36 48
-0.29820606 -0.042796485 -0.83167869 83 36 45
-0.29829574 -0.043425821 -0.83158845 83 36 44
-0.29382458 -0.044268563 -0.83205861 74 39 33
-0.29325944 -0.043972857 -0.83215588 75 40 33
-0.29330871 -0.044551898 -0.83218402 75 40 33
-0.29394355 -0.042413607 -0.83212066 74 40 32
-0.29467142 -0.042134963 -0.83209002 74 40 32
-0.29375473 -0.041587807 -0.83219236 75 40 32
-0.29400384 -0.04187873 -0.83215445 75 40 32
-0.2944932 -0.041023951 -0.83218116 75 41 32
-0.29642564 -0.046678863 -0.83151424 81 45 44
-0.29806346 -0.048493657 -0.83112323 91 53 57
-0.29710966 -0.047923628 -0.83134121 85 48 49
-0.29500639 -0.048011333 -0.83179504 71 36 33
-0.29523337 -0.048468746 -0.83173674 73 37 35
-0.29552603 -0.047649026 -0.83168972 75 39 37
-0.29876575 -0.046745252 -0.83117259 90 45 53
-0.29838639 -0.045788258 -0.83132154 86 40 48
-0.29805583 -0.046355296 -0.83130783 86 44 49
-0.29677197 -0.046326194 -0.83148301 82 44 45
-0.29762411 -0.045056507 -0.83149868 82 37 42
-0.29352415 -0.047595132 -0.83218175 75 39 34
-0.29307741 -0.048021134 -0.83235854 78 40 35
-0.2932919 -0.047315791 -0.83224076 76 39 34
-0.29388082 -0.045011684 -0.83208847 74 39 33
-0.29474708 -0.04848152 -0.8318401 71 36 33
-0.29343364 -0.045032628 -0.8321805 75 40 33
-0.29754308 -0.05159058 -0.83090419 89 52 57
-0.29515824 -0.051317908 -0.83167922 74 36 39
-0.29650322 -0.052128907 -0.83123118 83 45 50
-0.29571858 -0.051606204 -0.83149338 78 40 43
-0.29588386 -0.052174248 -0.83143049 80 41 46
-0.29703325 -0.048966013 -0.83132267 84 47 49
-0.29533353 -0.048983213 -0.83168876 73 38 36
-0.2959137 -0.049129236 -0.83154511 77 41 41
-0.29660171 -0.049854178 -0.83130682 82 45 47
-0.2937122 -0.052439082 -0.83229524 81 42 41
-0.29361248 -0.050400332 -0.8322345 78 39 37
-0.29390633 -0.048878152 -0.83213454 75 38 34
-0.29490852 -0.049692761 -0.83178705 71 35 34
-0.29423058 -0.049684539 -0.83201313 74 37 35
-0.29508752 -0.055263765 -0.83177269 84 41 43
-0.29509145 -0.055386279 -0.83177656 84 41 43
-0.29519838 -0.055630539 -0.83173949 85 42 44
-0.29519761 -0.054752048 -0.83169985 82 40 43
-0.29553831 -0.053225979 -0.83149272 79 39 44
-0.29432213 -0.056554578 -0.83225447 91 47 44
-0.2939758 -0.055849936 -0.8323974 90 48 44
-0.29476318 -0.05437322 -0.83188266 81 39 41
-0.29479769 -0.056102667 -0.83194494 86 42 43
-0.29475003 -0.056892473 -0.83202499 88 44 44
-0.27813461 -0.0057122312 -0.83566213 106 60 58
-0.2770367 -0.0054533407 -0.83547115 112 65 65
-0.27760464 -0.0050156848 -0.83599764 111 65 63
-0.27836081 -0.0050921012 -0.83620995 107 61 59
-0.27710313 -0.0052269367 -0.8356626 113 66 65
-0.28222361 -0.0081320116 -0.83632463 102 60 54
-0.28307328 -0.0092093432 -0.83614969 102 60 55
-0.27978912 -0.0087158382 -0.83452016 99 55 49
-0.27932021 -0.0077685881 -0.83481979 99 55 49
-0.28060219 -0.009502111 -0.83451551 99 56 50
-0.28081381 -0.0088324491 -0.83504027 100 56 51
-0.28137264 -0.0081754439 -0.83575737 101 58 53
-0.28181162 -0.0088842222 -0.83558393 101 58 53
-0.28098574 -0.0086629167 -0.83524126 101 57 52
-0.27842954 -0.0091356579 -0.83369231 102 56 52
-0.27604941 -0.0073937955 -0.83393848 113 63 66
-0.27889192 -0.006762444 -0.83526951 102 57 52
-0.27923256 -0.0095744971 -0.83369756 98 54 48
-0.2792263 -0.0063613094 -0.83562809 100 56 51
-0.27893913 -0.006425851 -0.8354885 102 57 52
-0.27909318 -0.0061350027 -0.83571756 101 56 51
-0.28510538 -0.01112173 -0.83619505 108 68 58
-0.2848281 -0.011155645 -0.83600491 107 66 58
-0.28500384 -0.011411572 -0.83595777 107 66 58
-0.28432298 -0.013567931 -0.83442187 104 64 55
-0.2845009 -0.012510991 -0.83508545 105 65 56
-0.28396142 -0.013330269 -0.83435345 104 63 54
-0.28566289 -0.012706516 -0.83561033 108 68 58
-0.28583696 -0.013505878 -0.83527571 108 69 58
-0.2844156 -0.012032528 -0.83529598 105 64 56
-0.28384098 -0.010500307 -0.83580673 104 62 56
-0.27965915 -0.012218656 -0.83268666 97 52 50
-0.27950868 -0.010179417 -0.83352441 98 54 48
-0.28079069 -0.012565762 -0.83308816 98 56 51
-0.28072846 -0.012050185 -0.83328557 99 56 50
-0.28255925 -0.013576968 -0.83349174 101 59 52
-0.28207341 -0.012800794 -0.83360058 100 58 51
-0.28222725 -0.010636387 -0.83482581 101 58 53
-0.28221649 -0.010422831 -0.83493423 101 58 53
-0.28167185 -0.01018837 -0.83474636 100 57 52
-0.28260043 -0.010234977 -0.83525622 102 59 54
-0.2821871 -0.012613475 -0.83374184 100 59 51
-0.28225631 -0.010439828 -0.83494812 101 58 53
-0.28152117 -0.010970628 -0.83423978 100 57 51
-0.27913141 -0.010658687 -0.83315372 97 52 49
-0.27873546 -0.01010163 -0.83328629 99 53 49
-0.2792601 -0.011917287 -0.83262557 96 51 49
-0.27921551 -0.011775161 -0.83267629 96 51 49
-0.28927508 -0.015312248 -0.83629006 118 88 70
-0.28878585 -0.017241769 -0.83524978 113 81 64
-0.28835306 -0.015766893 -0.83563823 113 80 64
-0.28728744 -0.015956068 -0.83502936 109 72 58
-0.28954932 -0.016629018 -0.83588141 116 88 69
-0.28717259 -0.017344447 -0.8344034 107 69 56
-0.28796563 -0.016032828 -0.83533603 112 77 62
-0.28733021 -0.014291883 -0.8357324 111 74 61
-0.28608158 -0.016608257 -0.83411652 105 66 55
-0.28642958 -0.017159173 -0.8340798 105 67 54
-0.28536594 -0.015926847 -0.8340078 104 65 54
-0.28429401 -0.017009947 -0.83298701 99 59 49
-0.2847797 -0.015889412 -0.83370638 102 63 53
-0.28542528 -0.014289355 -0.8347106 106 67 56
-0.28463107 -0.0137499 -0.83450109 105 65 55
-0.28513861 -0.014399151 -0.83451021 106 66 56
-0.28470585 -0.015064926 -0.83400291 104 64 54
-0.28576174 -0.014566103 -0.83477956 107 68 57
-0.28676495 -0.016647469 -0.83447075 107 69 56
-0.2829951 -0.014056575 -0.83350271 100 59 52
-0.28276402 -0.016296303 -0.83248043 96 55 47
-0.28189331 -0.01374472 -0.8331005 99 58 52
-0.29193789 -0.02000322 -0.83574516 114 84 64
-0.29137817 -0.020431977 -0.83539778 110 77 60
-0.29144859 -0.020732753 -0.83532244 109 75 58
-0.29169798 -0.020411927 -0.8355208 111 79 61
-0.29132906 -0.021480482 -0.83502805 105 68 54
-0.29132858 -0.020634878 -0.83531165 109 75 58
-0.28804067 -0.019878613 -0.83408016 101 62 53
-0.28851447 -0.02095289 -0.83400488 98 59 52
-0.28901964 -0.021174526 -0.83415926 99 60 52
-0.28939191 -0.020873521 -0.83439088 101 63 53
-0.28962821 -0.021243704 -0.83439541 100 62 52
-0.28750968 -0.020747246 -0.83363819 96 56 52
-0.28948563 -0.01764816 -0.83543748 115 86 67
-0.28986821 -0.020297557 -0.83473891 105 67 54
-0.28836781 -0.018239414 -0.83468163 108 73 58
-0.29029953 -0.01888934 -0.83542663 112 82 64
-0.28974995 -0.018819489 -0.83517611 111 78 61
-0.28983647 -0.019728841 -0.83491403 107 72 57
-0.28648871 -0.019384483 -0.83354938 99 60 51
-0.28683388 -0.020398581 -0.8334409 96 55 52
-0.28673732 -0.01835496 -0.83391815 103 65 53
-0.28492108 -0.019599443 -0.83269262 95 54 47
-0.2853725 -0.018585809 -0.83313781 99 59 49
-0.28507367 -0.018805578 -0.83293271 97 57 48
-0.28446594 -0.018593458 -0.83264655 96 55 47
-0.28536528 -0.020528436 -0.83274806 94 52 47
-0.29781586 -0.024115438 -0.83628654 104 72 57
-0.29698288 -0.024692109 -0.8358891 100 68 55
-0.29565457 -0.024274705 -0.83566713 103 71 57
-0.29757425 -0.02443883 -0.83612317 102 69 56
-0.29602671 -0.023915589 -0.83587593 105 73 58
-0.29698488 -0.023310693 -0.8363151 110 77 60
-0.29339147 -0.02280613 -0.83536959 106 72 56
-0.29393759 -0.022227656 -0.83574629 112 79 60
-0.29456457 -0.023392305 -0.83561558 107 75 58
-0.29389006 -0.022645835 -0.8356002 109 76 59
-0.29392841 -0.021564798 -0.8359471 117 83 62
-0.29485798 -0.024635021 -0.83533955 100 68 56
-0.29135382 -0.023854304 -0.83444536 96 58 46
-0.29277995 -0.024671771 -0.83467036 95 59 48
-0.29140151 -0.025169803 -0.83414465 92 53 42
-0.29190606 -0.023246614 -0.83475369 99 62 50
-0.29462954 -0.025246756 -0.8350783 95 63 53
-0.29210147 -0.02480326 -0.83443874 94 57 45
-0.28855363 -0.023135632 -0.83351386 91 50 47
-0.28872672 -0.023423238 -0.83352977 91 50 46
-0.28744054 -0.02427105 -0.83302552 87 48 44
-0.28755397 -0.025328739 -0.83292359 85 47 41
-0.28831196 -0.025182441 -0.83317512 87 48 41
-0.28849718 -0.023469726 -0.83345336 91 50 46
-0.28882149 -0.023137087 -0.83360237 92 51 46
-0.29061112 -0.022125931 -0.83459055 100 62 50
-0.28923562 -0.02235161 -0.83396304 96 56 49
-0.29003879 -0.022214822 -0.83433068 98 60 50
-0.28826806 -0.022145279 -0.83360904 94 53 50
-0.28709033 -0.021912383 -0.83322299 92 50 50
-0.28581807 -0.023055403 -0.8325848 89 48 45
-0.28610709 -0.023565976 -0.83266354 88 49 45
-0.28651461 -0.022489224 -0.83293664 90 49 48
-0.30316386 -0.028355781 -0.83616143 104 86 72
-0.3036541 -0.028308494 -0.83631891 105 87 73
-0.30183855 -0.02781399 -0.83600903 101 80 66
-0.30134711 -0.027578877 -0.83596945 100 77 64
-0.30130515 -0.029062815 -0.83544129 94 74 61
-0.29883242 -0.026402714 -0.83578718 90 59 48
-0.29989353 -0.028372968 -0.83535463 87 63 51
-0.29919329 -0.027867641 -0.83536756 85 58 47
-0.29918519 -0.02845238 -0.83516526 82 56 45
-0.29674459 -0.028110834 -0.83472216 80 51 43
-0.29547325 -0.026652042 -0.83488393 87 57 48
-0.29604039 -0.02676722 -0.83496159 87 58 48
-0.29570466 -0.027687654 -0.83463901 81 51 44
-0.29746249 -0.029153924 -0.83456939 74 47 39
-0.29684246 -0.028665341 -0.83458591 76 48 40
-0.29755437 -0.027295183 -0.83515316 85 57 46
-0.2986652 -0.025705868 -0.83598328 94 61 51
-0.29756844 -0.027760137 -0.83499742 82 55 45
-0.29741827 -0.02561993 -0.83569247 94 62 52
-0.29719678 -0.026939942 -0.83518314 87 58 48
-0.29143634 -0.028181201 -0.83349174 82 45 38
-0.29474992 -0.029152775 -0.8340286 71 38 36
-0.29281607 -0.028536167 -0.83372557 78 42 37
-0.29135075 -0.028482933 -0.83340985 82 44 38
-0.29223666 -0.026727863 -0.83397228 84 46 38
-0.29418483 -0.026937228 -0.83447993 84 51 44
-0.29412931 -0.027489772 -0.83430892 81 47 41
-0.2947557 -0.028825244 -0.83411998 73 40 37
-0.29203072 -0.025699802 -0.83419085 90 52 42
-0.29427522 -0.028447682 -0.83408391 75 41 37
-0.29442275 -0.027491257 -0.83439499 81 48 42
-0.28735906 -0.025693676 -0.83279806 84 46 41
-0.28790298 -0.027761871 -0.83268672 85 46 40
-0.28775427 -0.027022261 -0.83273602 85 46 40
-0.28871599 -0.027138311 -0.83292294 83 45 40
-0.28830287 -0.027442591 -0.83280426 84 46 40
-0.29005837 -0.025571063 -0.83364671 89 49 40
-0.28861162 -0.025608877 -0.83319485 86 48 41
-0.28796893 -0.025426032 -0.83303559 86 47 41
-0.29094958 -0.025672272 -0.83389914 90 50 39
-0.28993168 -0.027525684 -0.83320147 83 46 40
-0.28873742 -0.026893467 -0.83296639 83 45 40
-0.28645998 -0.025667902 -0.83255303 85 47 42
-0.28635234 -0.026128884 -0.83247125 86 47 41
-0.30543208 -0.029885391 -0.83622688 113 98 87
-0.30438942 -0.03088416 -0.83553672 114 99 88
-0.30403429 -0.029896896 -0.83582348 109 94 81
-0.30377945 -0.029894203 -0.83575171 109 93 80
-0.30300599 -0.030529616 -0.83532643 107 91 76
-0.30335805 -0.031772569 -0.83498043 110 95 82
-0.30416608 -0.033017587 -0.83474237 116 102 91
-0.30092299 -0.0317313 -0.83445454 92 73 61
-0.29985428 -0.033188649 -0.83387727 76 51 47
-0.30145994 -0.032577518 -0.83430576 96 78 66
-0.30152687 -0.032972392 -0.83420676 96 78 67
-0.30055675 -0.031354811 -0.83450025 89 69 57
-0.30144599 -0.030005587 -0.8351481 95 76 63
-0.29972875 -0.030090451 -0.83472574 82 61 49
-0.30244881 -0.032635473 -0.83446801 107 92 77
-0.30232 -0.030339854 -0.83523256 102 85 71
-0.30192259 -0.032144234 -0.83451748 102 86 71
-0.30232695 -0.031941835 -0.83468002 105 89 74
-0.29509079 -0.029891258 -0.83391875 70 37 35
-0.29542387 -0.033045895 -0.83320081 65 33 29
-0.29675102 -0.031583108 -0.83377123 67 36 35
-0.29497141 -0.030603448 -0.83372551 68 36 33
-0.29736117 -0.032812271 -0.83356845 64 35 33
-0.29608449 -0.032148827 -0.83352607 66 35 32
-0.29793853 -0.030719934 -0.83422601 70 42 37
-0.29657808 -0.029562976 -0.83428401 71 42 37
-0.29770809 -0.029844208 -0.83442485 72 45 38
-0.29625088 -0.029505521 -0.83423656 71 41 37
-0.29688334 -0.029634846 -0.83432317 72 43 37
-0.29266906 -0.032611504 -0.83291775 72 39 34
-0.29273495 -0.032165825 -0.83298188 73 39 34
-0.29226592 -0.032802448 -0.8328504 74 41 36
-0.29122624 -0.03282997 -0.83273613 77 44 39
-0.29198572 -0.030781116 -0.83307934 76 41 36
-0.29340652 -0.03017284 -0.83348495 73 39 35
-0.29313934 -0.029732142 -0.83353311 74 40 36
-0.29408097 -0.031301264 -0.83335942 70 36 32
-0.29489014 -0.031562958 -0.83347589 67 35 31
-0.29395139 -0.031548705 -0.83327001 70 36 32
-0.29362297 -0.030270699 -0.83350927 72 38 35
-0.29060102 -0.031508792 -0.83284354 80 44 40
-0.29073504 -0.033035349 -0.83266079 79 45 40
-0.28999293 -0.031850215 -0.83274215 82 45 40
-0.28943509 -0.033018693 -0.83253968 83 46 41
-0.28876445 -0.030863112 -0.83261466 85 46 40
-0.28839162 -0.032956097 -0.83242464 86 47 42
-0.28790846 -0.030728931 -0.83244437 87 47 40
-0.28864852 -0.032834381 -0.83248448 85 46 42
-0.28873888 -0.02990333 -0.83266103 85 46 39
-0.30289292 -0.033364557 -0.83431917 111 97 82
-0.30334502 -0.033225592 -0.8344748 113 99 85
-0.30103803 -0.0361531 -0.8331604 97 75 68
-0.29996154 -0.035147522 -0.83331668 82 55 52
-0.30066127 -0.036022004 -0.83315855 92 68 62
-0.30037689 -0.035922788 -0.83315724 89 63 58
-0.30072322 -0.035841327 -0.83321059 93 69 64
-0.30142617 -0.033398893 -0.83406311 95 76 66
-0.29980248 -0.033645608 -0.83372194 76 52 48
-0.30262795 -0.033488348 -0.83422768 109 95 80
-0.30029652 -0.03459084 -0.83349603 84 62 57
-0.3023712 -0.034658685 -0.83380824 109 94 82
-0.30094051 -0.034936648 -0.83348805 93 73 66
-0.29646811 -0.03514424 -0.83288431 69 32 30
-0.29635081 -0.035945836 -0.83278 71 34 30
-0.29600647 -0.035948478 -0.83276939 71 35 29
-0.29586709 -0.035791542 -0.83278495 71 35 29
-0.2953046 -0.034398448 -0.8329432 67 34 28
-0.29695702 -0.03509184 -0.8329246 69 32 30
-0.29875138 -0.033844024 -0.83353162 65 35 35
-0.29574674 -0.033442136 -0.83315295 65 33 29
-0.29631671 -0.034349792 -0.83301193 67 32 29
-0.29654181 -0.034792155 -0.8329348 68 32 30
-0.29759058 -0.034243252 -0.83324337 66 33 32
-0.29203698 -0.036308393 -0.83254021 78 43 35
-0.29359779 -0.036602963 -0.83257473 76 41 32
-0.29130462 -0.035061013 -0.83258051 78 44 37
-0.29304668 -0.036118638 -0.83258188 76 42 33
-0.2916905 -0.033949733 -0.83264935 77 44 38
-0.29227626 -0.033541501 -0.83275765 74 41 36
-0.29422337 -0.036059268 -0.83264858 74 40 30
-0.29382589 -0.035929188 -0.83262259 75 41 32
-0.29401392 -0.034724221 -0.83279401 71 38 31
-0.29481375 -0.03618608 -0.83269548 72 38 29
-0.28869659 -0.034549493 -0.83250612 84 46 40
-0.28860429 -0.034045395 -0.83247489 84 46 41
-0.28831407 -0.035161294 -0.83249712 84 46 40
-0.28814584 -0.035858233 -0.83251452 84 45 39
-0.29055029 -0.037083834 -0.83246917 80 44 37
-0.29078361 -0.03420835 -0.8326152 78 44 39
-0.28855491 -0.036770128 -0.83248866 84 45 38
-0.29063073 -0.036208447 -0.83251363 80 44 37
-0.28806126 -0.036204644 -0.8325184 84 45 39
-0.28506151 -0.036478128 -0.83254105 89 46 41
-0.28426966 -0.035619296 -0.83246529 90 46 41
-0.28467464 -0.036254928 -0.83253652 90 46 41
-0.28567025 -0.036262654 -0.83245474 88 46 40
-0.28015172 -0.035353176 -0.83280522 103 57 49
-0.28053594 -0.036560602 -0.83311999 105 58 51
-0.28182659 -0.036206923 -0.83276772 96 50 46
-0.28055394 -0.035355281 -0.83273131 101 55 48
-0.28014234 -0.034924075 -0.83266973 102 56 48
-0.28170669 -0.035748694 -0.83264941 96 50 45
-0.28255332 -0.036220558 -0.83268589 93 47 44
-0.28214067 -0.035493553 -0.83258593 94 49 45
-0.27903098 -0.033724841 -0.83249408 105 58 50
-0.27845675 -0.034089241 -0.83271939 110 61 52
-0.29897696 -0.037315864 -0.83267319 76 34 36
-0.30081651 -0.037281215 -0.83285081 97 70 65
-0.30182812 -0.037238713 -0.83295673 109 90 81
-0.29824904 -0.038357336 -0.83243227 76 32 36
-0.29553595 -0.037598606 -0.83253312 75 38 30
-0.29863736 -0.037986737 -0.83251035 76 31 36
-0.29372063 -0.039013479 -0.83246177 76 40 30
-0.29381424 -0.038428802 -0.83252001 76 40 29
-0.29231736 -0.038589373 -0.83249164 77 42 32
-0.29171094 -0.040183004 -0.83245444 78 42 31
-0.29405624 -0.037540287 -0.83255869 75 40 30
-0.29321504 -0.038652319 -0.83251941 76 41 30
-0.29384938 -0.037417278 -0.83255351 76 41 30
-0.28782907 -0.038171053 -0.83250284 85 45 37
-0.28738382 -0.040051989 -0.83276886 87 45 39
-0.28804043 -0.038128413 -0.83247167 85 45 37
-0.29003105 -0.040681116 -0.83250856 81 43 34
-0.28751907 -0.038743351 -0.8326056 86 45 38
-0.2898885 -0.0398448 -0.83243817 81 43 34
-0.2897571 -0.03731909 -0.8324669 82 44 37
-0.28978637 -0.037439983 -0.83246547 82 44 37
-0.29049927 -0.039150078 -0.83244491 80 43 34
-0.28901437 -0.03712086 -0.83247048 83 45 38
-0.28405228 -0.038027953 -0.83284026 91 46 43
-0.28560162 -0.040422022 -0.8330704 96 50 43
-0.28497213 -0.03972394 -0.83303756 96 50 43
-0.28547773 -0.040503498 -0.8331123 97 51 43
-0.28467166 -0.039167285 -0.83297253 94 48 43
-0.28493762 -0.03790985 -0.83274537 90 46 42
-0.28704119 -0.039610986 -0.83275956 88 46 40
-0.28427342 -0.037317146 -0.83273464 90 46 42
-0.2870537 -0.040191777 -0.83282346 88 46 40
-0.28709733 -0.039251633 -0.83271462 88 46 40
-0.28280669 -0.038455669 -0.8331719 102 54 47
-0.28276581 -0.037728846 -0.83301896 98 51 46
-0.28288484 -0.039241441 -0.83333099 107 58 48
-0.29138908 -0.043304127 -0.83250278 79 42 33
-0.29116806 -0.04460866 -0.83264267 82 43 34
-0.28785831 -0.04300116 -0.83311725 90 47 42
-0.2875618 -0.042272802 -0.83304709 89 47 41
-0.28737509 -0.044535056 -0.83354694 95 50 46
-0.28794357 -0.044455484 -0.83338642 93 49 44
-0.28900588 -0.042979822 -0.83282107 86 45 38
-0.28871247 -0.042508021 -0.83281577 86 45 38
-0.28962055 -0.042969305 -0.83273482 84 44 36
-0.29029638 -0.043905813 -0.83271629 83 44 35
-0.28972358 -0.042683169 -0.8327018 84 44 36
-0.29086673 -0.042585574 -0.83255213 80 43 33
-0.28636384 -0.044305526 -0.83373243 100 54 48
-0.28666663 -0.041381985 -0.8330695 92 48 42
-0.28564873 -0.043311544 -0.83365148 104 56 48
-0.2868959 -0.042838085 -0.83331639 94 49 44
-0.28638837 -0.043108709 -0.83346838 98 52 46
-0.28448683 -0.04146897 -0.83350706 108 59 47
-0.28675729 -0.043292571 -0.83343405 96 51 45
-0.29210624 -0.045255147 -0.8324936 80 42 34
-0.29232207 -0.048503067 -0.83264273 82 43 37
-0.29209375 -0.045749232 -0.83253753 80 43 35
-0.29233378 -0.046197448 -0.83248681 80 42 35
-0.28713822 -0.047160134 -0.83424747 102 57 50
-0.2874203 -0.046005163 -0.83384055 98 53 48
-0.28766835 -0.046385251 -0.8338365 98 53 47
-0.28713614 -0.046640083 -0.83411652 101 56 49
-0.28732765 -0.045935493 -0.83386046 98 53 48
-0.28994119 -0.045370888 -0.83301777 87 46 39
-0.28789425 -0.045142531 -0.83351499 94 50 45
-0.28993669 -0.045775607 -0.83306062 88 47 39
-0.29073077 -0.046240892 -0.8329066 86 46 37
-0.28787953 -0.045400038 -0.83354527 95 51 46
-0.28703055 -0.047164351 -0.83428764 103 58 50
-0.28689381 -0.046550415 -0.83417964 102 57 49
-0.28660679 -0.045840647 -0.83409971 102 57 49
-0.29224339 -0.049562503 -0.8327958 85 46 38
-0.29127216 -0.049392834 -0.83309627 90 49 40
-0.29185888 -0.050867308 -0.83311146 92 51 41
-0.29237187 -0.051489841 -0.8329097 89 49 41
-0.29211998 -0.051859099 -0.83305705 92 52 42
-0.29241595 -0.050236732 -0.83281755 86 47 39
-0.29212099 -0.051216386 -0.83302063 91 51 41
-0.29284188 -0.05329584 -0.83284527 90 49 43
-0.29312247 -0.053881489 -0.8327595 89 49 44
-0.28461221 -0.00090819877 -0.8427915 105 65 58
-0.2839677 -0.00078323553 -0.84260154 104 61 56
-0.28324524 -0.0016114054 -0.84164357 101 58 51
-0.2826927 -0.0015185795 -0.84142661 103 61 53
-0.28465328 -0.0040316898 -0.84072202 104 63 58
-0.28466544 -0.0040906495 -0.84068519 104 63 58
-0.28535995 -0.0047787479 -0.84061068 106 65 61
-0.28498644 -0.0043707564 -0.84067965 105 64 59
-0.28574827 -0.0040139328 -0.8413738 106 66 61
-0.28423172 -0.0025842607 -0.84149384 103 62 54
-0.2868138 -0.0049097668 -0.84135795 109 70 66
-0.28596014 -0.0045550242 -0.84114206 106 66 62
-0.28424984 -0.0024886348 -0.84156334 103 62 54
-0.28447089 -0.0031200887 -0.84127939 103 62 55
-0.28259045 -0.0024439453 -0.84061921 101 58 53
-0.28255486 -0.0028095078 -0.84032089 102 58 53
-0.28636917 -0.006055688 -0.84030747 108 69 66
0 0 0 1 0 0 0 1 0 0 0 1 0 0 0 0 0 728 1 0 0
