ply
format ascii 1.0
comment PCL generated
element vertex 665
property float x
property float y
property float z
property uchar red
property uchar green
property uchar blue
element camera 1
property float view_px
property float view_py
property float view_pz
property float x_axisx
property float x_axisy
property float x_axisz
property float y_axisx
property float y_axisy
property float y_axisz
property float z_axisx
property float z_axisy
property float z_axisz
property float focal
property float scalex
property float scaley
property float centerx
property float centery
property int viewportx
property int viewporty
property float k1
property float k2
end_header
-0.27203745 -0.51341087 -0.80861187 149 131 153
-0.26894787 -0.51244789 -0.80697626 112 98 123
-0.27009928 -0.51353389 -0.8075704 131 110 133
-0.26892006 -0.51310945 -0.80703723 114 97 119
-0.26992911 -0.51341587 -0.80748725 128 108 131
-0.26908821 -0.51248294 -0.80703801 114 99 124
-0.27140105 -0.51327443 -0.80817419 147 126 151
-0.27199104 -0.51394683 -0.80862093 151 132 154
-0.27029905 -0.51577532 -0.80805528 150 129 153
-0.26843414 -0.51736355 -0.80734527 142 117 150
-0.26968488 -0.51571321 -0.80763459 144 119 150
-0.27085388 -0.5152958 -0.80826432 153 133 154
-0.26933157 -0.51717567 -0.80787104 150 129 153
-0.26815233 -0.51713628 -0.80708879 137 110 148
-0.2680847 -0.51370454 -0.80675673 106 87 104
-0.26778725 -0.51373529 -0.80663639 103 83 100
-0.26805824 -0.51477414 -0.8068307 115 93 117
-0.26969397 -0.51448685 -0.8074829 133 110 137
-0.26762879 -0.51439387 -0.80662328 107 86 106
-0.26723558 -0.5164957 -0.80649269 129 105 137
-0.2673991 -0.51716173 -0.80667752 133 106 143
-0.26656196 -0.51624304 -0.80592871 135 117 141
-0.26644009 -0.51651269 -0.80585182 139 121 146
-0.26659966 -0.5153966 -0.80589217 127 111 130
-0.26699138 -0.5142355 -0.8061235 113 95 112
-0.26591483 -0.51575202 -0.80538082 140 125 145
-0.26986364 -0.51805234 -0.80827463 159 144 160
-0.26973173 -0.51853842 -0.80811471 160 144 162
-0.27030915 -0.51901394 -0.80841923 167 156 167
-0.27043366 -0.51770711 -0.80869919 164 152 160
-0.26971999 -0.51968783 -0.80796319 163 149 168
-0.27127323 -0.52084804 -0.8088038 183 179 181
-0.27001697 -0.52115363 -0.80802423 164 157 166
-0.2702198 -0.52038163 -0.80820519 170 160 172
-0.27031064 -0.52146953 -0.80817389 168 163 169
-0.26879868 -0.52000004 -0.80739063 147 132 154
-0.26876408 -0.52085495 -0.80730313 144 132 150
-0.26849434 -0.52078009 -0.80714869 140 127 146
-0.26731262 -0.52095646 -0.80642474 127 113 135
-0.26655513 -0.52140641 -0.80591673 136 122 138
-0.26728511 -0.51835674 -0.80661118 136 110 145
-0.26655546 -0.51967055 -0.80605292 141 120 145
-0.2673744 -0.51758343 -0.80669081 137 109 149
-0.26615053 -0.51949281 -0.80576426 147 127 150
-0.26563555 -0.52075672 -0.80538929 149 132 148
-0.26612329 -0.51984942 -0.80575377 146 126 148
-0.27062723 -0.52246881 -0.80853397 179 176 179
-0.26805857 -0.52509385 -0.80734605 155 148 159
-0.26860592 -0.52437669 -0.80751234 161 155 164
-0.26922962 -0.5243054 -0.80811238 164 159 166
-0.26873004 -0.52188605 -0.80728173 145 136 149
-0.26863226 -0.52409065 -0.80748773 159 153 163
-0.26877788 -0.52263767 -0.80740023 151 144 155
-0.26973084 -0.52214128 -0.80790699 163 158 165
-0.26842871 -0.5219304 -0.80710799 140 131 145
-0.27052751 -0.52209747 -0.80837512 176 172 176
-0.26773658 -0.52180403 -0.80668157 128 116 135
-0.2674233 -0.52475429 -0.80680215 149 141 154
-0.26595458 -0.52448857 -0.80545431 171 160 174
-0.26578882 -0.52473205 -0.80533499 176 164 178
-0.26681527 -0.52535355 -0.80632907 164 155 167
-0.26586279 -0.52447176 -0.80538648 172 161 175
-0.26901314 -0.52679789 -0.80862099 171 161 174
-0.26800257 -0.5263778 -0.80754542 163 153 167
-0.26921767 -0.52575433 -0.80873197 161 155 164
-0.26931626 -0.52672344 -0.80892462 172 162 174
-0.26792029 -0.52794957 -0.80724114 175 160 179
-0.26854154 -0.52806079 -0.80820149 182 167 185
-0.26809806 -0.52808517 -0.80750328 178 163 182
-0.26849177 -0.52834523 -0.80808872 184 168 187
-0.26738697 -0.52901745 -0.8064248 182 163 186
-0.2670351 -0.52660543 -0.80644429 166 154 169
-0.26748121 -0.52785695 -0.80664021 172 157 177
-0.26698697 -0.52613485 -0.80643725 164 154 168
-0.26592788 -0.52566451 -0.80552 179 168 181
-0.26587641 -0.52759802 -0.80534351 188 171 189
-0.2656616 -0.52779973 -0.80513746 193 174 193
-0.26835918 -0.53126103 -0.8080287 188 172 190
-0.26817772 -0.5293985 -0.80749381 188 169 192
-0.2683886 -0.53014445 -0.80792469 189 172 192
-0.26805595 -0.52942365 -0.80730629 187 168 191
-0.2680485 -0.53265095 -0.8077659 185 169 188
-0.26803926 -0.53311801 -0.80782425 185 169 188
-0.2676664 -0.53092343 -0.80692434 183 165 187
-0.26712829 -0.53063786 -0.80639803 186 168 190
-0.26706269 -0.5308333 -0.80637735 186 169 191
-0.26728666 -0.53159136 -0.80666846 185 167 189
-0.26687765 -0.52975976 -0.80606568 188 169 192
-0.2666873 -0.53047371 -0.80602974 189 172 193
-0.26697791 -0.52956516 -0.80611324 187 168 191
-0.26787627 -0.53322446 -0.80760562 184 168 188
-0.26857921 -0.53337252 -0.80875391 189 175 191
-0.26738715 -0.53332132 -0.80707186 185 167 188
-0.26727447 -0.53331262 -0.8069787 185 168 189
-0.28083229 -0.52113056 -0.81788331 109 93 110
-0.28111461 -0.52069962 -0.81707698 97 83 97
-0.28148219 -0.52132207 -0.81936091 77 66 78
-0.28223312 -0.52107066 -0.81973672 42 35 43
-0.28205088 -0.52043325 -0.81767827 52 45 53
-0.28183895 -0.52092934 -0.81876963 61 52 62
-0.2827678 -0.52042383 -0.81900769 26 21 26
-0.28260201 -0.52064687 -0.8192187 29 24 29
-0.28273383 -0.52049565 -0.81919128 28 23 28
-0.27954701 -0.52413213 -0.81864417 180 165 181
-0.27969024 -0.52462184 -0.81913793 175 162 176
-0.27938798 -0.5222106 -0.81724823 180 157 181
-0.27953002 -0.52178377 -0.81717557 172 148 173
-0.27998224 -0.52287233 -0.81846899 153 136 154
-0.28173909 -0.52161533 -0.82026517 65 55 66
-0.2813451 -0.52285081 -0.82042354 88 79 89
-0.28015336 -0.52313709 -0.81887174 146 130 147
-0.28017777 -0.52234709 -0.81844205 142 125 143
-0.27907872 -0.52454585 -0.81814253 194 180 194
-0.27879745 -0.52375907 -0.81711674 190 173 190
-0.27912307 -0.52256763 -0.8170107 186 164 186
-0.27938738 -0.52543646 -0.81927961 194 183 195
-0.27929145 -0.5257234 -0.81961673 202 192 203
-0.27861407 -0.52542031 -0.8178038 196 186 196
-0.27817172 -0.52697396 -0.8188563 206 198 206
-0.27821764 -0.52764112 -0.81976265 211 203 212
-0.27804524 -0.52781582 -0.81964463 212 204 212
-0.27793908 -0.52670175 -0.81807566 203 195 203
-0.27688324 -0.52793461 -0.81760705 201 190 200
-0.27730903 -0.528871 -0.81954342 214 206 214
-0.2768608 -0.52893728 -0.81878734 209 200 208
-0.27737424 -0.52825195 -0.8189106 209 201 209
-0.27686793 -0.52739275 -0.81691796 196 185 194
-0.2771315 -0.52797526 -0.81812012 204 195 203
-0.2761333 -0.53142703 -0.81856555 202 187 199
-0.27591786 -0.532704 -0.81895095 198 180 196
-0.27570212 -0.53179204 -0.81824028 196 179 194
-0.27550989 -0.53072125 -0.81747782 195 179 192
-0.27570269 -0.53020984 -0.81744713 198 183 195
-0.27665219 -0.53058618 -0.8191191 209 197 206
-0.27694926 -0.53205651 -0.81999636 212 198 208
-0.27677774 -0.53141868 -0.81953621 210 197 207
-0.27696005 -0.53024435 -0.81961894 213 202 211
-0.27672815 -0.52966028 -0.81905776 210 200 209
-0.27732632 -0.53025758 -0.82030571 217 208 216
-0.27476606 -0.53187585 -0.81717873 195 178 195
-0.27538079 -0.53301018 -0.81847143 191 171 191
-0.27538198 -0.53226471 -0.81809962 192 173 191
-0.27469343 -0.53263837 -0.81747472 194 177 195
-0.27668068 -0.53389925 -0.82049841 208 193 206
-0.27568215 -0.53513205 -0.82002836 194 180 198
-0.27583778 -0.53363007 -0.81935108 196 179 196
-0.27699065 -0.53330827 -0.82052493 212 197 208
-0.27536136 -0.53467417 -0.8193925 191 175 194
-0.27487493 -0.53413785 -0.81851113 193 177 196
-0.27506387 -0.53592718 -0.81976706 192 181 199
-0.27513647 -0.53413892 -0.81882018 192 175 194
-0.27380273 -0.53389448 -0.81682044 199 184 202
-0.27504125 -0.53667063 -0.82009846 193 183 201
-0.27378887 -0.53599411 -0.81734031 203 189 207
-0.27405864 -0.53499842 -0.81763631 199 185 203
-0.27464598 -0.53660792 -0.81926739 196 185 203
-0.2738291 -0.53433204 -0.81698912 200 185 202
-0.27379465 -0.53944677 -0.81914771 204 195 212
-0.27381006 -0.53953099 -0.81919014 205 196 212
-0.27411124 -0.5387879 -0.81944066 201 192 209
-0.27387455 -0.53849572 -0.81890559 202 192 209
-0.27494526 -0.53722656 -0.82010818 194 185 202
-0.27449593 -0.53728729 -0.81922996 198 188 205
-0.25856 -0.52813941 -0.79959792 197 172 200
-0.25858679 -0.52868801 -0.79963237 200 170 200
-0.25778776 -0.52759647 -0.79894406 192 166 196
-0.25970536 -0.5258168 -0.80029583 203 185 197
-0.2595745 -0.52597272 -0.8002075 203 184 197
-0.25899324 -0.52750498 -0.7998836 200 176 199
-0.25915933 -0.52678317 -0.79995298 200 179 198
-0.26067173 -0.5302012 -0.80116737 203 177 202
-0.25713733 -0.53112942 -0.79859716 198 161 193
-0.25753674 -0.53111082 -0.79886717 200 162 195
-0.25696009 -0.53218067 -0.79867256 195 169 193
-0.25619704 -0.53315389 -0.79833227 189 174 190
-0.25826263 -0.53020096 -0.79941338 202 166 198
-0.2582612 -0.53117514 -0.79945183 204 169 198
-0.25870046 -0.531326 -0.79982305 206 173 201
-0.25702932 -0.53662622 -0.79927754 210 193 213
-0.25601661 -0.53343505 -0.79823786 189 175 190
-0.2560156 -0.53693736 -0.79853749 204 185 207
-0.25704423 -0.53463054 -0.79904395 201 182 201
-0.25637689 -0.53642809 -0.79874116 204 185 207
-0.25671786 -0.53357834 -0.79873019 194 178 194
-0.25626051 -0.53647333 -0.7986654 203 184 206
-0.25613111 -0.53469485 -0.79842424 195 179 197
-0.25550252 -0.53438199 -0.79790878 190 175 192
-0.25525722 -0.53681499 -0.79790938 200 180 203
-0.2551842 -0.53635222 -0.79780775 197 178 200
-0.25530252 -0.53419203 -0.79772353 189 174 191
-0.25579846 -0.53334755 -0.79807109 187 174 189
-0.2560353 -0.53770018 -0.79863435 205 189 209
-0.25644478 -0.53906876 -0.79907376 210 199 214
-0.25593382 -0.53807276 -0.79858595 205 190 209
-0.27931371 -0.51577008 -0.8135618 141 106 144
-0.27994144 -0.51474553 -0.81293994 108 79 114
-0.28067458 -0.51732874 -0.81318879 99 73 99
-0.27947879 -0.51563889 -0.81337219 134 100 137
-0.27900505 -0.51738942 -0.81369179 156 120 155
-0.27866983 -0.51716161 -0.81343585 154 122 153
-0.27919897 -0.51477581 -0.81334162 134 101 139
-0.2781179 -0.51621002 -0.81291276 148 120 149
-0.28243202 -0.51955563 -0.81651932 33 27 33
-0.28160906 -0.52000815 -0.81652445 72 60 72
-0.27975395 -0.51952112 -0.81546688 150 121 150
-0.28017017 -0.51859653 -0.81497073 125 98 125
-0.28180251 -0.52001542 -0.81660384 64 54 64
-0.28213948 -0.51940453 -0.8162998 45 36 45
-0.27968651 -0.52083886 -0.81637579 161 136 162
-0.2802327 -0.52103835 -0.8167643 138 119 139
-0.27951884 -0.51764309 -0.8139649 148 112 147
-0.28102714 -0.51787972 -0.81381422 87 64 86
-0.28114805 -0.51805824 -0.81419224 82 61 81
-0.28039885 -0.51811582 -0.81469518 112 85 111
-0.2831257 -0.52058756 -0.81494957 3 3 3
-0.28214872 -0.51863009 -0.81428748 42 31 42
-0.28210449 -0.51834953 -0.81438893 44 31 43
-0.2823188 -0.52035403 -0.81334877 39 32 39
-0.28295863 -0.51962841 -0.81595409 10 8 10
-0.28287533 -0.51987851 -0.81548244 14 12 14
-0.27919665 -0.518049 -0.81410795 160 124 159
-0.27843568 -0.52019525 -0.81457478 176 150 176
-0.27919492 -0.51929986 -0.81499296 168 136 168
-0.27820149 -0.52148014 -0.81516141 186 164 186
-0.27692464 -0.52127206 -0.81324238 188 170 188
-0.27713072 -0.52067316 -0.81310338 183 163 183
-0.27901831 -0.51979899 -0.81510198 172 142 172
-0.27749735 -0.51850504 -0.81293356 167 143 165
-0.276746 -0.52086687 -0.81289309 186 168 185
-0.27865276 -0.51774436 -0.81353146 159 126 157
-0.27639595 -0.5216583 -0.81291211 191 176 191
-0.27740261 -0.52153182 -0.81412524 188 169 188
-0.2789588 -0.5216831 -0.8164196 184 159 185
-0.27827922 -0.52245015 -0.81611854 187 167 188
-0.27813545 -0.522488 -0.8159768 188 168 188
-0.27685469 -0.52267534 -0.81462002 191 177 192
-0.27811664 -0.52189291 -0.8155818 186 166 187
-0.27624622 -0.5235191 -0.81444901 194 184 195
-0.27760735 -0.52466428 -0.81621379 194 183 193
-0.27772498 -0.52337521 -0.81598026 190 175 191
-0.27784511 -0.52420831 -0.81628686 192 179 192
-0.27826667 -0.52294546 -0.81630123 188 170 189
-0.27617815 -0.52525693 -0.81522971 198 193 198
-0.27529433 -0.52521831 -0.81445438 199 195 199
-0.27430314 -0.52502775 -0.81355339 183 178 182
-0.27424374 -0.52414161 -0.81295055 180 173 179
-0.27610368 -0.52811432 -0.8166157 196 184 194
-0.2767742 -0.52657342 -0.81634951 196 187 195
-0.27576539 -0.52551329 -0.81499946 200 195 199
-0.2759428 -0.52755713 -0.8161993 197 187 195
-0.27723858 -0.52656215 -0.8167122 195 185 194
-0.27543157 -0.528364 -0.81610852 197 186 195
-0.27416357 -0.52755821 -0.81398726 196 185 194
-0.27450463 -0.52745622 -0.81440222 197 186 195
-0.274266 -0.52890927 -0.81475782 195 180 192
-0.27380809 -0.52920759 -0.81427622 194 177 190
-0.27503985 -0.52689165 -0.81486428 198 190 197
-0.2749745 -0.52730125 -0.81496704 198 188 196
-0.27471146 -0.52785754 -0.81487036 197 185 195
-0.27284631 -0.52881074 -0.81292117 189 173 185
-0.27457747 -0.5259037 -0.81404078 192 187 191
-0.27411857 -0.52601969 -0.81368876 186 180 184
-0.27334672 -0.52566063 -0.81304997 170 166 169
-0.27483559 -0.53076112 -0.81661528 197 181 196
-0.27451825 -0.53051978 -0.81602722 196 180 194
-0.27360666 -0.52951813 -0.81417972 193 176 190
-0.27296939 -0.53003341 -0.81362969 193 175 190
-0.27446818 -0.53095204 -0.81622297 196 181 195
-0.27482891 -0.53064698 -0.81652611 197 181 195
-0.27300069 -0.52949983 -0.81334662 192 174 189
-0.27384976 -0.5323602 -0.81624317 197 180 197
-0.27351227 -0.53264368 -0.81584686 195 178 197
-0.27260292 -0.53517967 -0.8148573 196 176 202
-0.27344316 -0.5336445 -0.81607598 196 179 199
-0.27315035 -0.53448349 -0.81572211 197 179 201
-0.27320257 -0.53475356 -0.81588614 198 181 202
-0.27346352 -0.53454608 -0.81633151 199 183 203
-0.27324018 -0.53375864 -0.81571817 195 177 199
-0.27221042 -0.53829855 -0.81581181 204 191 209
-0.28685221 -0.52772236 -0.83105755 134 135 139
-0.28689474 -0.52799886 -0.83135909 147 148 152
-0.28540769 -0.52779043 -0.82929575 127 126 130
-0.28649786 -0.5272513 -0.83015561 110 111 113
-0.28509837 -0.52838409 -0.82943904 151 150 155
-0.28655466 -0.52646816 -0.82953686 76 76 78
-0.28596121 -0.5292719 -0.83127475 195 199 202
-0.28406608 -0.52883255 -0.82857037 164 161 168
-0.2848556 -0.52834266 -0.82910568 148 146 151
-0.28558907 -0.52788329 -0.82959926 132 132 136
-0.28415197 -0.5300824 -0.83030623 213 211 218
-0.28354448 -0.53124273 -0.83147818 221 217 224
-0.28599116 -0.5299648 -0.83241856 208 211 214
-0.28667712 -0.52935159 -0.83225727 202 209 210
-0.28542778 -0.53018552 -0.83207929 210 212 216
-0.28607836 -0.52963167 -0.83197254 205 210 212
-0.28506339 -0.53029364 -0.83180225 212 213 217
-0.28479379 -0.52948713 -0.83013356 204 205 210
-0.28243661 -0.53098124 -0.82890213 212 207 215
-0.28261861 -0.53091854 -0.82944089 211 205 215
-0.28110239 -0.53305429 -0.82926095 212 203 211
-0.28158072 -0.53273565 -0.83026558 210 200 211
-0.28156191 -0.53315026 -0.83129948 209 197 210
-0.28112006 -0.53280842 -0.82867306 212 205 212
-0.28218767 -0.53227991 -0.83139205 209 198 212
-0.28265548 -0.53119153 -0.83021653 211 204 215
-0.28205988 -0.53291613 -0.83227825 210 198 212
-0.2799879 -0.5371021 -0.83068722 145 126 149
-0.28066951 -0.53417408 -0.82926005 190 179 191
-0.27947536 -0.53683335 -0.82878327 198 178 198
-0.28022307 -0.53533435 -0.82928216 187 173 188
-0.27989775 -0.53688192 -0.83014506 160 141 163
-0.28038865 -0.53528333 -0.8297314 175 161 176
-0.28152606 -0.53377867 -0.83202612 192 178 194
-0.28083074 -0.53580034 -0.83187473 135 119 139
-0.28102389 -0.53546107 -0.83219677 144 128 148
-0.28105906 -0.5341174 -0.83064115 184 172 186
-0.28101465 -0.53520447 -0.83183783 152 136 155
-0.28080982 -0.5352664 -0.83112115 151 136 154
-0.27941865 -0.5371722 -0.82903904 193 173 194
-0.2794953 -0.53776056 -0.83023667 173 153 177
-0.27988824 -0.5375222 -0.83106136 145 125 149
-0.27963355 -0.53714871 -0.82966465 175 155 177
-0.27925625 -0.53937042 -0.8321656 158 137 165
-0.2787568 -0.53999949 -0.83212245 167 149 172
-0.27926725 -0.53745085 -0.82905447 199 179 199
-0.27767 -0.5407393 -0.82993859 192 174 190
-0.27837285 -0.53988272 -0.83093989 186 169 186
-0.27845421 -0.53958261 -0.83060908 188 171 189
-0.2775408 -0.54063654 -0.82917643 197 179 194
-0.27730012 -0.54101044 -0.82901257 198 180 194
-0.27820247 -0.53944159 -0.82925504 198 179 196
-0.27621749 -0.54412001 -0.82963616 204 198 211
-0.27775705 -0.54165965 -0.83240426 175 162 177
-0.27654725 -0.54365975 -0.83093446 190 183 195
-0.27592549 -0.54465842 -0.82986921 201 197 208
-0.27698693 -0.54288608 -0.83097464 190 180 195
-0.27800593 -0.54113227 -0.83212346 177 162 179
-0.27654222 -0.54315597 -0.82922786 204 194 209
-0.27713692 -0.54163748 -0.82931906 198 182 197
-0.27754521 -0.54108477 -0.83014512 190 173 189
-0.27775824 -0.54136616 -0.83146435 182 168 184
-0.27549791 -0.54709846 -0.8316766 187 174 182
-0.27565289 -0.54570627 -0.83104932 187 180 189
-0.27560037 -0.54677576 -0.83219588 182 171 177
-0.27561951 -0.54605108 -0.8312546 187 179 187
-0.27542347 -0.54788697 -0.83216494 185 170 177
-0.26513308 -0.52401423 -0.80496669 177 164 175
-0.26388261 -0.52478647 -0.80373353 183 171 183
-0.26478699 -0.52440578 -0.80469245 183 170 181
-0.26463166 -0.52433759 -0.80455756 182 169 180
-0.26342323 -0.52458364 -0.80338305 184 170 181
-0.26336277 -0.52424979 -0.80341089 183 169 179
-0.2635842 -0.52414739 -0.80360496 181 168 178
-0.26467496 -0.52656054 -0.80427891 190 174 190
-0.26549453 -0.52796817 -0.80496842 194 175 195
-0.26479551 -0.52645916 -0.80440283 189 174 190
-0.26457465 -0.52736396 -0.80410236 191 173 192
-0.26449305 -0.52893436 -0.80375725 191 165 190
-0.26375958 -0.52764922 -0.80313134 187 164 185
-0.2644532 -0.52896136 -0.80370766 191 165 190
-0.26294017 -0.52781737 -0.80259806 190 167 189
-0.26364785 -0.52896786 -0.80280644 187 158 184
-0.26344287 -0.52734286 -0.80295384 187 166 186
-0.2624788 -0.52904284 -0.80214453 192 164 191
-0.26333216 -0.52639568 -0.8030445 187 171 188
-0.26385877 -0.53003794 -0.8031432 189 162 188
-0.26169786 -0.53106707 -0.80180275 200 174 197
-0.26224631 -0.53048193 -0.80206364 196 169 193
-0.26320979 -0.52948308 -0.80252403 189 160 186
-0.26264533 -0.5297271 -0.80222863 193 164 190
-0.28300092 -0.52108383 -0.82141936 50 41 51
-0.28313881 -0.52362192 -0.82250476 85 72 86
-0.28194118 -0.52463233 -0.82172436 111 100 112
-0.28206512 -0.52508056 -0.8219074 115 103 116
-0.28319296 -0.52166462 -0.82218635 59 50 62
-0.28177577 -0.5228191 -0.82099825 80 72 81
-0.28281611 -0.52164781 -0.82173944 58 49 60
-0.28219694 -0.52242059 -0.82133895 73 64 75
-0.28416175 -0.5255264 -0.82451487 134 113 134
-0.28626302 -0.52557623 -0.82165712 0 0 0
-0.28706822 -0.5256862 -0.82212675 0 0 0
-0.28123987 -0.52576584 -0.82167125 152 140 153
-0.28014642 -0.52607971 -0.82110035 184 174 185
-0.28140575 -0.52640361 -0.82232684 156 144 157
-0.28121975 -0.52687901 -0.82256341 162 150 163
-0.27946672 -0.52839392 -0.82243854 210 204 213
-0.27976406 -0.52781487 -0.82220399 202 194 204
-0.27941483 -0.52882463 -0.82274121 213 207 215
-0.28097048 -0.52731776 -0.82272303 169 159 170
-0.28129098 -0.52779144 -0.82375109 176 162 177
-0.28113076 -0.52764845 -0.82326221 171 159 172
-0.27975523 -0.52892053 -0.82314372 206 199 209
-0.28032833 -0.52853459 -0.82342815 196 186 198
-0.28100762 -0.52856886 -0.82439613 147 138 149
-0.28152859 -0.52787423 -0.82419753 159 145 160
-0.27830872 -0.52862054 -0.82109374 218 212 220
-0.27904513 -0.52869117 -0.82219023 216 210 219
-0.27885267 -0.52865136 -0.8218866 217 211 219
-0.2798872 -0.52974212 -0.82392561 177 172 180
-0.28030691 -0.52967036 -0.82447809 148 143 150
-0.2799716 -0.530038 -0.82410592 172 167 175
-0.27962518 -0.5331983 -0.82428199 206 201 209
-0.27946165 -0.53070611 -0.82355672 210 205 212
-0.2785843 -0.53114349 -0.82233518 218 209 218
-0.27904463 -0.53314942 -0.82336503 228 220 228
-0.27906433 -0.53268737 -0.82330924 226 219 227
-0.27832016 -0.53308982 -0.82230884 222 212 220
-0.27913037 -0.5324626 -0.8233636 226 219 227
-0.27827397 -0.53006506 -0.82170922 218 211 219
-0.27875233 -0.52957952 -0.82230443 218 212 219
-0.27896598 -0.5298624 -0.82265323 216 210 218
-0.27845505 -0.53000534 -0.82195514 218 210 219
-0.27947786 -0.53412443 -0.82455623 217 212 220
-0.27779528 -0.53416049 -0.82224405 216 207 217
-0.27627528 -0.53569323 -0.82112652 200 190 205
-0.27708501 -0.53487104 -0.82171786 209 199 212
-0.27748486 -0.53382212 -0.82155865 215 203 214
-0.2778559 -0.53377616 -0.82206184 218 207 217
-0.2754229 -0.53698069 -0.82081485 191 181 199
-0.27910897 -0.53416711 -0.8240369 228 222 230
-0.27867553 -0.53491962 -0.82389814 224 218 227
-0.27680293 -0.53603971 -0.82210141 205 197 211
-0.27582189 -0.53682023 -0.82126898 195 186 203
-0.27585125 -0.53683442 -0.82131535 195 187 203
-0.27857065 -0.53598273 -0.82445008 226 220 228
-0.27816981 -0.53554052 -0.82360411 219 213 223
-0.2770966 -0.53663522 -0.82287991 210 202 215
-0.27686778 -0.53665179 -0.82257891 207 199 213
-0.2755847 -0.53762072 -0.82156479 194 185 202
-0.27680811 -0.53810209 -0.82363629 210 202 214
-0.27604327 -0.53841871 -0.82285714 201 193 207
-0.27611905 -0.53865224 -0.82315564 203 194 208
-0.27640253 -0.53963852 -0.82436633 208 200 211
-0.27652028 -0.53805232 -0.82320189 206 198 211
-0.27563211 -0.53917742 -0.82292992 198 189 203
-0.27560583 -0.53989577 -0.82344037 199 190 204
-0.27551594 -0.54082769 -0.82380635 201 192 205
-0.27513951 -0.53976208 -0.82176757 199 192 207
-0.27518067 -0.54070616 -0.82256728 201 194 208
-0.27499315 -0.54039711 -0.82166421 202 195 210
-0.27482456 -0.54025114 -0.82094282 203 197 212
-0.27507383 -0.53851968 -0.82075441 197 189 206
-0.2756868 -0.54105783 -0.824494 202 193 206
-0.27512047 -0.54307151 -0.82416534 207 197 213
-0.27510503 -0.54148662 -0.82286662 204 196 210
-0.27513063 -0.54140061 -0.82289422 203 196 210
-0.27394184 -0.54670173 -0.82360297 205 193 213
-0.27336788 -0.5461973 -0.82212037 204 194 212
-0.28610909 -0.52919519 -0.83412898 150 149 155
-0.28698227 -0.5284344 -0.83325291 174 170 180
-0.2854566 -0.52908951 -0.83569139 104 98 106
-0.28662902 -0.52842849 -0.83414322 150 144 155
-0.28589261 -0.52833509 -0.83616674 95 86 97
-0.28560016 -0.5289973 -0.83552527 109 103 111
-0.29015934 -0.53009057 -0.83321631 44 46 46
-0.29094675 -0.52993876 -0.83374029 3 3 3
-0.29088894 -0.53127456 -0.83260024 6 6 6
-0.29072982 -0.52970129 -0.83382821 14 15 15
-0.2832514 -0.53167677 -0.83617526 68 63 68
-0.28387463 -0.53104627 -0.83386695 175 168 176
-0.28329986 -0.5317505 -0.83457673 137 131 137
-0.28466251 -0.52982622 -0.83583874 101 95 102
-0.28478199 -0.53077507 -0.83270806 207 205 211
-0.28581002 -0.52982867 -0.83319092 184 185 189
-0.28568628 -0.52973276 -0.83372033 167 167 172
-0.2860035 -0.52942187 -0.83392209 158 159 163
-0.28497386 -0.53049964 -0.83307475 193 192 197
-0.28547403 -0.52951616 -0.83477426 134 131 137
-0.28657836 -0.52951497 -0.83244973 203 209 210
-0.28242368 -0.53269714 -0.83399063 155 146 156
-0.28227988 -0.53282219 -0.8324222 214 203 216
-0.28290564 -0.53206831 -0.83599019 74 68 74
-0.28296471 -0.53207809 -0.83516288 109 103 110
-0.28006658 -0.5353868 -0.83508122 83 67 85
-0.28083357 -0.5345369 -0.83546352 72 59 74
-0.28034264 -0.53472191 -0.83573109 74 61 75
-0.27999368 -0.53489608 -0.83586043 76 62 77
-0.28052592 -0.53610224 -0.8337121 89 72 93
-0.28024179 -0.53607947 -0.83397621 90 73 95
-0.28052685 -0.53529477 -0.83473217 81 66 85
-0.28127214 -0.53485966 -0.833318 126 111 129
-0.28118774 -0.53510892 -0.83393925 94 80 98
-0.28178447 -0.53325719 -0.83471507 116 105 117
-0.28170964 -0.53352118 -0.83279067 184 170 186
-0.28154451 -0.53400141 -0.83443063 106 94 108
-0.28060114 -0.53694159 -0.83245927 101 82 107
-0.27986482 -0.54059279 -0.83483285 127 121 129
-0.2800537 -0.54091626 -0.83461136 132 125 134
-0.27987757 -0.54051775 -0.83497757 124 118 125
-0.28033566 -0.53744954 -0.83244795 106 86 112
-0.28030622 -0.54125166 -0.83520675 130 125 130
-0.28021562 -0.54170299 -0.83571535 141 138 136
-0.27977893 -0.54131687 -0.83443284 151 142 152
-0.28004277 -0.54127234 -0.83480275 140 134 141
-0.27590328 -0.54718578 -0.83587801 188 155 178
-0.27550977 -0.54798633 -0.83343649 185 163 176
-0.2765108 -0.54638475 -0.83576131 191 165 178
-0.27578941 -0.547553 -0.83396012 187 165 176
-0.27677917 -0.54603809 -0.8356452 193 170 177
-0.27688307 -0.54538238 -0.83490092 190 175 177
-0.27574885 -0.54599673 -0.83243144 178 170 175
-0.27637661 -0.54512322 -0.83359975 182 173 176
-0.27615571 -0.54679465 -0.83369619 188 172 176
-0.27624646 -0.54675841 -0.8338986 189 172 176
-0.27737084 -0.51309669 -0.81199813 140 122 146
-0.27719387 -0.51330394 -0.81192219 141 124 147
-0.27629244 -0.5133884 -0.81141251 149 138 155
-0.27889836 -0.51208305 -0.81275153 127 102 132
-0.27578819 -0.51338333 -0.81112069 153 146 159
-0.27394328 -0.51332152 -0.8099035 151 140 156
-0.27300575 -0.51332265 -0.80924696 149 134 154
-0.27537438 -0.51333684 -0.81090617 155 149 161
-0.27804267 -0.51578236 -0.81279898 146 119 148
-0.2785784 -0.51378357 -0.81278622 130 100 137
-0.27703178 -0.51555926 -0.81217939 153 134 155
-0.27601871 -0.51464033 -0.81144643 157 146 161
-0.27591851 -0.51434493 -0.81134099 156 146 160
-0.27592105 -0.51723599 -0.81187493 167 156 163
-0.27715102 -0.51731855 -0.81254846 161 140 158
-0.27642894 -0.51620924 -0.81195563 161 146 160
-0.27687311 -0.51745814 -0.81242573 163 144 160
-0.27293259 -0.51484925 -0.80958855 158 147 159
-0.27289852 -0.51439983 -0.8094188 155 143 157
-0.27373233 -0.51381278 -0.80981213 153 142 158
-0.27184719 -0.5169912 -0.80947483 166 159 160
-0.27212155 -0.51692373 -0.80964041 166 160 160
-0.27320048 -0.51624131 -0.81013912 164 158 161
-0.2739718 -0.51698625 -0.8107239 168 161 163
-0.27491814 -0.5170778 -0.81128842 169 162 164
-0.27417439 -0.5156188 -0.81058657 163 157 162
-0.27472073 -0.51617295 -0.81100577 165 159 163
-0.27394855 -0.51674217 -0.81066507 167 160 163
-0.27673832 -0.51989186 -0.81273663 179 162 178
-0.27588063 -0.51759231 -0.81191921 169 157 164
-0.27657482 -0.51975256 -0.81262743 179 163 177
-0.27625379 -0.5199939 -0.81249326 183 169 180
-0.27561167 -0.51982546 -0.81192487 182 171 180
-0.2757853 -0.51938552 -0.81208295 180 169 177
-0.27152124 -0.51968235 -0.80913043 179 175 174
-0.27380216 -0.52024794 -0.81074715 183 172 180
-0.27405813 -0.52102578 -0.81083381 187 177 186
-0.27315399 -0.51976997 -0.81033421 180 171 176
-0.27174091 -0.52095729 -0.80914462 185 181 182
-0.2737273 -0.52031177 -0.81068403 183 173 181
-0.27172637 -0.5211305 -0.80911148 186 182 183
-0.2720708 -0.5206455 -0.80942684 184 179 181
-0.27243122 -0.51778942 -0.80994815 169 163 162
-0.27435085 -0.5183838 -0.81107312 174 166 169
-0.27449343 -0.51817209 -0.81115037 173 165 168
-0.27322763 -0.51833427 -0.81042218 173 165 167
-0.27478689 -0.51960534 -0.81135535 181 170 178
-0.27427649 -0.51999539 -0.81106979 182 171 179
-0.27143297 -0.51817918 -0.80927312 171 165 164
-0.27580878 -0.52170312 -0.81238019 191 178 191
-0.27228197 -0.52411097 -0.81057024 174 163 172
-0.27321094 -0.522237 -0.81046492 185 176 184
-0.27151093 -0.52504671 -0.81039697 168 157 166
-0.27487257 -0.52152181 -0.81138575 190 178 190
-0.27288517 -0.52297884 -0.81053752 181 171 179
-0.27457964 -0.52190262 -0.81133056 188 175 187
-0.27524683 -0.52265549 -0.8127504 193 184 194
-0.27440217 -0.52267158 -0.81164205 185 173 185
-0.27359366 -0.52378672 -0.81169963 181 170 180
-0.27331784 -0.52409345 -0.81164521 180 169 178
-0.27232116 -0.52521652 -0.81150091 168 159 166
-0.27352965 -0.52445269 -0.81234288 175 168 174
-0.27107748 -0.52418298 -0.80969918 172 164 170
-0.26953813 -0.52534127 -0.80899489 159 154 162
-0.27131233 -0.52213007 -0.8090173 185 181 183
-0.27269575 -0.526016 -0.81231439 170 162 167
-0.27294859 -0.52552891 -0.81259573 167 161 164
-0.27239832 -0.5278337 -0.81217015 182 167 179
-0.27274969 -0.52545953 -0.81230652 166 160 164
-0.27240649 -0.52858949 -0.81234074 187 170 183
-0.27172804 -0.52626139 -0.81100982 172 159 169
-0.27144426 -0.52576363 -0.81058037 169 156 166
-0.27063033 -0.52817547 -0.8103379 187 170 185
-0.27034289 -0.52929521 -0.81032604 194 176 194
-0.27079812 -0.52818978 -0.81052864 186 170 185
-0.27115554 -0.52648014 -0.8104561 174 161 172
-0.27054352 -0.52570498 -0.80981642 166 156 166
-0.27118656 -0.52552021 -0.81030101 167 155 164
-0.26983145 -0.52754211 -0.80939633 182 168 183
-0.27182636 -0.52934504 -0.811957 191 174 188
-0.27236214 -0.52967221 -0.81258172 191 172 188
-0.26964113 -0.53274471 -0.80998886 188 173 190
-0.26938698 -0.53313637 -0.80974656 188 173 190
-0.27087259 -0.53108746 -0.81122208 189 171 189
-0.26917666 -0.53262413 -0.80934584 190 176 190
-0.26956487 -0.52972138 -0.80950087 195 177 196
-0.26955333 -0.53204519 -0.80970997 190 176 190
-0.26915428 -0.53063405 -0.80913091 194 178 196
-0.26952621 -0.53008598 -0.80949265 195 177 196
-0.26888976 -0.53391951 -0.80949336 189 174 193
-0.26877752 -0.53469306 -0.80976766 189 172 195
-0.28663751 -0.52421272 -0.82515854 23 19 23
-0.28588831 -0.52474499 -0.82541275 60 51 60
-0.28657141 -0.52465087 -0.82638359 25 23 25
-0.28637865 -0.52491397 -0.82683671 35 31 35
-0.28630251 -0.52445871 -0.82529682 39 33 39
-0.2868799 -0.52498937 -0.82811069 18 16 18
-0.28327054 -0.52724355 -0.82563418 152 135 153
-0.28376341 -0.52819216 -0.82728314 168 158 171
-0.28360555 -0.52671909 -0.82536256 146 128 147
-0.28360114 -0.52843714 -0.82740057 170 161 173
-0.28530627 -0.52681327 -0.82820982 93 89 94
-0.28425726 -0.52764094 -0.8273716 148 140 151
-0.28525421 -0.52588296 -0.82688093 92 82 93
-0.28448778 -0.52801055 -0.82828653 138 134 141
-0.28497282 -0.52722764 -0.82814378 111 106 113
-0.28511363 -0.52650875 -0.82745093 101 94 103
-0.2845414 -0.52551866 -0.82508337 127 108 127
-0.28067592 -0.52921849 -0.82477903 138 133 140
-0.28277469 -0.52831733 -0.82632649 160 151 163
-0.28247482 -0.52844167 -0.82610005 157 148 160
-0.2829802 -0.52900863 -0.82741851 174 169 179
-0.28278875 -0.52718997 -0.82498407 144 126 144
-0.28302699 -0.52980888 -0.82832855 201 197 205
-0.28078559 -0.5320701 -0.82747954 191 184 191
-0.28155193 -0.53027141 -0.8268407 172 167 174
-0.28092664 -0.53234994 -0.82790565 199 192 199
-0.28126964 -0.53124291 -0.82735097 185 179 186
-0.28181687 -0.5300144 -0.82694447 172 167 175
-0.28108636 -0.53026736 -0.82625258 164 158 166
-0.28026998 -0.53156745 -0.8253172 172 167 174
-0.28067085 -0.53297544 -0.82782418 206 198 205
-0.28012115 -0.53302616 -0.82567912 195 190 197
-0.28053606 -0.53113818 -0.82609159 170 164 171
-0.27989691 -0.53282684 -0.82466054 187 182 190
-0.28049189 -0.53266203 -0.82691056 196 190 197
-0.279697 -0.53512961 -0.82697207 217 206 217
-0.27999809 -0.53443408 -0.82709795 218 209 218
-0.28028637 -0.53401411 -0.82763332 216 207 215
-0.27953491 -0.53613067 -0.82796139 209 193 210
-0.28007534 -0.53473532 -0.82793945 212 201 212
-0.28043059 -0.53394395 -0.82813746 213 203 212
-0.28017259 -0.53380722 -0.82680959 219 212 219
-0.28010941 -0.53357589 -0.82624859 210 204 211
-0.27874914 -0.53615767 -0.82511467 224 216 226
-0.27909863 -0.5355618 -0.82529908 225 217 227
-0.27861369 -0.53624749 -0.82480538 226 219 228
-0.27858242 -0.5367437 -0.82553518 221 211 222
-0.27747214 -0.53998262 -0.8278091 202 185 200
-0.27803615 -0.53860319 -0.8273266 204 187 204
-0.27770889 -0.53933048 -0.82749981 203 186 202
-0.27757624 -0.53989106 -0.82795781 203 185 200
-0.27782941 -0.53912514 -0.82752734 203 186 203
-0.27829891 -0.5383814 -0.82771599 204 186 204
-0.27848813 -0.53762126 -0.82689655 210 195 211
-0.2777608 -0.53873527 -0.82674247 204 189 206
-0.27847335 -0.53778905 -0.82719553 207 191 208
-0.2777532 -0.53809875 -0.82539159 215 205 217
-0.2782647 -0.53711051 -0.82507342 222 214 224
-0.27765721 -0.53824896 -0.82537782 214 204 216
-0.27551043 -0.54194093 -0.82477713 203 194 208
-0.27553576 -0.54222035 -0.82515252 204 195 209
-0.27594775 -0.5422048 -0.82639718 206 197 210
-0.2759513 -0.54237384 -0.82657975 207 198 211
-0.27582026 -0.54161662 -0.82544941 204 196 208
-0.27623343 -0.54258239 -0.82755864 207 197 210
-0.27610406 -0.54217714 -0.82679302 206 196 209
-0.27590439 -0.54194415 -0.82601285 205 196 209
-0.27536407 -0.54270792 -0.82498747 205 195 210
-0.27445695 -0.54721612 -0.82501936 206 194 214
-0.27464786 -0.54633754 -0.82570994 207 194 213
0 0 0 1 0 0 0 1 0 0 0 1 0 0 0 0 0 665 1 0 0
