ply
format ascii 1.0
comment PCL generated
element vertex 1062
property float x
property float y
property float z
property uchar red
property uchar green
property uchar blue
element camera 0
property float view_px
property float view_py
property float view_pz
property float x_axisx
property float x_axisy
property float x_axisz
property float y_axisx
property float y_axisy
property float y_axisz
property float z_axisx
property float z_axisy
property float z_axisz
property float focal
property float scalex
property float scaley
property float centerx
property float centery
property int viewportx
property int viewporty
property float k1
property float k2
end_header
0.23994713 0.051040586 -0.88328713 125 91 81
0.23882119 0.051910184 -0.88371718 125 91 81
0.24004714 0.052470759 -0.88410181 125 90 83
0.23850988 0.052440863 -0.8839922 125 91 81
0.23653574 0.052247703 -0.88376182 126 92 78
0.2438166 0.051620416 -0.88526845 115 80 82
0.24313208 0.050682206 -0.8841899 115 78 78
0.24188063 0.051472541 -0.88437712 122 87 83
0.24413629 0.050880965 -0.8847574 112 75 78
0.2434859 0.051718835 -0.88522273 117 82 83
0.24238187 0.050920669 -0.88409936 118 82 80
0.24342223 0.050440796 -0.88409632 113 75 76
0.24076857 0.051597584 -0.8839047 124 89 83
0.24122222 0.052443814 -0.88462675 123 88 84
0.24162954 0.052285951 -0.88475585 122 88 84
0.24439983 0.051930849 -0.88589621 115 82 83
0.24762502 0.050630625 -0.8867327 96 71 68
0.24527135 0.051384158 -0.88602716 110 79 79
0.2454645 0.051004861 -0.88578969 108 76 76
0.2463809 0.050173242 -0.88556355 100 70 69
0.24492079 0.051022168 -0.88548082 110 77 78
0.24593458 0.050627805 -0.88571978 104 73 73
0.24671789 0.050059959 -0.88565195 97 68 66
0.24652818 0.049404617 -0.88477165 89 57 59
0.24733171 0.0494381 -0.88516527 81 51 55
0.24699256 0.049587768 -0.8852005 87 57 59
0.24685256 0.049819451 -0.8854239 92 62 63
0.24920362 0.049516004 -0.88580221 70 46 51
0.24960004 0.049187105 -0.88547587 63 39 47
0.24826151 0.049516719 -0.88561785 74 47 52
0.24874687 0.050258305 -0.88662493 84 61 61
0.25033402 0.0504614 -0.88674128 70 48 52
0.2500166 0.050019935 -0.88645709 72 51 54
0.2498256 0.050818231 -0.88702375 76 54 55
0.25106719 0.050906442 -0.88699919 63 41 47
0.25337446 0.051899228 -0.88666534 69 48 49
0.2546989 0.052477736 -0.88613212 82 62 58
0.25367728 0.051601876 -0.88618541 71 50 52
0.25499371 0.052118819 -0.8856011 83 64 60
0.25386032 0.050825469 -0.88551605 70 51 53
0.25486001 0.04905301 -0.88502496 75 60 58
0.25408229 0.050700445 -0.88540959 72 53 54
0.25543344 0.051024225 -0.88522339 85 67 62
0.25481048 0.05028633 -0.88522023 77 60 58
0.2564351 0.049765799 -0.88468736 91 76 68
0.25620291 0.051998127 -0.88513458 94 76 68
0.25611091 0.052202411 -0.88520885 94 75 67
0.25721422 0.050769385 -0.88447207 101 85 74
0.25867635 0.049434584 -0.88358116 111 97 84
0.25810742 0.050260838 -0.88396388 108 93 80
0.25908977 0.050881684 -0.88339657 118 101 80
0.25922787 0.051296458 -0.88332909 120 103 79
0.25832355 0.050959133 -0.88386011 111 95 78
0.25881761 0.049900878 -0.88352352 113 99 83
0.25849745 0.052457485 -0.88381159 116 96 72
0.2265135 0.046263222 -0.88680792 137 114 107
0.22820434 0.048812445 -0.88617885 104 75 71
0.2274583 0.048046038 -0.88656521 115 86 82
0.22696777 0.045876291 -0.88620734 132 108 102
0.22848649 0.045869984 -0.88468009 109 79 75
0.22765678 0.045900185 -0.885526 122 95 90
0.22715616 0.045858618 -0.88601065 130 104 99
0.22778544 0.045649063 -0.88528866 120 93 88
0.22801885 0.046631254 -0.88547754 115 87 82
0.22892871 0.04720667 -0.88485926 107 78 73
0.22921772 0.044929288 -0.88362092 113 82 77
0.22948697 0.04518798 -0.88349289 113 82 77
0.22952205 0.047713678 -0.88462311 109 80 74
0.23092417 0.047114909 -0.88325083 116 87 78
0.22981463 0.047175393 -0.8841452 111 82 76
0.23086271 0.047301289 -0.88338518 116 86 78
0.2300339 0.046016552 -0.88343698 114 84 77
0.22985342 0.045310892 -0.88325095 115 84 78
0.24625301 0.048801053 -0.88392758 83 47 54
0.24779823 0.048296757 -0.88433272 66 35 43
0.24879262 0.04879215 -0.88486147 61 33 43
0.24831837 0.048661023 -0.88471633 62 33 43
0.24997367 0.048565585 -0.8850041 56 31 42
0.25431252 0.048694171 -0.88503331 70 53 54
0.25693533 0.046930797 -0.88410246 82 69 59
0.25724968 0.046243683 -0.88387239 81 68 58
0.2573387 0.046941932 -0.88392997 85 72 62
0.25682887 0.048584003 -0.8843354 91 77 69
0.25781235 0.047585748 -0.88377154 93 80 70
0.25708294 0.048425708 -0.88419974 92 79 70
0.25762716 0.048091158 -0.88390964 95 82 72
0.22648621 0.042470865 -0.88543153 149 118 121
0.22765931 0.041984063 -0.88418072 125 95 93
0.22659394 0.042944122 -0.88546997 147 116 119
0.2283944 0.041292507 -0.8832826 111 81 75
0.22798741 0.041338455 -0.88368016 119 89 84
0.22730722 0.042444255 -0.8846491 133 102 101
0.22690341 0.041127682 -0.88464046 140 110 110
0.22519839 0.042494744 -0.88670731 170 143 146
0.22637299 0.04372783 -0.88596767 148 121 119
0.22534488 0.043540522 -0.88693297 164 140 139
0.22658515 0.043650929 -0.88572723 145 117 116
0.22801313 0.044477139 -0.8845883 120 89 87
0.22866553 0.042707957 -0.88344854 110 80 74
0.22929583 0.044778559 -0.88350552 113 82 77
0.25818986 0.044544738 -0.88322693 80 67 55
0.22416709 0.040908568 -0.88706893 191 165 174
0.22434135 0.03880658 -0.88661951 191 168 176
0.22675505 0.037814334 -0.88393933 142 111 110
0.22486633 0.040443003 -0.8864029 180 150 158
0.22622879 0.037935961 -0.8845309 154 124 126
0.22495161 0.039731462 -0.88619965 179 151 158
0.22579628 0.03915184 -0.88519043 161 131 134
0.22647063 0.038306337 -0.88432527 148 116 117
0.22570285 0.039541226 -0.88536221 163 132 136
0.22625685 0.040265616 -0.88502514 152 122 124
0.22680745 0.038405746 -0.88402921 141 110 109
0.22756267 0.039925925 -0.88370615 127 96 93
0.22646143 0.040847525 -0.88498122 148 118 120
0.227097 0.040076595 -0.88418406 136 105 104
0.22691946 0.039532598 -0.8842122 139 108 108
0.22393404 0.035584267 -0.88580787 197 182 188
0.22461914 0.0356289 -0.88551342 197 181 185
0.22563607 0.033416394 -0.88373291 183 159 163
0.22597989 0.033371679 -0.88343662 175 147 152
0.22611694 0.036093835 -0.88419831 162 134 136
0.22509827 0.036067553 -0.88529837 185 162 166
0.22547467 0.035951443 -0.88485152 177 152 156
0.22668052 0.036337845 -0.88366336 148 118 118
0.22555228 0.036523897 -0.88495082 173 148 151
0.22539043 0.035709057 -0.8848654 179 155 159
0.25342736 0.084170759 -0.89898658 95 61 53
0.2514801 0.082815796 -0.90088528 99 61 45
0.25157955 0.081440769 -0.90026253 95 55 41
0.25135526 0.082201652 -0.90086657 99 60 43
0.2516152 0.083212405 -0.90081388 99 61 45
0.25191525 0.082751602 -0.90019637 95 56 43
0.25087172 0.080699533 -0.9010939 99 59 40
0.25242114 0.082516968 -0.89948124 93 56 45
0.25277457 0.083688177 -0.89949495 95 60 49
0.25220808 0.083372205 -0.90004039 96 58 46
0.25032648 0.076858439 -0.90227038 112 80 57
0.25170031 0.079658419 -0.89968336 92 51 39
0.2503168 0.076402076 -0.90238547 112 80 58
0.25178596 0.079408452 -0.8996259 90 49 38
0.25136825 0.077419646 -0.90071529 94 53 39
0.251261 0.077479184 -0.90084177 96 56 42
0.25201422 0.079010434 -0.89939076 86 42 33
0.25220126 0.076445393 -0.89971274 79 33 26
0.25217888 0.077084959 -0.89958477 80 35 28
0.25265631 0.07639575 -0.89883667 76 34 29
0.2313059 0.072307147 -0.90152806 77 50 37
0.23129474 0.072554745 -0.90190476 77 50 37
0.23024957 0.072437011 -0.90266228 74 46 34
0.23447786 0.072356075 -0.90047807 86 58 46
0.2333921 0.072852366 -0.90128052 83 57 44
0.23364767 0.072857045 -0.90127164 84 57 44
0.23395091 0.073582441 -0.90221196 84 58 45
0.23532698 0.073075831 -0.90136695 87 59 48
0.23569272 0.073918171 -0.90229845 86 57 47
0.23610455 0.074211143 -0.90257168 86 57 47
0.23600124 0.073084004 -0.90125632 88 59 49
0.23721707 0.073756576 -0.90231574 90 58 53
0.23688747 0.073481925 -0.90187138 89 59 52
0.2383765 0.073129401 -0.90199327 94 61 59
0.23747921 0.073027767 -0.90154815 92 60 55
0.23785992 0.073646955 -0.90240318 92 59 56
0.23961876 0.072869539 -0.90209121 97 62 65
0.24072829 0.072278969 -0.901887 102 67 74
0.24191763 0.072560593 -0.90272695 107 75 87
0.25153324 0.07326182 -0.90212506 95 53 42
0.25065854 0.075391375 -0.90234041 107 72 53
0.25076756 0.074967891 -0.9023838 106 70 52
0.25117415 0.075659104 -0.90153646 96 55 41
0.25175413 0.072506577 -0.90221828 93 49 38
0.25223273 0.07406038 -0.90056849 81 34 27
0.25230467 0.072952464 -0.90090817 82 36 29
0.25211048 0.072882332 -0.90142137 86 39 31
0.25221232 0.075121209 -0.9001233 78 30 24
0.25241846 0.074006394 -0.90013421 78 31 25
0.25290215 0.07351198 -0.89919335 71 27 24
0.25298062 0.074193157 -0.8988384 71 29 26
0.25294122 0.074287415 -0.89888799 72 29 26
0.22549336 0.068430595 -0.90144706 136 117 109
0.22681712 0.068530358 -0.9000631 107 83 77
0.22626229 0.069237955 -0.90187293 121 100 92
0.22793041 0.069191188 -0.89985573 86 60 55
0.22619849 0.069629982 -0.90258074 121 100 91
0.22814429 0.070853315 -0.90229291 80 49 42
0.22696279 0.070088968 -0.9024328 105 80 72
0.22715282 0.069544539 -0.90133184 102 77 70
0.22615352 0.06905926 -0.90171075 123 103 95
0.2298668 0.072042696 -0.90243763 73 44 33
0.22992545 0.071746938 -0.90197134 75 43 34
0.23174788 0.07167796 -0.90030044 80 50 38
0.22950394 0.071610458 -0.90215659 74 42 34
0.23222028 0.072205521 -0.90056896 80 53 39
0.22853272 0.07054162 -0.90134263 73 41 35
0.22870527 0.070300639 -0.90080976 73 42 37
0.22899981 0.06953343 -0.89932513 75 46 41
0.2293878 0.069699623 -0.89927119 76 46 41
0.22899249 0.070111573 -0.90026551 74 44 38
0.23092751 0.070892483 -0.89991909 79 46 38
0.22915779 0.070817925 -0.90126956 74 42 35
0.23628587 0.071675859 -0.89953643 92 62 52
0.23558223 0.071427636 -0.89926314 90 60 50
0.23294561 0.071964517 -0.90005237 82 54 41
0.23294601 0.071693003 -0.89970356 83 53 41
0.23547299 0.072109967 -0.90008259 89 59 49
0.23731773 0.070900686 -0.89910197 96 63 58
0.23911209 0.069985189 -0.89904523 100 64 68
0.23976032 0.06971319 -0.89907891 102 63 71
0.23717751 0.071197808 -0.8993147 95 64 57
0.23905608 0.069965564 -0.89900249 100 64 68
0.2401069 0.069505818 -0.89903975 103 64 73
0.23829021 0.072176881 -0.90083539 95 63 60
0.23748961 0.072178185 -0.90054715 93 62 57
0.23675694 0.072071888 -0.90015674 92 62 54
0.24163438 0.072177835 -0.90221351 106 73 84
0.2402571 0.070345797 -0.89988184 102 64 73
0.24062105 0.070724294 -0.90040052 103 66 76
0.24204788 0.071899779 -0.90214902 108 76 89
0.24157088 0.069966942 -0.9002651 108 71 86
0.24309123 0.070980363 -0.90202683 113 80 98
0.24180073 0.070381485 -0.90074039 109 73 88
0.24124737 0.069877625 -0.89999121 107 69 83
0.24273258 0.069821872 -0.90091765 112 78 95
0.24154936 0.068788894 -0.89938658 109 72 85
0.24263203 0.070137165 -0.90108013 112 77 94
0.24406536 0.07022313 -0.90220767 115 83 103
0.24398732 0.070599556 -0.90235871 116 83 104
0.24263403 0.069479376 -0.90063554 112 77 93
0.24404538 0.068828426 -0.90139973 114 82 98
0.24421516 0.068744257 -0.9014731 114 82 98
0.24463077 0.069528773 -0.9021669 117 86 103
0.24479915 0.068415225 -0.90163529 117 86 100
0.25200251 0.071734518 -0.90235656 95 53 39
0.25247085 0.071462601 -0.90133655 89 49 38
0.25307155 0.071222223 -0.90000546 81 45 36
0.2523067 0.071096137 -0.90197933 95 58 42
0.25249735 0.069631174 -0.90245354 105 79 55
0.25262454 0.070472538 -0.90159547 95 63 46
0.25350344 0.070961438 -0.89904559 70 30 28
0.25401106 0.068388797 -0.89932495 72 39 35
0.25389957 0.069316909 -0.89903665 69 33 31
0.25359067 0.069258392 -0.89988184 79 47 39
0.25325346 0.071887277 -0.89912111 71 30 28
0.25323901 0.071701832 -0.899275 73 33 29
0.21991794 0.064803027 -0.90270084 195 191 200
0.22030394 0.064679079 -0.90124375 194 191 198
0.2244693 0.067049183 -0.90064567 151 132 124
0.2237595 0.066891208 -0.90091819 162 148 142
0.22447911 0.067614846 -0.90142322 154 137 128
0.22390895 0.066290356 -0.89998162 156 139 132
0.22138865 0.065055199 -0.89992803 187 182 185
0.22192915 0.065301947 -0.89993024 180 174 174
0.22416835 0.067981973 -0.90218437 161 148 140
0.22075342 0.065002926 -0.90057129 192 189 195
0.22249077 0.066688672 -0.90174592 177 170 167
0.22303957 0.067402095 -0.90247601 172 163 159
0.2218035 0.066206701 -0.90164816 182 177 178
0.22226164 0.066607215 -0.90187055 179 172 171
0.22496535 0.066806376 -0.89979422 139 116 108
0.22674197 0.067631744 -0.89885443 104 76 70
0.22602125 0.067691334 -0.89978254 121 96 89
0.2254502 0.067345247 -0.89997256 132 108 101
0.22519585 0.066361673 -0.8989073 132 106 99
0.22469459 0.067010887 -0.90039539 147 126 117
0.24311967 0.067343608 -0.89982098 112 77 90
0.24225822 0.067015983 -0.89894551 111 74 85
0.24284802 0.066175751 -0.89894891 113 76 86
0.24341914 0.067787796 -0.90031028 113 79 92
0.24168457 0.067817748 -0.89893353 109 72 83
0.24657692 0.065361775 -0.90182406 120 88 99
0.24618474 0.064913698 -0.90129352 119 86 97
0.24573982 0.066230796 -0.90117282 121 90 100
0.24649638 0.067724176 -0.90236199 124 96 107
0.24708784 0.066745937 -0.90272611 123 94 105
0.2471706 0.064627238 -0.90225476 120 87 99
0.24678941 0.067464247 -0.9026016 124 96 107
0.24483477 0.065672979 -0.90012068 120 85 95
0.24489737 0.06596835 -0.90032351 120 86 96
0.24535437 0.06816797 -0.90182823 119 90 102
0.24424243 0.067425929 -0.90074819 115 82 95
0.25335267 0.064704165 -0.90099555 96 79 61
0.25291842 0.067237131 -0.90187943 108 91 64
0.25332603 0.064816609 -0.90137392 96 80 61
0.25305399 0.066436306 -0.90167904 104 87 63
0.25304049 0.066411726 -0.90248507 104 87 64
0.25325769 0.066836685 -0.90053326 98 78 57
0.25348225 0.067941494 -0.90051329 90 64 49
0.25346324 0.067998566 -0.90059251 90 65 49
0.25364915 0.066655792 -0.89941549 86 61 48
0.25323829 0.067459136 -0.900904 98 77 56
0.2529774 0.068234816 -0.90198576 105 85 60
0.21897228 0.06288556 -0.9017387 196 187 200
0.21867907 0.062487416 -0.90183705 196 186 200
0.22017775 0.064346343 -0.900971 195 191 199
0.21970358 0.064212896 -0.90218329 196 191 201
0.21849471 0.062201861 -0.90182626 196 185 200
0.21944922 0.063435771 -0.89946526 198 195 201
0.21928407 0.063030556 -0.90038401 196 189 200
0.21921021 0.063275255 -0.89924657 200 197 203
0.22093827 0.06401407 -0.89887637 190 187 191
0.24620208 0.064430021 -0.9011724 119 85 95
0.24600844 0.062869765 -0.9006983 117 80 89
0.24789757 0.061780632 -0.9026252 116 80 90
0.24556243 0.063530862 -0.90029752 117 81 91
0.24567232 0.064013205 -0.90048283 118 83 93
0.24770877 0.062716015 -0.90254349 117 82 93
0.24794069 0.06128604 -0.90231353 116 80 89
0.24650842 0.061571006 -0.89940071 120 89 91
0.24732755 0.060781214 -0.89983672 120 90 91
0.245342 0.062814772 -0.89901358 119 85 90
0.24665828 0.06150195 -0.89962852 119 88 91
0.24584018 0.06268885 -0.89997417 118 83 90
0.24633637 0.062534258 -0.9008736 117 80 89
0.24747023 0.060621858 -0.90023172 119 88 90
0.25335243 0.064397596 -0.90269893 95 78 63
0.2532078 0.062448036 -0.90157974 98 83 66
0.25318354 0.062272884 -0.90154743 98 84 67
0.25323811 0.063133262 -0.90209746 97 81 65
0.25308597 0.060560938 -0.90038663 101 88 69
0.25336292 0.062385306 -0.89998239 98 82 63
0.25335461 0.062478174 -0.90047395 98 82 64
0.25337335 0.064313263 -0.9017719 95 78 62
0.25335199 0.062990353 -0.90119678 97 81 64
0.25338486 0.062925167 -0.89961112 97 81 62
0.24762444 0.060449217 -0.90051669 118 86 89
0.24728942 0.060307987 -0.89891678 120 93 91
0.24802414 0.05942006 -0.8993752 116 86 87
0.25010824 0.059305649 -0.90176976 104 77 77
0.25023395 0.059586868 -0.90265208 103 75 76
0.24833016 0.060141187 -0.90167958 115 80 85
0.24919823 0.059267491 -0.90052468 109 82 81
0.25070313 0.059204031 -0.90225792 100 75 74
0.24875042 0.060074754 -0.90203822 112 79 83
0.24908581 0.059063416 -0.89983195 110 84 82
0.24932285 0.058925398 -0.89894408 110 85 80
0.25187352 0.058678951 -0.90160805 94 75 67
0.25114706 0.058839578 -0.90174139 98 76 72
0.24986599 0.058940731 -0.90018022 106 81 78
0.25266457 0.059901468 -0.90128326 98 82 69
0.25286752 0.060170107 -0.90073717 99 85 69
0.25288519 0.060464647 -0.90137899 100 88 72
0.25245127 0.059330761 -0.90052646 97 79 66
0.25204876 0.058740567 -0.90090078 95 77 67
0.25312027 0.060203284 -0.8988353 101 86 66
0.2522676 0.058926888 -0.8993699 98 81 66
0.24531032 0.091949053 -0.9216243 98 83 68
0.24584953 0.092758037 -0.92221117 96 78 65
0.24562174 0.092083655 -0.91903204 96 74 63
0.24621347 0.093098395 -0.92079508 94 72 60
0.24617805 0.093164563 -0.92180777 94 74 62
0.24589336 0.092491828 -0.91933352 95 72 61
0.24398269 0.090061493 -0.92078447 92 74 70
0.2432912 0.089018852 -0.91933471 93 74 74
0.24284779 0.088398211 -0.91889799 93 74 75
0.24292961 0.088492669 -0.91877228 93 74 75
0.24245927 0.088584453 -0.92138475 88 67 67
0.24264312 0.088904634 -0.92197907 88 66 66
0.24306069 0.089298636 -0.9219507 89 68 66
0.24310286 0.089298204 -0.92178136 89 69 67
0.24213907 0.088073358 -0.9205423 89 67 69
0.24471231 0.091129392 -0.92165649 94 78 68
0.24504371 0.091619775 -0.92195737 97 83 70
0.24454589 0.090598263 -0.91864836 94 76 71
0.24462579 0.090798914 -0.91961962 94 75 68
0.24462864 0.090875737 -0.92037046 93 74 67
0.23168768 0.084455729 -0.92218113 62 36 30
0.2349899 0.08409407 -0.92014778 72 43 38
0.23322023 0.08432734 -0.92126954 68 40 34
0.23273721 0.084683932 -0.92210484 66 39 33
0.23536661 0.084605277 -0.92110956 72 44 39
0.2350107 0.08489579 -0.92187238 71 44 38
0.23485282 0.084899843 -0.92193061 71 43 38
0.23463582 0.084754243 -0.92167145 70 43 38
0.23647979 0.084930897 -0.92141676 74 46 42
0.23747575 0.084679648 -0.92000747 76 47 45
0.23794352 0.084399402 -0.91898596 76 47 46
0.23745455 0.085116193 -0.92098147 76 48 45
0.23888986 0.084563144 -0.91851866 78 50 49
0.23986061 0.085131839 -0.91894251 80 53 53
0.237749 0.085575953 -0.92185676 77 49 46
0.23835792 0.085527502 -0.92121542 78 50 48
0.24000056 0.086103506 -0.92125183 81 52 53
0.23979303 0.085268423 -0.91934168 80 53 53
0.24006999 0.085831761 -0.92051327 81 53 53
0.24092984 0.087250352 -0.92208672 83 57 59
0.2416582 0.087680183 -0.92087388 87 63 66
0.24153528 0.087874793 -0.92212218 85 60 63
0.24178097 0.087343641 -0.9192611 90 67 69
0.24220154 0.087534092 -0.91840732 92 71 74
0.24068062 0.085680105 -0.91858184 83 57 59
0.24091408 0.086149551 -0.9190172 85 59 61
0.24172415 0.087387882 -0.91955131 89 66 69
0.22758102 0.081193507 -0.91874272 81 53 50
0.22748783 0.081495047 -0.91930562 81 55 52
0.22751427 0.081969336 -0.92014825 77 52 47
0.22802474 0.082177497 -0.92009878 69 44 41
0.23195715 0.083899617 -0.92106503 68 38 32
0.23149623 0.083562523 -0.92060667 68 40 32
0.23196816 0.083152808 -0.91948318 74 45 37
0.23054078 0.083195284 -0.92035598 65 39 32
0.22932743 0.082049876 -0.91895378 69 41 40
0.23234661 0.082734324 -0.91839772 79 50 41
0.22862956 0.082541138 -0.92028493 60 35 33
0.2286699 0.083388925 -0.92183036 53 29 25
0.23075025 0.082899846 -0.91966832 69 42 35
0.22913677 0.082317017 -0.91956359 65 39 37
0.22884187 0.081681669 -0.91856521 69 42 42
0.23513524 0.083380885 -0.91863805 75 46 42
0.2357493 0.083463222 -0.91857207 74 45 42
0.23293513 0.083630361 -0.9200353 73 43 36
0.23259787 0.083470508 -0.91983372 74 44 37
0.2327279 0.082988866 -0.91876519 78 49 40
0.23309103 0.083779067 -0.92028636 72 42 36
0.23650509 0.083601832 -0.91848975 74 44 42
0.25186774 0.050741822 -0.91945016 92 63 60
0.25035787 0.050199527 -0.92100626 103 73 74
0.24988687 0.050822008 -0.92042655 93 63 67
0.24934298 0.04967095 -0.92224336 114 83 87
0.24980463 0.050489329 -0.92091221 99 69 72
0.25091225 0.050555021 -0.92024177 96 67 66
0.2514458 0.049796604 -0.92096931 108 79 76
0.2483397 0.051665016 -0.91843736 92 69 65
0.2480576 0.050833497 -0.92057407 101 74 77
0.24930531 0.051047873 -0.91991025 94 66 67
0.24954686 0.051153541 -0.91961896 92 64 65
0.24983785 0.051278267 -0.91927457 89 62 62
0.24911751 0.051267002 -0.91937238 92 66 66
0.25428745 0.048963163 -0.92004484 105 78 66
0.25346979 0.04895645 -0.92053658 112 87 74
0.25237271 0.05081236 -0.9189778 88 60 55
0.25300625 0.050701585 -0.91867054 85 57 52
0.25516155 0.04971933 -0.91836452 86 61 51
0.25337982 0.04951714 -0.91985637 104 78 68
0.25407323 0.050289195 -0.91842884 84 58 50
0.25437054 0.049617574 -0.91904151 94 69 58
0.25204512 0.050393768 -0.91971803 98 70 64
0.25593755 0.04897543 -0.91872942 91 64 51
0.25436562 0.04788975 -0.92207044 98 73 61
0.25293398 0.047826704 -0.92219359 119 94 82
0.2537351 0.048608147 -0.92108583 109 83 70
0.25570753 0.048673127 -0.91980642 91 63 49
0.25515088 0.04781324 -0.92181933 90 65 52
0.25552219 0.047518693 -0.92218065 84 60 47
0.24538177 0.097802281 -0.93404007 87 61 59
0.24515754 0.097692996 -0.93399155 87 61 59
0.25912711 0.072555974 -0.88718045 134 113 103
0.25855818 0.073409714 -0.88813549 128 105 98
0.25853923 0.07385619 -0.88835806 126 103 95
0.25885099 0.072295584 -0.88740176 131 110 102
0.25820097 0.072413899 -0.88829499 120 98 93
0.25579017 0.069270954 -0.89084721 66 41 50
0.25684166 0.068361975 -0.88885707 84 61 71
0.25590497 0.070399024 -0.89087653 72 47 56
0.25665769 0.069637693 -0.88948756 85 62 70
0.25671831 0.068616211 -0.88911921 83 59 69
0.25733137 0.069555596 -0.8883968 99 77 84
0.25749502 0.069091074 -0.88801926 101 79 87
0.2566998 0.069764122 -0.88945448 87 63 71
0.25727677 0.070496112 -0.88880914 100 78 83
0.25853357 0.070511661 -0.88715106 122 101 100
0.25721511 0.072061293 -0.8894822 102 80 80
0.25802228 0.068931185 -0.88723081 110 89 95
0.25864279 0.072170414 -0.88763314 127 106 99
0.25829068 0.071965195 -0.88802177 121 99 94
0.25568557 0.065724954 -0.89098924 52 23 44
0.25573474 0.064971894 -0.89082581 50 21 45
0.25658888 0.065435939 -0.88864321 75 51 64
0.25603354 0.065601066 -0.88987011 61 34 53
0.25668943 0.065442652 -0.88842314 78 55 66
0.25683528 0.065449454 -0.88810366 82 59 69
0.25738952 0.067227997 -0.88767999 95 73 82
0.2568239 0.066636205 -0.88840699 83 60 69
0.25621706 0.067490846 -0.88959944 70 46 57
0.25697646 0.067178227 -0.88831681 86 63 73
0.25724992 0.068353944 -0.88821179 93 70 79
0.25740471 0.067841008 -0.88782591 96 74 82
0.23215255 0.062079147 -0.8902176 93 63 51
0.22985502 0.06069243 -0.89051163 89 61 55
0.23051354 0.061760508 -0.89090264 89 61 52
0.23045716 0.060588364 -0.89010322 91 63 55
0.23148002 0.061280906 -0.89002562 92 63 53
0.23441261 0.061290588 -0.88929546 101 68 60
0.23509632 0.061294984 -0.88922524 103 69 63
0.23588261 0.060785294 -0.88877964 106 71 67
0.23375903 0.060865417 -0.88906425 100 68 58
0.23369353 0.060592696 -0.88887799 100 68 59
0.23580471 0.063281961 -0.89080715 102 69 64
0.23604922 0.062564507 -0.89021534 104 70 66
0.23628999 0.063028619 -0.8905865 104 70 66
0.23617557 0.061676085 -0.88948756 106 71 67
0.23565875 0.061211716 -0.88912421 105 70 66
0.23421432 0.062954456 -0.89058667 98 66 57
0.23898569 0.061467208 -0.89035195 111 77 78
0.2370721 0.061669376 -0.88976854 107 73 71
0.23684707 0.062953413 -0.89072704 105 71 68
0.2383319 0.061664861 -0.89025742 110 75 76
0.23645079 0.060785536 -0.88880539 107 73 70
0.23870973 0.062093154 -0.89088088 110 76 77
0.23985459 0.061398014 -0.89082575 113 79 83
0.24045762 0.060912739 -0.89093804 115 80 85
0.25582606 0.062328693 -0.89074445 59 26 40
0.25585464 0.063218892 -0.89043909 57 26 44
0.25589061 0.063177742 -0.8903417 58 27 45
0.25623468 0.061224617 -0.8898074 69 35 43
0.25589883 0.063716114 -0.89022171 56 27 47
0.25633845 0.06135064 -0.88951522 71 37 46
0.25686389 0.061150391 -0.88818908 79 48 55
0.25679788 0.064052626 -0.88814437 78 54 66
0.2568779 0.064142756 -0.88796592 80 56 68
0.25722858 0.062580235 -0.88724864 88 62 68
0.25664815 0.063100591 -0.88850427 73 46 59
0.22792135 0.056785394 -0.88967514 95 68 64
0.22667857 0.056872908 -0.89064389 109 81 75
0.22827242 0.05744385 -0.88975185 90 63 60
0.22725031 0.058349576 -0.89097613 101 74 69
0.23219027 0.059140064 -0.88829023 98 69 56
0.23006432 0.05695736 -0.88835144 93 66 59
0.23140858 0.059265651 -0.88886756 95 66 55
0.22996207 0.058018222 -0.88905227 91 64 57
0.23152193 0.059281252 -0.8888039 95 66 55
0.23017362 0.05725269 -0.88845789 93 66 58
0.23146313 0.058761701 -0.88853079 96 67 56
0.22989242 0.060026899 -0.89012229 89 62 55
0.23126045 0.059775736 -0.88923383 94 65 55
0.22968958 0.058177888 -0.88929129 90 63 57
0.23007013 0.060370378 -0.89019883 90 62 55
0.22870556 0.057079922 -0.88927776 88 62 58
0.22874127 0.057735298 -0.88959235 87 61 58
0.23083478 0.060540248 -0.88986063 92 63 54
0.23627694 0.058129232 -0.88712555 110 77 71
0.23514584 0.058571216 -0.8875159 107 75 67
0.23549968 0.059753243 -0.88818187 106 73 67
0.23579299 0.058524415 -0.88741559 108 76 69
0.23430721 0.059681997 -0.88826835 103 71 63
0.23401806 0.060447846 -0.8887521 101 69 60
0.23353684 0.059874568 -0.88846487 100 69 59
0.23468469 0.059462503 -0.88809812 104 72 65
0.2334373 0.058552466 -0.88769388 102 72 61
0.23891905 0.057454091 -0.88722354 116 83 78
0.23682593 0.058087371 -0.88721508 111 78 73
0.24014987 0.058189485 -0.88813651 117 84 82
0.23906428 0.057322487 -0.88715225 116 83 79
0.24007599 0.058760103 -0.88858557 116 83 83
0.23983833 0.05822112 -0.88808388 116 83 81
0.23923087 0.058779009 -0.8883881 115 81 80
0.23732729 0.059074417 -0.8880747 111 78 75
0.23668547 0.060340408 -0.88857943 108 74 71
0.23662083 0.059421707 -0.88800579 109 75 72
0.23912552 0.060066693 -0.88936996 113 79 81
0.24034065 0.058569387 -0.88867188 117 83 83
0.24039559 0.058627065 -0.88882357 117 83 83
0.24189752 0.059036262 -0.89098752 118 84 87
0.24321325 0.057187218 -0.89081019 121 89 88
0.24053454 0.057734832 -0.88823694 118 84 83
0.2414169 0.058324032 -0.8897866 119 85 85
0.2421204 0.057926074 -0.8902306 120 86 86
0.24346089 0.05676312 -0.89070743 122 90 88
0.2418064 0.057651535 -0.88961989 120 86 85
0.24185534 0.05696246 -0.88904756 120 87 85
0.25562423 0.058531761 -0.89008808 77 47 44
0.25551733 0.058573633 -0.89043295 77 47 44
0.25523812 0.057867322 -0.890724 81 54 48
0.25508973 0.056650333 -0.89024943 88 66 54
0.25545681 0.058586624 -0.89062017 77 47 44
0.25590542 0.058372006 -0.88921946 78 48 45
0.25607511 0.057285909 -0.8881861 85 58 51
0.25648367 0.059858862 -0.88892394 78 45 47
0.25671285 0.059762951 -0.88827914 82 50 51
0.25632462 0.058583334 -0.88866568 80 49 46
0.25653037 0.059747662 -0.88874435 79 46 48
0.25672218 0.058166403 -0.88741529 87 60 55
0.21772178 0.054791428 -0.89092654 209 201 209
0.22743626 0.056125332 -0.88977569 101 73 68
0.22626987 0.055465356 -0.8904047 115 85 79
0.22570299 0.055709694 -0.89091426 122 92 84
0.22629079 0.054735702 -0.89012343 115 83 79
0.22584155 0.054233417 -0.89027447 120 87 83
0.2267509 0.053985357 -0.88944697 110 78 75
0.22790051 0.055033386 -0.88896632 97 68 65
0.22728403 0.054848239 -0.88938612 103 73 70
0.2277735 0.053904012 -0.8885836 100 71 67
0.22756803 0.053306647 -0.88849318 103 73 69
0.2274843 0.053351883 -0.88858044 104 74 69
0.22733226 0.053044409 -0.88857144 106 75 71
0.22721717 0.052940831 -0.88862014 107 76 72
0.22883928 0.052768331 -0.88725644 96 68 62
0.2308601 0.055869281 -0.88730896 98 71 61
0.23135814 0.05638212 -0.88721478 99 72 61
0.22883634 0.056595977 -0.88893288 89 63 59
0.23024607 0.054999515 -0.88732016 97 70 61
0.23127304 0.056222603 -0.8871991 99 72 61
0.24411225 0.05636254 -0.89098036 122 90 89
0.24341738 0.054793209 -0.88823521 120 87 88
0.24391302 0.053661942 -0.88738894 119 86 89
0.24252242 0.055442236 -0.88802028 120 87 86
0.24198915 0.055996343 -0.88810158 120 87 85
0.24268284 0.055373177 -0.88811791 120 87 86
0.24357331 0.054419555 -0.88794672 119 87 88
0.24319038 0.055428009 -0.88876867 120 88 87
0.24319504 0.055551156 -0.88892806 121 88 87
0.24616319 0.052918375 -0.88820523 111 84 82
0.24798167 0.05283561 -0.8894664 104 82 75
0.24750851 0.053453907 -0.89007384 104 80 76
0.24475299 0.053260729 -0.88763338 116 85 87
0.24507007 0.054001939 -0.88883567 115 85 85
0.24627391 0.054921642 -0.89097106 111 84 80
0.24523687 0.054373018 -0.88943499 115 85 84
0.24491449 0.05521344 -0.89021659 117 87 86
0.24426138 0.054327518 -0.88857615 119 87 89
0.24713336 0.053750969 -0.89021981 106 80 76
0.24571502 0.055123944 -0.89076346 113 85 82
0.24863711 0.05326236 -0.8900733 96 74 69
0.25015652 0.052957658 -0.88929403 79 60 56
0.24831751 0.05303885 -0.88978404 100 79 72
0.25106075 0.053478286 -0.89035124 73 56 49
0.24948004 0.0534449 -0.89023131 86 65 61
0.2506488 0.05330823 -0.88993287 75 56 52
0.2488437 0.053660732 -0.89073312 94 72 66
0.25579181 0.055709269 -0.88739127 87 65 56
0.25514495 0.055725519 -0.88797104 83 60 52
0.25307134 0.052795343 -0.88775873 68 50 47
0.25244346 0.052838944 -0.88827282 63 45 43
0.25287518 0.052942857 -0.88800257 67 48 45
0.25472552 0.056413278 -0.89067805 87 65 54
0.25527442 0.056148082 -0.88833112 84 61 53
0.25474256 0.05635095 -0.89045483 86 64 53
0.25581893 0.056629777 -0.88807231 87 64 54
0.25399831 0.055368844 -0.88990927 79 58 50
0.25377712 0.055188064 -0.89005584 78 57 49
0.25222993 0.053525183 -0.88981676 66 49 43
0.25233415 0.054019924 -0.89075172 69 54 45
0.25216341 0.053094245 -0.88894367 62 44 42
0.25234956 0.053908579 -0.89044738 69 52 44
0.2560243 0.056061327 -0.88736093 88 65 55
0.21952949 0.049386039 -0.89075232 210 203 203
0.21924645 0.050129708 -0.89075136 210 203 205
0.21971969 0.05066086 -0.8910085 206 197 199
0.2221286 0.050601345 -0.89100444 176 158 156
0.2224642 0.049045216 -0.89030433 172 152 149
0.2233938 0.050363474 -0.89034027 156 128 125
0.22422299 0.049759746 -0.88966602 143 109 105
0.22435424 0.051671885 -0.89035606 139 104 100
0.22293843 0.050563306 -0.8906582 163 139 136
0.22426616 0.051109511 -0.8901791 141 106 103
0.2283421 0.051916219 -0.88730311 97 68 64
0.22560148 0.049490083 -0.88855588 126 91 87
0.22648941 0.050544333 -0.88825339 117 84 79
0.2275276 0.051291522 -0.88771164 105 74 70
0.22762848 0.050973535 -0.8875078 104 72 69
0.22782698 0.051942412 -0.88772404 102 72 67
0.22553174 0.052650306 -0.88986331 124 90 86
0.2265521 0.051289544 -0.88849676 116 83 78
0.22526513 0.04981916 -0.88895583 130 94 90
0.22618841 0.052447032 -0.8892507 118 85 81
0.22580886 0.051324464 -0.88911265 123 89 84
0.22524028 0.049884804 -0.88900197 130 95 90
0.22495016 0.052250031 -0.89017558 131 94 91
0.24719459 0.051990461 -0.88788372 104 80 76
0.24695383 0.052288279 -0.8880471 106 82 78
0.2475531 0.052426927 -0.88864458 104 82 76
0.2496009 0.051041894 -0.8872242 79 57 57
0.25011346 0.051666427 -0.8877607 76 55 53
0.25193843 0.052153338 -0.88804615 58 38 41
0.24815179 0.051919788 -0.88840723 99 77 71
0.25007978 0.052711684 -0.88893133 80 61 57
0.24972849 0.051875934 -0.8880468 81 60 57
0.25000688 0.051901467 -0.88802111 78 57 55
0.25323498 0.052436713 -0.88731563 69 50 48
0.25293326 0.052056238 -0.88719368 65 45 46
0.22052072 0.048490901 -0.89097381 205 198 197
0.21991508 0.04781248 -0.89057547 214 209 210
0.22139728 0.048779789 -0.89076531 190 179 175
0.22326331 0.048054546 -0.88960904 164 139 136
0.22071044 0.047350604 -0.89077294 210 206 205
0.22387791 0.048515607 -0.88940024 151 121 116
0.22147191 0.046644732 -0.89020181 202 193 193
0.22160169 0.047773648 -0.89040995 193 181 179
0.22282504 0.046792425 -0.88952631 180 161 160
0.2233043 0.045453846 -0.88892263 186 170 167
0.22404337 0.046172958 -0.88871145 170 147 143
0.22391747 0.048084155 -0.88927323 154 123 120
0.22411685 0.046315126 -0.88870871 168 144 139
0.22394238 0.047784083 -0.88918227 156 127 123
0.22472423 0.048260231 -0.88884032 141 106 101
0.2254397 0.045003023 -0.88733429 158 137 130
0.22627172 0.047765564 -0.88745201 127 95 91
0.22498347 0.047883026 -0.88851756 140 107 102
0.22596253 0.048421297 -0.88789153 125 90 87
0.22629896 0.046802178 -0.88714814 133 106 101
0.22507237 0.048077486 -0.88850337 138 104 99
0.22491157 0.043552473 -0.88734305 173 150 148
0.22305158 0.039046668 -0.88756317 204 190 198
0.22339757 0.039937001 -0.88745731 200 182 190
0.22341877 0.039799839 -0.88742191 200 182 190
0.23245588 0.076391645 -0.90661353 78 46 38
0.23540561 0.076508671 -0.90559858 82 53 43
0.23622076 0.077399448 -0.90637851 83 54 45
0.23550862 0.076915249 -0.90606058 82 52 44
0.23968726 0.076331899 -0.9054957 95 60 62
0.23722932 0.07628008 -0.90508115 86 57 49
0.23875198 0.076435827 -0.90549082 91 59 57
0.23759647 0.077620991 -0.90657467 87 56 51
0.24012375 0.077709675 -0.90654767 94 60 63
0.23997138 0.077592902 -0.9064647 94 60 62
0.24114633 0.077315532 -0.90627372 100 68 75
0.24084513 0.076980196 -0.90600938 99 66 71
0.24081331 0.077539928 -0.90643334 98 65 71
0.24219587 0.077774905 -0.90643895 104 76 85
0.24155368 0.077655166 -0.90643793 101 71 78
0.24171875 0.077233009 -0.90622163 103 73 82
0.24562906 0.076670416 -0.90519953 127 109 109
0.24646278 0.077224925 -0.90503174 131 114 105
0.24597168 0.077052154 -0.90513152 128 109 106
0.24609581 0.077081457 -0.90510625 129 110 106
0.22844414 0.073533855 -0.90610075 81 47 39
0.22710954 0.072421595 -0.90613556 101 69 59
0.23134138 0.074040636 -0.90407223 76 47 37
0.2321672 0.074371211 -0.90382409 79 52 40
0.23171905 0.074295588 -0.90411341 78 49 38
0.2320943 0.075481817 -0.90554446 78 46 38
0.2312552 0.074685566 -0.90512848 77 45 36
0.23031858 0.074045353 -0.90506107 77 43 35
0.22979675 0.072312519 -0.90289307 73 44 33
0.23018982 0.07304474 -0.90363896 74 44 34
0.22950771 0.07335557 -0.90478247 76 42 34
0.22918054 0.073388174 -0.90514606 77 43 35
0.22884801 0.073767506 -0.9060424 79 45 38
0.22920433 0.074387431 -0.90663952 80 46 39
0.22952381 0.073749565 -0.90536344 77 43 35
0.233573 0.074149899 -0.90294755 82 56 44
0.23488919 0.074900337 -0.9035905 83 56 44
0.23469293 0.075134896 -0.90389818 82 56 44
0.23490936 0.074829511 -0.90350443 83 56 45
0.23395497 0.075562268 -0.90479743 81 52 42
0.23398751 0.074809544 -0.90366364 82 56 43
0.23316036 0.074387737 -0.90334427 81 56 43
0.23404832 0.075820327 -0.90514708 81 51 42
0.23248686 0.074935183 -0.90441173 80 51 41
0.23246428 0.075550176 -0.90533662 79 48 40
0.237643 0.074644797 -0.90330696 90 58 53
0.23759484 0.074327625 -0.90299958 90 58 53
0.23855937 0.0743073 -0.90322143 93 60 58
0.23825105 0.075141884 -0.90392166 92 59 56
0.23980345 0.073837467 -0.90309447 97 62 64
0.23728105 0.074862815 -0.90342993 89 58 52
0.23911509 0.076019436 -0.90503877 93 60 59
0.23634034 0.074579522 -0.90296584 86 56 47
0.23654197 0.074836329 -0.90329373 86 57 48
0.24310742 0.072484218 -0.90325111 111 81 98
0.24143718 0.074039571 -0.90394372 103 70 79
0.24035171 0.073447764 -0.90289313 99 63 68
0.24060717 0.075390041 -0.90481949 99 64 69
0.24365501 0.072591029 -0.90361512 113 84 104
0.24333261 0.072717443 -0.90358454 112 82 100
0.24060616 0.075951584 -0.90527707 98 64 69
0.24200538 0.075804926 -0.9052484 105 75 86
0.24206594 0.074880928 -0.90478522 106 75 86
0.24402004 0.075900674 -0.90536159 116 92 110
0.24306498 0.075803868 -0.90528208 111 84 98
0.24310303 0.074988775 -0.90487301 111 83 98
0.24615422 0.073440991 -0.90419692 131 118 117
0.24511246 0.072725654 -0.90386271 123 102 113
0.2452815 0.072487742 -0.90394264 123 103 115
0.24663502 0.07262715 -0.90443426 131 120 121
0.24708223 0.073103324 -0.90456551 135 128 122
0.24539994 0.074014969 -0.90415782 127 109 114
0.244463 0.076001637 -0.90535015 119 98 112
0.24510223 0.074324891 -0.90437496 125 105 113
0.24465302 0.074405082 -0.90450758 121 99 112
0.24483271 0.075551592 -0.90504771 123 103 113
0.24484847 0.074276261 -0.90440255 122 101 112
0.25032473 0.074921824 -0.90292025 114 84 63
0.22414343 0.068611205 -0.90361679 160 149 139
0.22365989 0.069169894 -0.90561157 159 151 142
0.22399041 0.069413424 -0.90538478 157 146 136
0.22452374 0.070018247 -0.90540379 152 138 125
0.22392796 0.069564462 -0.9057858 156 146 136
0.22663775 0.071797751 -0.90571755 110 83 71
0.22645311 0.071806319 -0.90597039 113 86 75
0.22705804 0.07166972 -0.90496546 102 75 65
0.22544 0.071097165 -0.9060818 132 113 100
0.22739764 0.071745224 -0.90466207 96 67 57
0.22493988 0.069933146 -0.90470129 144 129 116
0.22559905 0.069880374 -0.90377039 132 113 103
0.22507581 0.070780911 -0.90602458 139 122 109
0.22629115 0.070404984 -0.90381646 117 95 85
0.22616012 0.069786809 -0.90289217 122 100 91
0.22539824 0.070022553 -0.90427649 135 117 106
0.22703516 0.070964612 -0.90385842 101 74 66
0.22877772 0.071561292 -0.90273494 72 39 32
0.24373703 0.071414195 -0.90276998 115 83 104
0.24713787 0.068678774 -0.90348631 126 99 111
0.24508005 0.070388824 -0.90305221 119 89 108
0.24506271 0.070591129 -0.90317369 119 89 108
0.24480425 0.070901506 -0.90317088 118 88 108
0.24607031 0.070169501 -0.90370184 122 95 111
0.2451762 0.071757741 -0.90380388 120 96 112
0.24648787 0.070688471 -0.90404624 125 103 114
0.24726643 0.069965266 -0.90416998 127 107 115
0.24717163 0.0708552 -0.90433776 129 113 118
0.24739011 0.069722362 -0.90416044 127 106 115
0.25128639 0.07186193 -0.90299606 105 70 55
0.25104088 0.070968471 -0.90370643 116 93 74
0.25086355 0.071123108 -0.90373039 116 94 76
0.25099942 0.070071891 -0.90433246 125 113 90
0.25154018 0.070228942 -0.90384138 118 97 74
0.2500076 0.071277648 -0.90423959 125 111 95
0.24947992 0.071124963 -0.90471846 132 127 111
0.25034365 0.068385199 -0.90450883 130 117 101
0.24832375 0.068637878 -0.90420598 128 107 112
0.2485674 0.06884326 -0.90429628 129 110 112
0.24811347 0.070691332 -0.90463674 134 123 122
0.24896751 0.07020545 -0.90467834 133 124 116
0.25235468 0.068420157 -0.90366697 121 109 78
0.25266567 0.0685158 -0.90276527 113 95 65
0.25202906 0.07064195 -0.90306646 107 76 54
0.22196403 0.067014955 -0.90361214 176 171 172
0.22203542 0.067170583 -0.90421951 173 168 168
0.22165564 0.06671501 -0.90303165 181 177 178
0.24771923 0.067121595 -0.9035868 124 97 108
0.24770416 0.065953262 -0.90340388 121 92 104
0.24709685 0.06714496 -0.90294898 123 95 106
0.25016609 0.065194823 -0.90530366 124 106 100
0.25126901 0.065583974 -0.90622324 126 115 100
0.25194749 0.06630525 -0.90640295 129 123 100
0.25047809 0.06623584 -0.90482599 126 111 98
0.25162309 0.067086227 -0.90542704 129 122 97
0.25015995 0.065666437 -0.90492165 124 107 99
0.25097787 0.067314208 -0.90453082 128 117 95
0.24955586 0.065444387 -0.90442592 123 102 99
0.24850337 0.064928629 -0.90368176 120 92 99
0.25035134 0.067194633 -0.90433699 127 112 97
0.25110307 0.067746535 -0.90455037 129 119 96
0.25025401 0.067820475 -0.90440947 129 114 100
0.25041366 0.06738317 -0.90437514 128 113 98
0.24890698 0.065416671 -0.90382391 122 96 99
0.25195414 0.066898569 -0.90593743 130 124 98
0.2521154 0.067796007 -0.90475702 127 120 89
0.25233409 0.06766329 -0.90426314 122 111 82
0.25256544 0.067364782 -0.90385437 116 102 74
0.25260517 0.066533126 -0.90426254 115 101 76
0.25249815 0.065993346 -0.90499127 117 104 81
0.25279763 0.064553931 -0.90475392 108 95 78
0.25311065 0.065820627 -0.90281326 102 85 64
0.25301117 0.066086233 -0.90302187 104 88 66
0.25269875 0.066277951 -0.90406948 112 98 74
0.218566 0.062591106 -0.90591127 191 186 201
0.2182523 0.061878379 -0.90581745 195 188 205
0.21793747 0.06096692 -0.90615445 200 194 211
0.21799731 0.061040618 -0.90630925 200 194 212
0.21813063 0.061799012 -0.90534782 194 187 204
0.21855105 0.062412724 -0.90622437 193 188 203
0.21939273 0.064082488 -0.90366095 193 188 200
0.21836263 0.062561564 -0.90421766 192 182 199
0.21837458 0.062520586 -0.9034903 194 184 200
0.21906519 0.06357991 -0.90360463 194 187 200
0.21934146 0.063937403 -0.90283549 196 190 202
0.24800347 0.063515574 -0.90319735 118 85 96
0.24890639 0.06238905 -0.90396357 118 87 91
0.24852198 0.062148571 -0.90346938 117 84 90
0.24877529 0.06355799 -0.90411872 119 90 95
0.2498014 0.063895412 -0.90535897 120 97 94
0.24940196 0.063378811 -0.90477645 119 93 93
0.24877878 0.061401259 -0.90348649 116 83 87
0.25039378 0.063782282 -0.90598488 121 101 93
0.24928167 0.060640559 -0.90547121 111 81 81
0.24969582 0.062671214 -0.90489256 119 93 90
0.24887109 0.061152369 -0.903786 115 82 85
0.2495209 0.060721267 -0.90611416 111 82 80
0.24923733 0.060953572 -0.90505856 113 82 83
0.25263816 0.061085898 -0.90495414 101 84 74
0.25245374 0.062985465 -0.90519196 113 103 86
0.25265166 0.060959999 -0.90443778 101 85 75
0.25264612 0.060999412 -0.90511352 100 82 74
0.25256094 0.061860967 -0.90581697 105 87 78
0.25268671 0.060637973 -0.90292847 101 90 76
0.25257125 0.063567966 -0.90510207 112 100 84
0.25251743 0.062675983 -0.90474087 111 100 84
0.25269738 0.061700713 -0.90345567 104 93 77
0.25305277 0.063260578 -0.90311325 99 85 69
0.25254685 0.064196147 -0.90558887 114 102 85
0.25291041 0.063497648 -0.90379333 103 90 74
0.25132239 0.057475075 -0.90510798 92 65 60
0.25179884 0.057510477 -0.90428919 87 60 57
0.2493706 0.059021704 -0.90423954 106 71 73
0.24971148 0.059466973 -0.90333569 105 73 75
0.24975772 0.058748499 -0.90436304 103 70 70
0.25018656 0.057765719 -0.90550411 99 65 63
0.25040638 0.05741597 -0.90586156 97 63 60
0.25086421 0.058232576 -0.90432495 97 68 65
0.24990198 0.058987968 -0.90589863 104 72 70
0.25014746 0.058215521 -0.90588409 100 68 65
0.24966182 0.059264082 -0.90544826 105 73 72
0.25043124 0.057734903 -0.90626675 98 65 62
0.25042695 0.058105163 -0.90661263 99 68 64
0.25207296 0.057484496 -0.9043566 85 58 54
0.25247294 0.059732314 -0.90302521 97 82 70
0.25257912 0.059748851 -0.9033069 96 82 70
0.25236571 0.057543326 -0.90528023 85 58 52
0.25228667 0.057626374 -0.90489626 86 59 54
0.25263703 0.059719443 -0.90491408 94 74 66
0.25261128 0.059342228 -0.90545976 92 69 63
0.25263971 0.059786852 -0.90556163 93 71 65
0.25257131 0.058691941 -0.90469033 91 70 61
0.25254813 0.058352087 -0.90517926 89 65 58
0.2519837 0.05602451 -0.90613794 82 50 45
0.24317934 0.084084034 -0.91045535 109 92 93
0.23638132 0.080144458 -0.91027427 82 52 43
0.23699595 0.080381095 -0.9104262 83 53 45
0.23864737 0.080248535 -0.90970534 87 55 52
0.23851216 0.08053828 -0.91006637 86 55 51
0.24247266 0.083409481 -0.91043925 105 84 84
0.24289094 0.083441518 -0.91001558 108 89 87
0.24278091 0.082742997 -0.90932345 109 88 84
0.24039978 0.081348129 -0.91017681 90 60 59
0.24088497 0.080254532 -0.9088375 94 63 65
0.22854273 0.076276727 -0.91004288 91 65 57
0.23136157 0.076320224 -0.90746313 80 49 42
0.23158276 0.078159027 -0.9103657 75 51 43
0.23050784 0.077329971 -0.90992248 82 56 48
0.23153476 0.07745745 -0.90922117 78 51 43
0.23200555 0.078355767 -0.91032112 73 49 41
0.22961149 0.076649345 -0.90957105 87 60 52
0.23234437 0.07799495 -0.90940785 73 47 39
0.23602159 0.080071591 -0.9103601 80 51 41
0.2362732 0.07975883 -0.90973312 81 52 43
0.23628636 0.07963457 -0.90954524 82 52 43
0.23454525 0.078465715 -0.90890807 77 50 42
0.23406769 0.079255566 -0.91034102 75 49 41
0.23418881 0.078679085 -0.90943301 76 50 42
0.23566052 0.079641506 -0.90993452 80 51 42
0.23341674 0.077265702 -0.9075678 77 48 40
0.23374675 0.077375077 -0.90757489 78 49 41
0.23529702 0.077627435 -0.90716571 80 52 44
0.23400089 0.077292837 -0.90729862 78 49 41
0.23251101 0.07654193 -0.9068315 77 46 38
0.23496151 0.077288419 -0.90677297 81 51 43
0.23243167 0.077598743 -0.9086628 74 47 39
0.23991214 0.079211898 -0.90808344 91 58 59
0.23994599 0.079469949 -0.90834957 91 58 58
0.23749064 0.077716246 -0.9066546 86 56 51
0.24012871 0.078159802 -0.9069804 94 60 62
0.2363797 0.078781851 -0.90826958 82 53 44
0.238508 0.079438008 -0.90856791 87 55 52
0.23696941 0.078708723 -0.90798318 84 54 47
0.23640607 0.078987159 -0.90855879 82 53 44
0.23832794 0.079049289 -0.90806025 87 55 52
0.23849475 0.079581276 -0.90877938 87 55 52
0.2419385 0.078161821 -0.90664953 102 73 81
0.24251932 0.078337923 -0.90670145 105 77 87
0.2411702 0.07873293 -0.90728498 98 66 72
0.24126908 0.078485809 -0.9069984 99 67 73
0.24077544 0.078597113 -0.90726417 96 63 68
0.22390176 0.072291724 -0.91021913 161 154 145
0.22700363 0.072714917 -0.90671557 104 72 62
0.22783989 0.074337475 -0.90806621 96 66 57
0.22810566 0.074867494 -0.90851676 93 64 55
0.22768685 0.075049408 -0.90929967 102 77 68
0.22629003 0.073604904 -0.90888202 124 102 93
0.22802447 0.075303867 -0.90926301 97 69 61
0.22759621 0.075179033 -0.90959722 105 81 72
0.22555111 0.073133364 -0.90908635 137 119 109
0.225686 0.072739452 -0.90835142 131 110 100
0.22500379 0.072687402 -0.90909451 145 130 120
0.22655956 0.074486226 -0.90981203 118 96 87
0.22498067 0.072777383 -0.90923887 144 128 119
0.22600472 0.074420072 -0.91031468 122 99 91
0.2297764 0.075428322 -0.9076435 83 51 44
0.2299531 0.074929632 -0.90673792 80 46 39
0.22876862 0.074192174 -0.90676051 81 47 40
0.23125724 0.076135345 -0.9072966 80 49 41
0.23102358 0.075792477 -0.90700853 80 47 40
0.22928029 0.075039424 -0.90753436 83 51 44
0.22376126 0.070453048 -0.90759218 157 149 140
0.22403263 0.070198692 -0.9067151 153 142 131
0.22352915 0.06963969 -0.90671837 158 150 141
0.2237927 0.071854405 -0.90973115 162 155 146
0.22418171 0.071750522 -0.9088949 156 145 136
0.2265297 0.072264008 -0.90664423 111 80 69
0.22503324 0.071863063 -0.90781438 141 123 112
0.22482647 0.071586929 -0.90762836 145 129 117
0.25125331 0.064755537 -0.9072805 123 108 96
0.25150764 0.065401018 -0.90664268 126 116 99
0.25216749 0.0647339 -0.90736073 122 111 95
0.25200883 0.0649978 -0.90828741 124 111 97
0.21795942 0.060739078 -0.9071812 199 194 212
0.2183667 0.061778385 -0.90671587 197 193 209
0.21831845 0.061660949 -0.90682173 197 193 210
0.25176272 0.063883141 -0.91049695 118 97 92
0.25086936 0.062615976 -0.91005492 112 88 84
0.25074527 0.064172044 -0.90693134 121 103 93
0.25150272 0.0639567 -0.90958637 119 99 92
0.25058082 0.062198445 -0.90992683 110 85 81
0.25082761 0.063401729 -0.90854037 116 96 88
0.25054774 0.063504666 -0.90704411 119 99 90
0.25031981 0.062791787 -0.90670991 117 95 88
0.24972828 0.060699094 -0.90750879 108 80 78
0.24996553 0.061265066 -0.90906787 107 80 77
0.24987619 0.061110798 -0.90807593 108 81 78
0.25255823 0.061625052 -0.91050512 101 76 75
0.25233364 0.063507944 -0.90848047 114 98 87
0.25254896 0.061764184 -0.91029441 102 78 75
0.25253385 0.062441528 -0.90894514 107 87 79
0.25267532 0.061390333 -0.90992874 99 75 72
0.25230896 0.063839786 -0.90798223 116 102 89
0.25278834 0.060683817 -0.91037172 94 67 67
0.2526122 0.061318908 -0.90667033 100 77 72
0.25239348 0.063698612 -0.90704417 115 102 88
0.25237545 0.063757725 -0.90664649 116 103 88
0.25238767 0.063638628 -0.90666902 115 102 87
0.25258753 0.062231015 -0.90872258 105 85 78
0.25074962 0.057821508 -0.90988201 92 60 54
0.2508879 0.056918304 -0.9075821 92 59 54
0.25091758 0.056705289 -0.90700394 92 59 54
0.25069395 0.057517547 -0.90786833 94 62 57
0.25060841 0.058260474 -0.91010219 93 62 57
0.25049505 0.058426753 -0.90945929 95 63 60
0.25002393 0.059545558 -0.9078896 103 73 70
0.24988078 0.060009625 -0.9080565 104 75 73
0.2503216 0.058461394 -0.90665561 100 70 66
0.25044948 0.058164448 -0.90738189 98 66 63
0.24976988 0.060418092 -0.9085505 105 76 74
0.24996726 0.059832126 -0.90872186 102 72 70
0.25275317 0.057970557 -0.9097085 83 52 49
0.25282541 0.057273492 -0.9102664 79 47 43
0.25280914 0.058790024 -0.91032642 86 55 54
0.25260624 0.058172241 -0.90840763 85 55 53
0.25281954 0.059206419 -0.91047722 87 58 57
0.2527658 0.058247551 -0.90986055 84 53 51
0.25270879 0.059636213 -0.90927345 91 62 61
0.25264421 0.059633732 -0.90719426 91 63 62
0.25261131 0.059277918 -0.9068734 90 62 60
0.25250867 0.057433937 -0.90740019 83 52 49
0.252756 0.060168568 -0.90968919 92 64 64
0.25262326 0.059215162 -0.90738976 90 61 59
0.2519165 0.055574965 -0.90755016 82 49 43
0.25179932 0.055235706 -0.91046268 79 46 38
0.25132358 0.056430753 -0.90887749 87 54 47
0.25099489 0.056636617 -0.90760088 91 58 52
0.25222918 0.055658478 -0.90927041 78 45 39
0.25219902 0.055702526 -0.90879667 78 46 40
0.25200582 0.054995056 -0.91027617 77 44 37
0.25207475 0.055320494 -0.90941411 78 45 39
0.23960051 0.096315198 -0.93322033 78 59 57
0.24394628 0.097081766 -0.93381524 86 61 61
0.24396145 0.096557885 -0.93359929 86 60 62
0.24126837 0.096510746 -0.93345195 81 60 58
0.24200493 0.095708385 -0.93335801 79 57 62
0.24120903 0.096155524 -0.93342197 79 59 59
0.2417049 0.09604314 -0.93339694 79 58 60
0.24178994 0.09636265 -0.93342298 81 60 59
0.24132884 0.096501112 -0.93344921 81 60 58
0.24515371 0.096338108 -0.931979 91 68 66
0.24437234 0.097063541 -0.93350428 87 62 62
0.24439281 0.096445091 -0.93321204 87 62 64
0.24612841 0.096519768 -0.93104511 92 72 66
0.24530879 0.096626811 -0.93200183 91 68 65
0.23835447 0.093480974 -0.93167526 74 52 51
0.23986164 0.09324728 -0.932064 74 52 53
0.23991229 0.092180051 -0.93154979 74 50 51
0.23922022 0.093692936 -0.93207085 74 52 53
0.23820366 0.093493991 -0.93163121 74 52 51
0.23888016 0.092840478 -0.93153262 74 51 50
