ply
format ascii 1.0
comment PCL generated
element vertex 1020
property float x
property float y
property float z
property uchar red
property uchar green
property uchar blue
element camera 0
property float view_px
property float view_py
property float view_pz
property float x_axisx
property float x_axisy
property float x_axisz
property float y_axisx
property float y_axisy
property float y_axisz
property float z_axisx
property float z_axisy
property float z_axisz
property float focal
property float scalex
property float scaley
property float centerx
property float centery
property int viewportx
property int viewporty
property float k1
property float k2
end_header
-0.20457649 0.30348155 -0.81432116 141 111 119
-0.20426121 0.30441299 -0.81390822 146 116 124
-0.20417702 0.30311224 -0.81380028 148 121 125
-0.20368764 0.30438983 -0.81323254 152 126 129
-0.20390131 0.30420423 -0.81346673 151 123 128
-0.2033287 0.30646741 -0.81294888 148 120 125
-0.20422468 0.30567554 -0.81392992 142 110 121
-0.20645082 0.30046073 -0.81656647 141 112 127
-0.20640105 0.29980519 -0.81645042 143 116 130
-0.20563111 0.30175751 -0.81561261 137 106 118
-0.2053057 0.30180931 -0.81519341 138 106 118
-0.20548677 0.30145252 -0.81539929 139 108 120
-0.20548877 0.30037507 -0.81530589 145 115 127
-0.20507608 0.30101332 -0.81482148 144 112 124
-0.20421304 0.29990697 -0.81371623 150 119 127
-0.20479038 0.30113739 -0.81449926 143 111 121
-0.20360172 0.29915199 -0.81292063 156 126 131
-0.20373179 0.30221006 -0.81320077 155 131 131
-0.20377152 0.30037686 -0.81318647 154 125 130
-0.20533501 0.29851583 -0.81498599 155 124 138
-0.20541601 0.29865178 -0.81508374 155 124 138
-0.2054642 0.2980884 -0.81518257 154 122 137
-0.20539379 0.29675764 -0.81511045 160 132 144
-0.20544906 0.2966212 -0.81519222 159 131 143
-0.20596541 0.29612532 -0.81594694 149 118 135
-0.20565404 0.29566556 -0.81550038 159 132 144
-0.20504652 0.29570615 -0.81462789 173 150 156
-0.20471917 0.29652768 -0.81424105 167 142 150
-0.20479876 0.2982752 -0.81431234 159 129 141
-0.20646089 0.29421902 -0.81669188 147 117 134
-0.20592947 0.29438785 -0.81591785 159 133 145
-0.2061079 0.29468843 -0.81617135 153 125 139
-0.20537825 0.29352441 -0.81512761 175 154 160
-0.20526627 0.29250234 -0.81496948 177 156 164
-0.20391238 0.29130596 -0.8135438 183 161 167
-0.20505139 0.29483676 -0.81464726 177 157 161
-0.20393927 0.29193074 -0.81356585 182 161 166
-0.20347001 0.29173365 -0.81308287 182 161 165
-0.20380381 0.29327106 -0.81334037 177 157 161
-0.20583339 0.28973323 -0.81589979 180 159 166
-0.20601469 0.28947857 -0.81618392 179 159 165
-0.20592853 0.28857979 -0.81611258 186 165 170
-0.20620295 0.28956908 -0.81645679 177 156 162
-0.20562598 0.28859338 -0.81569481 183 162 167
-0.20521651 0.28978899 -0.81501794 180 158 167
-0.20604953 0.28721783 -0.81640977 185 166 167
-0.20420785 0.28715914 -0.81417662 166 147 148
-0.20448917 0.28771958 -0.81441903 169 149 152
-0.20475636 0.29040101 -0.81442207 178 156 166
-0.20378137 0.28823197 -0.81360584 168 148 151
-0.20321913 0.28964245 -0.81294489 176 156 158
-0.20321305 0.28926241 -0.81296277 174 154 155
-0.20326483 0.28929159 -0.8130123 174 154 156
-0.20325331 0.28983516 -0.81296664 177 157 159
-0.20617367 0.28438622 -0.81650567 183 162 163
-0.20621651 0.28461927 -0.81657034 184 163 164
-0.20567614 0.28696263 -0.81591481 178 159 161
-0.2054859 0.28577033 -0.81562442 174 153 156
-0.20559746 0.28340605 -0.81572384 175 154 154
-0.20540872 0.28481516 -0.8155039 173 152 154
-0.20353946 0.28421912 -0.8134858 151 126 131
-0.20462127 0.28377971 -0.81458199 163 142 143
-0.20475948 0.28347874 -0.81471717 165 144 144
-0.20363666 0.28348309 -0.81357038 152 127 131
-0.20485473 0.28709751 -0.8148756 168 148 151
-0.20299883 0.28552493 -0.81289721 155 133 134
-0.20419954 0.28644043 -0.81417793 163 142 145
-0.20372742 0.28478679 -0.81368393 154 130 135
-0.20640194 0.28074339 -0.81664401 163 132 147
-0.20560549 0.28282198 -0.81570971 172 150 152
-0.20639306 0.28310513 -0.8167603 184 162 164
-0.20571044 0.28046575 -0.81562054 164 136 149
-0.20634413 0.27980745 -0.81650823 155 121 141
-0.20581019 0.28078985 -0.81582242 162 133 146
-0.20561793 0.28030533 -0.81545359 165 138 151
-0.20487931 0.28088099 -0.81449509 172 150 157
-0.20501256 0.28203157 -0.81479937 170 149 152
-0.20440918 0.28006986 -0.81389385 171 148 157
-0.20448317 0.28309685 -0.81441373 162 140 141
-0.20361151 0.28029302 -0.81310838 165 141 149
-0.20386253 0.28110823 -0.81348544 164 141 147
-0.20406382 0.28305012 -0.81397849 158 134 137
-0.20558189 0.27892947 -0.81520081 169 144 157
-0.20582648 0.2791656 -0.81561267 165 135 153
-0.20648928 0.27672893 -0.81630832 164 145 142
-0.2054415 0.27650583 -0.81475818 146 124 127
-0.20585471 0.27761129 -0.8154462 169 150 152
-0.20614144 0.27622092 -0.81574243 157 139 135
-0.20580143 0.27714345 -0.81533015 162 143 144
-0.2053728 0.27603567 -0.81461972 138 116 118
-0.20441915 0.27724844 -0.81370318 152 129 137
-0.20467146 0.27800912 -0.81399447 161 138 147
-0.20401222 0.27750322 -0.81330347 153 131 138
-0.20422848 0.27756217 -0.81352812 155 132 140
-0.20357847 0.27894881 -0.81291389 165 141 151
-0.20662928 0.27287981 -0.81634021 164 143 140
-0.2056063 0.2743009 -0.81488663 138 114 116
-0.20630001 0.27497035 -0.8158952 151 132 126
-0.20652422 0.2724109 -0.81618232 163 140 140
-0.2051601 0.2743766 -0.81416804 133 110 112
-0.2053353 0.27428877 -0.81444436 135 112 114
-0.2053843 0.27311271 -0.81440043 145 125 125
-0.20560472 0.27174923 -0.81461626 159 140 139
-0.20503029 0.27272272 -0.81381452 145 126 127
-0.20390064 0.27514172 -0.81305051 132 110 112
-0.20447294 0.27432996 -0.81347036 135 114 115
-0.20395787 0.27401891 -0.81296945 140 120 121
-0.2064568 0.2708101 -0.81582427 168 149 148
-0.20600487 0.27144486 -0.81523162 165 145 144
-0.20637783 0.27049369 -0.81562394 166 148 147
-0.20693213 0.2696619 -0.81633878 170 152 152
-0.20514764 0.26850608 -0.81391418 177 161 164
-0.20717551 0.2679525 -0.81638795 170 155 155
-0.20541269 0.26980466 -0.81419152 166 150 151
-0.20514341 0.2707082 -0.81383526 161 144 144
-0.20530057 0.26834852 -0.81410462 178 161 165
-0.20495263 0.26932597 -0.8137061 172 155 158
-0.20457558 0.26834244 -0.8134495 180 164 167
-0.20479694 0.27083293 -0.81352252 161 144 144
-0.20630255 0.26752651 -0.81533676 178 162 165
-0.20613356 0.26742584 -0.81511885 179 163 166
-0.20752414 0.26536545 -0.81652975 173 156 157
-0.2076543 0.26495549 -0.81663311 172 156 156
-0.20669511 0.26592544 -0.81560016 177 161 163
-0.20534591 0.26679364 -0.81407291 183 166 171
-0.20559074 0.26685575 -0.81438577 182 166 170
-0.2064402 0.26506889 -0.8151648 177 160 164
-0.20585203 0.2661078 -0.8145951 180 164 168
-0.20702146 0.26456562 -0.815808 175 158 160
-0.20599833 0.26544118 -0.81467426 179 162 166
-0.20505796 0.26613435 -0.81362635 183 166 172
-0.20417067 0.26654303 -0.81301844 186 169 174
-0.20415473 0.26598027 -0.81292701 185 168 174
-0.20593843 0.2628648 -0.81424743 175 155 163
-0.20652179 0.26296994 -0.81498092 174 155 160
-0.20535418 0.26222503 -0.81345868 176 154 165
-0.20586997 0.26168236 -0.81404287 173 151 161
-0.20661622 0.26272109 -0.81507283 173 153 159
-0.20752917 0.26310599 -0.8162424 171 153 155
-0.20798919 0.26166886 -0.81657445 165 150 148
-0.20787907 0.26264259 -0.81658685 168 152 152
-0.20812704 0.26137176 -0.81669343 163 150 146
-0.20680644 0.26150936 -0.81515837 169 149 155
-0.20796722 0.26022232 -0.81633747 160 147 144
-0.20799109 0.25770366 -0.81561434 164 150 151
-0.20866637 0.25856149 -0.81663644 162 151 148
-0.20816469 0.25807965 -0.81593239 163 150 149
-0.20749162 0.2584379 -0.81533176 160 146 146
-0.20813158 0.25966799 -0.81643647 158 146 141
-0.2091316 0.24163732 -0.81338042 170 153 162
-0.21023782 0.24135004 -0.81477469 166 149 156
-0.20970209 0.24105084 -0.81393087 171 154 162
-0.20846349 0.24242854 -0.81298518 165 149 158
-0.20866202 0.24184813 -0.81298059 169 153 162
-0.21495476 0.31057015 -0.82976544 154 131 128
-0.21466012 0.31109226 -0.82924324 165 144 135
-0.21627633 0.31163102 -0.83187455 144 129 121
-0.21563649 0.31131521 -0.83083987 151 133 126
-0.21512215 0.3119278 -0.82994878 167 151 137
-0.21495879 0.31206256 -0.82972115 168 152 138
-0.21471301 0.31195387 -0.82936394 168 151 138
-0.21616328 0.30747989 -0.8313213 134 100 114
-0.21535832 0.30725136 -0.83005387 137 101 113
-0.21544702 0.30843997 -0.8303743 134 104 111
-0.21675116 0.30856341 -0.83240658 130 101 112
-0.21629871 0.30858067 -0.83171076 131 102 112
-0.21634364 0.30963778 -0.83194315 130 105 110
-0.21564963 0.30969492 -0.83083272 138 112 115
-0.21603893 0.30993679 -0.83149856 133 109 112
-0.21524772 0.31042799 -0.83023924 149 125 123
-0.21495731 0.31025204 -0.82974303 152 127 126
-0.2150816 0.30937344 -0.82986432 145 117 120
-0.21467443 0.3088893 -0.82914585 149 119 122
-0.21474606 0.31016025 -0.82938552 155 130 128
-0.21680327 0.30539468 -0.83204442 135 105 114
-0.21597186 0.30304256 -0.83057517 134 114 112
-0.21512869 0.30331793 -0.82929188 136 111 117
-0.21641025 0.30386198 -0.83131605 134 111 112
-0.21632069 0.30491504 -0.83125806 136 106 115
-0.21615243 0.30497923 -0.83100271 136 106 116
-0.21613288 0.30404383 -0.83090091 135 110 114
-0.21464279 0.30650282 -0.82883781 140 102 114
-0.21477647 0.3036522 -0.82878256 137 110 117
-0.21563908 0.30593282 -0.83030152 138 103 116
-0.21648753 0.30632448 -0.83162755 137 101 117
-0.21491605 0.3054696 -0.82915968 139 104 115
-0.21590158 0.30652916 -0.83075488 138 101 116
-0.21690522 0.30265719 -0.83206826 133 119 107
-0.21672383 0.30042931 -0.83223706 141 128 111
-0.21667838 0.30215654 -0.83177185 135 120 108
-0.21654958 0.30056089 -0.83192462 141 128 112
-0.21646847 0.30053413 -0.83180505 141 128 113
-0.21639998 0.30163097 -0.83145714 137 122 111
-0.21610299 0.30189645 -0.83093917 137 120 112
-0.21598282 0.30038548 -0.83108658 142 127 116
-0.21469823 0.29903907 -0.82877773 130 105 107
-0.21548925 0.30033049 -0.83020675 139 121 114
-0.21564259 0.30072904 -0.83047646 141 124 116
-0.21474326 0.30070761 -0.82878053 134 110 112
-0.21517618 0.30099761 -0.82958311 138 117 115
-0.21479121 0.30070728 -0.82887101 134 110 112
-0.21644758 0.2977601 -0.83218116 150 134 120
-0.21653596 0.29743817 -0.83236033 152 134 122
-0.21556933 0.29806787 -0.83053321 140 122 115
-0.21459988 0.29733187 -0.82880205 135 109 115
-0.21604525 0.29840803 -0.83138591 143 129 115
-0.21455967 0.29653436 -0.82883251 138 111 119
-0.21474926 0.29743776 -0.82906979 136 111 115
-0.21549089 0.29795703 -0.83040005 140 121 115
-0.21478434 0.28799459 -0.82936585 162 139 140
-0.21454453 0.28749123 -0.82902306 156 136 135
-0.21504228 0.28757098 -0.82978028 163 139 139
-0.21493854 0.28666642 -0.82954603 160 139 138
-0.21464232 0.28621805 -0.82899433 159 140 138
-0.21541914 0.28676596 -0.83030266 166 141 141
-0.21522661 0.28614092 -0.82987064 167 143 142
-0.21567605 0.28109014 -0.83037293 178 154 154
-0.21510641 0.27968478 -0.82898355 183 155 162
-0.2149152 0.28211176 -0.82876384 178 155 154
-0.21556669 0.28120273 -0.83014399 178 154 154
-0.21502566 0.28039664 -0.82886934 181 155 159
-0.2153156 0.27617541 -0.82890093 183 160 158
-0.21515101 0.27814606 -0.82884717 184 158 162
-0.2151356 0.27921718 -0.82896906 185 158 165
-0.21521954 0.27909249 -0.82912248 186 159 165
-0.21745744 0.27177125 -0.83192939 191 166 163
-0.21651664 0.27280468 -0.83021098 178 155 153
-0.21630208 0.27244368 -0.82967752 173 151 149
-0.21651305 0.27233446 -0.8301003 176 153 151
-0.21575896 0.27528504 -0.82950413 184 161 159
-0.21589956 0.27354696 -0.82922488 175 153 151
-0.21587609 0.27225617 -0.82879138 168 146 143
-0.21586797 0.27535397 -0.82971781 185 163 161
-0.21622428 0.27405572 -0.82995367 179 158 157
-0.2172955 0.27015406 -0.83129048 174 151 147
-0.21773745 0.27065089 -0.83228612 187 163 159
-0.21781036 0.26987663 -0.83229297 180 158 154
-0.21704905 0.2707071 -0.83088946 175 151 148
-0.21732806 0.26883817 -0.83128089 171 152 143
-0.21738729 0.26883325 -0.83137292 170 151 143
-0.21736358 0.26881909 -0.83133578 171 152 143
-0.21676965 0.26950461 -0.83042639 177 157 146
-0.21648124 0.26895303 -0.82995474 179 162 148
-0.21657833 0.26935038 -0.83011836 178 160 148
-0.21644136 0.27127212 -0.82979131 174 150 147
-0.21597016 0.26922441 -0.82907766 179 164 151
-0.2157698 0.26981446 -0.8285715 172 156 146
-0.19162725 0.29124534 -0.80453527 136 110 119
-0.19150396 0.29061666 -0.80447584 133 105 116
-0.19225822 0.28767237 -0.80496544 138 102 122
-0.19222532 0.28963453 -0.80493093 141 112 124
-0.19231021 0.2896139 -0.80498385 142 114 125
-0.19129007 0.29003447 -0.80434716 129 98 113
-0.19095539 0.28741363 -0.80418438 124 89 109
-0.19037239 0.28772894 -0.80382723 118 83 103
-0.1906167 0.28891847 -0.80394608 119 83 104
-0.19155377 0.28570309 -0.8046304 128 98 114
-0.19074418 0.28697658 -0.80407226 122 88 107
-0.19076218 0.28657308 -0.804106 122 89 107
-0.19118769 0.28550193 -0.8044222 124 96 110
-0.19024807 0.28344738 -0.8039062 116 90 106
-0.19033904 0.28570205 -0.80389935 116 88 102
-0.19032761 0.28403148 -0.80394036 117 90 105
-0.19064368 0.28473467 -0.80412287 119 92 106
-0.19182235 0.28013706 -0.80472559 116 96 110
-0.1917796 0.28176594 -0.80480337 122 101 112
-0.19222844 0.28035283 -0.80500019 120 101 112
-0.19105077 0.28156942 -0.8043229 116 93 108
-0.19101787 0.28235379 -0.80435246 119 95 109
-0.19061035 0.27976763 -0.80401254 110 85 102
-0.19135219 0.2800931 -0.80445039 114 92 107
-0.19109909 0.27950916 -0.8042922 112 89 104
-0.19237475 0.27898538 -0.80503029 116 96 109
-0.19261475 0.27014795 -0.80482572 115 93 98
-0.19204597 0.26962489 -0.80444765 111 88 96
-0.19241866 0.26681635 -0.80453068 113 89 98
-0.19280368 0.26741856 -0.80482841 119 99 104
-0.19250147 0.26578885 -0.8045038 111 85 96
-0.193279 0.26450771 -0.80490702 116 90 102
-0.19279741 0.26384348 -0.80454868 110 82 96
-0.19200733 0.26448596 -0.80408973 103 74 89
-0.1937148 0.26235205 -0.80495948 117 91 104
-0.19389203 0.26102754 -0.80490786 119 94 107
-0.19355679 0.26177466 -0.80478442 118 92 105
-0.1925095 0.26033327 -0.80392981 113 88 102
-0.19100285 0.26158261 -0.80312353 97 72 87
-0.19221894 0.26062518 -0.80378121 110 85 99
-0.19192208 0.2619895 -0.80376631 105 80 93
-0.19140191 0.2621848 -0.80345905 100 75 89
-0.19233112 0.26157883 -0.80397558 110 84 98
-0.19296323 0.26193178 -0.80442327 115 88 102
-0.19159608 0.26324877 -0.8037169 100 74 88
-0.1926856 0.26342028 -0.80443364 109 82 96
-0.19398804 0.2596674 -0.80479425 122 98 111
-0.19377442 0.25898477 -0.80453777 122 97 111
-0.19415286 0.25635481 -0.80431342 112 87 103
-0.19377749 0.25881624 -0.80450928 121 96 110
-0.19069771 0.25621679 -0.80207711 93 72 85
-0.19229357 0.25602055 -0.80305088 99 76 90
-0.19163549 0.25605646 -0.80264199 97 74 88
-0.19190313 0.25961611 -0.80343324 107 81 97
-0.19210334 0.25905249 -0.80346084 106 81 96
-0.19301182 0.25892439 -0.80402589 115 90 104
-0.19243816 0.25934589 -0.80373079 111 86 101
-0.19499502 0.25519761 -0.8045994 117 92 108
-0.19535749 0.25483397 -0.80473912 120 96 110
-0.19496523 0.25564304 -0.80470365 117 91 108
-0.1954212 0.25544292 -0.80495101 121 95 111
-0.19546282 0.25263581 -0.80428165 122 99 110
-0.19397436 0.25298941 -0.80349189 109 86 98
-0.19612195 0.25212643 -0.80456263 128 105 116
-0.19482242 0.25271195 -0.80392706 117 94 105
-0.19352102 0.25554553 -0.80372834 105 80 96
-0.19181305 0.25288594 -0.80214411 98 76 88
-0.19290231 0.25223896 -0.80270332 103 80 91
-0.19081283 0.25375798 -0.80168396 94 74 85
-0.19270062 0.25545594 -0.80320251 101 77 92
-0.19101793 0.2556968 -0.80218881 95 74 86
-0.19222683 0.25566575 -0.80294472 99 76 90
-0.19233261 0.25394514 -0.8026762 100 78 90
-0.19237629 0.25357568 -0.80263174 101 78 90
-0.1921442 0.25482759 -0.80272931 99 77 90
-0.19087549 0.25545096 -0.80205113 95 74 85
-0.19743128 0.24871567 -0.80473846 139 122 122
-0.19707385 0.25152734 -0.80500829 136 115 124
-0.19652371 0.25027677 -0.80447245 132 113 118
-0.1964142 0.24925725 -0.80422968 132 114 116
-0.19690581 0.24927412 -0.80451733 136 119 120
-0.1972215 0.25081068 -0.80497038 138 118 125
-0.19687897 0.25019902 -0.80466449 135 116 121
-0.19607177 0.24866949 -0.80393934 129 112 113
-0.19458623 0.24836361 -0.80306077 116 97 103
-0.19411118 0.24968858 -0.80300206 112 91 99
-0.1961005 0.24810545 -0.80386734 129 113 114
-0.19456737 0.24868731 -0.80310076 116 97 103
-0.1934339 0.24939635 -0.80257767 106 85 95
-0.19331308 0.24950807 -0.80252427 105 84 94
-0.19245206 0.24886523 -0.80188137 101 80 90
-0.19285846 0.24905467 -0.802167 103 82 92
-0.1917052 0.24951035 -0.8015129 97 76 87
-0.19270675 0.25061545 -0.80231524 102 79 90
-0.19179976 0.24874033 -0.80145103 98 76 87
-0.19828048 0.24635708 -0.8049292 137 122 120
-0.19728082 0.24646267 -0.80436867 141 126 125
-0.19752206 0.24615379 -0.80446887 140 125 125
-0.19805363 0.2446187 -0.804609 139 124 125
-0.19587642 0.24451482 -0.80333591 129 111 117
-0.19357045 0.24574314 -0.80209386 106 84 96
-0.1953638 0.24470301 -0.80304646 123 105 112
-0.19530155 0.24556765 -0.80314386 123 105 112
-0.1955196 0.2458486 -0.80332381 126 109 115
-0.19364706 0.2451752 -0.80205214 106 84 96
-0.19420405 0.24789579 -0.80278331 113 94 101
-0.19458951 0.24691717 -0.80290675 117 99 106
-0.19458234 0.24709822 -0.80291975 117 98 106
-0.19555655 0.2471357 -0.80346811 125 108 112
-0.19521412 0.24790038 -0.80334866 122 104 108
-0.1966303 0.24765453 -0.8041175 134 118 118
-0.19332083 0.24530207 -0.80186909 103 80 93
-0.19282334 0.24709898 -0.80184025 102 81 92
-0.19218566 0.24699378 -0.80142218 99 77 88
-0.19325003 0.2477309 -0.80220723 105 84 95
-0.19947056 0.24108349 -0.80502254 147 130 134
-0.19921361 0.24294366 -0.80506778 140 124 126
-0.19849984 0.24289946 -0.804681 143 127 130
-0.19815782 0.24198437 -0.80435115 142 126 130
-0.19845124 0.24083066 -0.80434245 140 123 128
-0.19736691 0.24261697 -0.80394226 137 122 126
-0.19802804 0.24146697 -0.80417567 139 122 127
-0.19372499 0.24130479 -0.80148995 98 71 90
-0.19391063 0.24061409 -0.80149454 98 71 90
-0.19406369 0.24197051 -0.80179781 103 78 94
-0.19378182 0.24282295 -0.80176026 103 78 93
-0.19349113 0.24141572 -0.80136609 97 69 88
-0.19409306 0.24294423 -0.80196685 106 83 96
-0.19529401 0.24317186 -0.80274534 118 99 108
-0.19685805 0.24142081 -0.80341321 127 111 116
-0.19351813 0.24413812 -0.8018086 104 80 94
-0.19718201 0.24197176 -0.80371106 133 117 121
-0.19649923 0.24154055 -0.80321079 124 107 113
-0.1970007 0.24068409 -0.8033734 126 109 115
-0.19629385 0.24211749 -0.80318362 124 107 113
-0.19308594 0.24294305 -0.80135477 98 72 88
-0.19987868 0.23903275 -0.80501914 140 123 127
-0.19990046 0.23756139 -0.80484176 128 111 113
-0.19849744 0.23957364 -0.80418259 132 115 120
-0.20031677 0.23718502 -0.80506611 128 111 113
-0.19728172 0.23968907 -0.80338722 125 108 113
-0.19388151 0.23928416 -0.80124712 96 67 86
-0.19524375 0.23963678 -0.80213243 108 85 98
-0.19467798 0.23953767 -0.80177325 103 78 93
-0.19445831 0.23994271 -0.80171353 102 75 92
-0.19436909 0.23831739 -0.80136746 99 72 87
-0.21151209 0.31050542 -0.82427883 157 136 134
-0.2114816 0.31003132 -0.8242079 153 128 130
-0.21174313 0.30915096 -0.8244493 144 114 121
-0.21179569 0.30797049 -0.82442343 134 95 111
-0.20954438 0.30712011 -0.82168722 156 125 129
-0.21099272 0.30731228 -0.82342488 137 95 112
-0.21027584 0.30693957 -0.82254082 146 110 120
-0.2096837 0.30722484 -0.8218618 154 122 127
-0.21182038 0.30683026 -0.82436675 125 78 101
-0.21104841 0.30617106 -0.82333928 131 89 107
-0.20981853 0.30578142 -0.82180011 145 110 119
-0.2104629 0.30663425 -0.82273597 143 106 117
-0.21012059 0.30616659 -0.82223594 144 108 118
-0.21054818 0.3050454 -0.82252026 129 87 105
-0.21110149 0.30575925 -0.82332021 127 83 104
-0.20948114 0.30332536 -0.82090908 130 90 107
-0.21074378 0.30443364 -0.82268387 124 80 101
-0.21019657 0.30318999 -0.8218658 124 84 103
-0.21158618 0.30547681 -0.82393175 122 77 100
-0.2117331 0.3027958 -0.82411182 117 87 102
-0.21194796 0.30528298 -0.82445925 120 78 100
-0.21181124 0.3035838 -0.82423663 118 84 101
-0.21044597 0.30362889 -0.82223696 124 82 102
-0.21098086 0.29943839 -0.82300943 136 103 112
-0.21091235 0.30040014 -0.82289517 132 100 112
-0.21158963 0.3012988 -0.82390076 124 94 106
-0.2104881 0.29989195 -0.82226455 136 103 115
-0.21192674 0.29936391 -0.82442963 131 100 107
-0.21151735 0.29982641 -0.8238098 131 100 108
-0.21158054 0.30128667 -0.82388729 124 94 106
-0.20953819 0.3014836 -0.82088023 132 93 109
-0.20980951 0.30163068 -0.82127953 131 92 109
-0.21051335 0.30181307 -0.82231289 127 92 107
-0.21116672 0.30191416 -0.82327133 123 92 106
-0.20993847 0.30075833 -0.82145798 134 98 113
-0.21040845 0.30250362 -0.82216746 124 87 104
-0.21017639 0.30269623 -0.8218298 124 86 103
-0.21097051 0.29564521 -0.82338333 155 119 138
-0.21080203 0.29633677 -0.823035 153 121 135
-0.2109829 0.29522282 -0.82345748 156 119 141
-0.21081232 0.29663086 -0.82301235 152 121 133
-0.21085425 0.29528767 -0.82325196 157 121 142
-0.21095288 0.29664189 -0.82322621 151 119 131
-0.20943418 0.29581958 -0.82101941 165 137 149
-0.20930155 0.29529652 -0.82087666 169 142 154
-0.2096822 0.297741 -0.82118487 152 119 131
-0.21163364 0.29832 -0.82405084 138 107 113
-0.2109933 0.29744673 -0.82318395 147 117 125
-0.21122345 0.29873118 -0.82339114 138 105 112
-0.21017203 0.29247141 -0.82222199 177 146 160
-0.21013992 0.29240313 -0.82217145 177 147 161
-0.21062773 0.2942749 -0.82294464 164 129 149
-0.20939539 0.29414171 -0.82105535 175 147 160
-0.20966196 0.29344094 -0.82145482 176 147 161
-0.20925194 0.29450771 -0.82084018 174 147 160
-0.21039635 0.29438996 -0.82259166 165 131 151
-0.209572 0.29178953 -0.82129633 185 158 169
-0.21003979 0.28737956 -0.82216209 179 159 164
-0.2093107 0.29028311 -0.82092744 191 168 174
-0.20946464 0.2887097 -0.82126886 190 168 174
-0.21010806 0.28809458 -0.8221969 176 155 161
-0.20999692 0.28931752 -0.82194316 177 155 161
-0.20917445 0.28982738 -0.82077998 195 172 178
-0.21028602 0.28923219 -0.82234418 170 148 154
-0.21153636 0.28950623 -0.82418871 152 126 129
-0.21086046 0.28897908 -0.82318491 160 138 142
-0.20948318 0.29062125 -0.82113743 187 163 170
-0.21015762 0.29070815 -0.82213944 177 151 156
-0.21148524 0.28812727 -0.82411385 147 126 130
-0.20997639 0.29099035 -0.82186991 181 154 160
-0.20917721 0.28484005 -0.8207047 196 180 182
-0.21024971 0.28529826 -0.82222861 172 156 158
-0.21017984 0.28490409 -0.82208151 173 158 159
-0.21104267 0.28645474 -0.82346362 155 137 141
-0.21017843 0.28658339 -0.82229906 175 157 161
-0.21070714 0.2859675 -0.8229413 163 145 148
-0.21107467 0.28664351 -0.82353204 155 137 140
-0.21058448 0.28564766 -0.82273179 165 148 150
-0.21091393 0.28394988 -0.8231951 171 152 154
-0.21063638 0.28320378 -0.82276005 179 161 162
-0.21118777 0.28320488 -0.82363093 175 154 156
-0.21157111 0.28620771 -0.82422304 148 129 132
-0.2105457 0.28369263 -0.82261467 176 159 160
-0.21125977 0.28407893 -0.82374078 167 147 150
-0.21053974 0.27950013 -0.82193953 188 160 166
-0.21184754 0.28081501 -0.82436413 178 149 152
-0.21144615 0.28059012 -0.82364351 180 153 156
-0.21105993 0.28093505 -0.82302409 181 154 159
-0.21124986 0.27972203 -0.82319123 184 155 159
-0.21182589 0.28062195 -0.82430142 178 150 152
-0.210008 0.28119639 -0.8213594 188 166 170
-0.21062598 0.28206635 -0.82251245 181 159 163
-0.21090584 0.28219166 -0.82297999 179 156 160
-0.20967101 0.28289992 -0.82117367 188 174 173
-0.21114586 0.28286928 -0.82349688 176 154 157
-0.20992923 0.28245938 -0.8214919 187 169 170
-0.21135519 0.27715003 -0.82302934 186 161 163
-0.21197166 0.27554187 -0.82365108 186 166 163
-0.21165833 0.27697399 -0.82345819 185 161 161
-0.21171094 0.27577263 -0.8232981 186 166 164
-0.21220066 0.27783316 -0.82446069 183 156 155
-0.21200098 0.27786034 -0.8241604 183 157 156
-0.21104859 0.27824932 -0.82268298 187 160 163
-0.21066599 0.27685454 -0.82188356 189 165 169
-0.21027084 0.27892214 -0.82141203 191 163 169
-0.21016839 0.27570215 -0.82091069 192 170 175
-0.21102965 0.27926114 -0.82275248 187 158 162
-0.2110955 0.27824274 -0.82276309 187 159 163
-0.21235304 0.27174556 -0.82410735 183 168 157
-0.21103512 0.27151167 -0.82215828 186 167 166
-0.21233219 0.27212727 -0.82408839 183 168 158
-0.21250007 0.27360493 -0.82438147 183 167 158
-0.21193533 0.27423945 -0.823569 185 166 163
-0.21195835 0.27157596 -0.82352054 184 168 160
-0.21239412 0.27171326 -0.82416689 183 168 157
-0.21088445 0.27312621 -0.82197213 187 167 169
-0.21112603 0.27464956 -0.82233137 188 168 169
-0.21074001 0.2733109 -0.82174969 188 167 170
-0.21177192 0.27417248 -0.82332367 185 166 164
-0.21045645 0.2748169 -0.82130492 191 170 173
-0.21028669 0.27384511 -0.82105184 190 169 173
-0.21279153 0.26813173 -0.82431942 189 159 161
-0.21191932 0.2680929 -0.82296652 187 160 163
-0.21238545 0.27078775 -0.82403457 183 167 157
-0.21223846 0.26881987 -0.82355422 187 162 161
-0.21220799 0.26949129 -0.82359344 185 163 160
-0.21109986 0.2704055 -0.82206976 186 165 165
-0.21163967 0.27109817 -0.82298267 185 167 162
-0.21062356 0.26820669 -0.82099473 186 160 168
-0.21090943 0.27143776 -0.82196438 187 167 167
-0.2106265 0.2707355 -0.82142836 187 165 168
-0.21160759 0.27023929 -0.82278961 184 165 162
-0.21299689 0.26681715 -0.82444119 187 158 159
-0.21183687 0.26455238 -0.82253516 177 153 152
-0.21204229 0.26439542 -0.82280356 177 153 150
-0.21149331 0.26480162 -0.82208449 178 153 154
-0.21239936 0.26492354 -0.82337224 179 154 151
-0.21164359 0.26475042 -0.82228899 178 154 153
-0.21120219 0.26415297 -0.82159305 175 153 152
-0.21076871 0.26539287 -0.82102281 179 154 159
-0.21059866 0.26656574 -0.82081294 182 157 164
-0.21081677 0.26560199 -0.82110649 179 155 160
-0.21140456 0.26538157 -0.82200491 180 154 157
-0.21055844 0.26657504 -0.82075119 182 157 164
-0.2107088 0.26748663 -0.82102466 186 158 168
-0.21400698 0.26073378 -0.82456517 176 153 156
-0.21336041 0.2611199 -0.82381272 174 150 152
-0.21359742 0.26043585 -0.82393736 174 150 155
-0.21331985 0.26225072 -0.82407689 175 152 149
-0.21260001 0.26245978 -0.82317483 172 149 144
-0.21256807 0.26353765 -0.82341582 174 153 144
-0.21134058 0.26327738 -0.8216269 172 150 149
-0.2142366 0.25896445 -0.82444185 166 140 151
-0.21899407 0.31667963 -0.83485454 154 142 131
-0.21856405 0.31647208 -0.8342343 157 147 133
-0.21836841 0.31563145 -0.83529788 160 150 134
-0.21808852 0.31506634 -0.83596438 163 154 135
-0.21788017 0.31501243 -0.83538592 164 156 136
-0.21735582 0.31294325 -0.83471012 163 156 135
-0.21776854 0.31183094 -0.83582848 159 147 132
-0.21729743 0.312307 -0.83449554 157 149 131
-0.21704499 0.31232738 -0.83387613 153 143 127
-0.21742114 0.31129068 -0.83483291 150 136 126
-0.21734241 0.31129941 -0.83463961 149 134 124
-0.21726808 0.31100446 -0.83446735 144 128 121
-0.21669526 0.31184047 -0.83289075 142 128 119
-0.21679941 0.309461 -0.83291805 131 106 112
-0.2175495 0.30938774 -0.83479947 146 123 124
-0.21723734 0.30822676 -0.8336609 141 112 121
-0.2173949 0.31006721 -0.83463913 143 122 120
-0.21707064 0.30865303 -0.83338946 137 110 118
-0.21776535 0.30788469 -0.83473229 147 114 125
-0.21825027 0.30803502 -0.83586538 153 118 129
-0.21783638 0.30912551 -0.83536935 150 125 127
-0.21799274 0.30715227 -0.83495337 149 109 126
-0.21729623 0.30721849 -0.83343488 141 106 121
-0.21795288 0.30672541 -0.83469999 148 105 125
-0.21807021 0.30416012 -0.83514225 144 112 119
-0.21768416 0.3034735 -0.83411968 140 116 114
-0.2180874 0.30410591 -0.83521825 144 112 118
-0.21841696 0.30534115 -0.83585793 150 110 124
-0.21818769 0.30342558 -0.83579242 142 110 117
-0.21704112 0.30462033 -0.83247763 136 111 113
-0.21734726 0.30626246 -0.83329326 141 104 120
-0.21758872 0.30612251 -0.83381683 143 106 121
-0.21729307 0.30635446 -0.83318079 140 103 120
-0.21704169 0.30518988 -0.83252639 136 108 115
-0.21841657 0.30603582 -0.83564478 152 110 127
-0.21741059 0.29886553 -0.8357265 131 106 104
-0.21696368 0.29937646 -0.83370036 138 121 108
-0.21692972 0.30034402 -0.832941 138 124 108
-0.21694385 0.30056101 -0.83289325 138 124 108
-0.2170168 0.30153167 -0.83272016 136 122 108
-0.2173769 0.29945084 -0.83523691 131 108 104
-0.21724655 0.30253774 -0.83306372 135 119 109
-0.21772605 0.30208871 -0.83490831 136 112 110
-0.21788159 0.30165476 -0.83567864 136 108 110
-0.21772094 0.30250511 -0.83464295 137 114 111
-0.21762258 0.30200547 -0.83461779 136 113 110
-0.21708889 0.29810256 -0.83477038 135 111 109
-0.21704634 0.29682171 -0.83497411 135 103 112
-0.21698715 0.29782608 -0.83447254 137 112 110
-0.21698552 0.29848978 -0.83427954 137 117 109
-0.21700586 0.29604924 -0.83503813 136 98 114
-0.21717869 0.29543537 -0.83585268 132 88 114
-0.21700938 0.29617736 -0.83501565 136 99 114
-0.21674719 0.29522866 -0.8341561 145 103 121
-0.21658562 0.2956875 -0.83295268 156 124 127
-0.21675935 0.29645517 -0.83389646 144 111 117
-0.21655612 0.29607278 -0.83265567 157 129 128
-0.21665245 0.29788586 -0.83282024 148 131 118
-0.21724339 0.29469535 -0.83610326 132 83 115
-0.21746753 0.29371232 -0.83602333 138 92 118
-0.21740118 0.29342258 -0.83564156 141 94 119
-0.21678016 0.29425618 -0.83406383 146 101 122
-0.21651335 0.29484001 -0.83263522 161 126 133
-0.21661945 0.29403299 -0.83286047 158 119 130
-0.21811417 0.27190611 -0.83313763 188 164 160
-0.21776417 0.27155066 -0.83248562 194 169 166
-0.21844767 0.27120259 -0.83377755 185 164 156
-0.21844316 0.26937845 -0.83344823 171 154 145
-0.21841048 0.27137983 -0.833736 186 165 157
-0.20159662 0.31193832 -0.81063968 136 97 118
-0.20193389 0.31055763 -0.81123668 154 115 129
-0.20165884 0.31222045 -0.81067926 134 96 117
-0.20225072 0.31220445 -0.8114109 143 109 127
-0.20302582 0.30949873 -0.81258589 162 132 140
-0.20257206 0.31050733 -0.81202465 163 129 139
-0.2017232 0.30996808 -0.81097943 147 108 122
-0.20315738 0.30940521 -0.81274819 164 134 141
-0.20135143 0.30803123 -0.81027675 132 93 114
-0.20167656 0.30719051 -0.81065226 131 95 115
-0.20140903 0.30785877 -0.81034064 131 93 114
-0.20178306 0.30747041 -0.81083745 134 98 116
-0.20206416 0.30838886 -0.81134617 142 107 120
-0.20111603 0.3086012 -0.810045 133 92 114
-0.20102371 0.30810308 -0.80992943 130 91 114
-0.20077541 0.30938256 -0.80991155 138 97 117
-0.20289512 0.3045314 -0.81218636 148 122 127
-0.2016211 0.30634508 -0.81048763 128 93 114
-0.20187363 0.30603284 -0.81082803 132 99 117
-0.20215365 0.30642453 -0.81126308 134 102 118
-0.20323536 0.3056803 -0.81276745 149 123 127
-0.20225744 0.30650613 -0.81141931 135 104 118
-0.20167997 0.30499673 -0.81046587 127 95 112
-0.20286688 0.30318964 -0.81203973 148 123 126
-0.20166601 0.30555481 -0.81049037 129 96 115
-0.20285469 0.30007654 -0.81187916 142 111 119
-0.20255435 0.30094188 -0.81147891 137 107 115
-0.20245332 0.30153045 -0.81135619 136 107 114
-0.20222491 0.30114856 -0.81101012 130 99 109
-0.20333076 0.3020187 -0.81264627 155 132 132
-0.20309044 0.30230194 -0.81230962 150 127 127
-0.20184302 0.30039465 -0.8106516 124 93 108
-0.20173314 0.29911301 -0.81070244 124 92 113
-0.20189901 0.29887676 -0.81092745 127 95 115
-0.20205361 0.30003199 -0.81094599 128 97 112
-0.2033506 0.29885045 -0.81261289 152 121 129
-0.20271893 0.29759738 -0.81190425 145 118 131
-0.20228894 0.29819855 -0.8113963 136 107 123
-0.20262089 0.29802254 -0.81178373 142 114 127
-0.20279874 0.29193342 -0.81228596 166 143 151
-0.20303349 0.29121852 -0.81261098 177 154 160
-0.20004214 0.29198331 -0.80957693 126 95 104
-0.20280583 0.28993139 -0.81242263 168 145 148
-0.2030481 0.28865793 -0.81282371 169 149 150
-0.20289798 0.28924724 -0.8125909 168 146 148
-0.20306742 0.2898064 -0.81275719 175 153 155
-0.20204741 0.28957188 -0.81150949 147 119 123
-0.20170312 0.28734562 -0.81113678 133 111 120
-0.20253551 0.28810695 -0.81223077 153 131 132
-0.20234118 0.28838563 -0.81196111 150 126 128
-0.20151526 0.28796551 -0.81086516 130 106 116
-0.20023365 0.28926727 -0.80976099 126 97 106
-0.20101963 0.28856003 -0.81028783 124 97 109
-0.20006746 0.28804928 -0.80969226 123 99 109
-0.20043516 0.28944051 -0.80988497 126 97 106
-0.19965534 0.28880912 -0.80941147 126 99 107
-0.20035131 0.29046127 -0.80981493 130 98 104
-0.20168297 0.28645483 -0.81112325 129 107 118
-0.20295714 0.28694445 -0.81282961 160 141 140
-0.2025193 0.28548792 -0.8122552 144 121 127
-0.2026055 0.28577587 -0.81236827 147 125 129
-0.20192596 0.28411773 -0.81155574 132 101 115
-0.20139022 0.28423792 -0.81089979 126 92 110
-0.2013554 0.28331867 -0.81092334 126 87 108
-0.20159246 0.285265 -0.8110708 127 99 114
-0.19974412 0.28453475 -0.80975914 124 97 111
-0.20052536 0.28389022 -0.81027335 124 90 108
-0.20105539 0.28487572 -0.81052065 123 91 109
-0.19961232 0.28386295 -0.80972815 125 95 110
-0.1989024 0.28605494 -0.80908197 123 100 110
-0.19894263 0.28540105 -0.80917525 124 100 110
-0.19933541 0.28551927 -0.80941534 123 99 111
-0.19956648 0.28630546 -0.80948269 122 100 111
-0.20278412 0.2831198 -0.81264341 143 114 122
-0.20243672 0.28116649 -0.8118816 148 116 132
-0.20208633 0.28223947 -0.8116461 139 105 121
-0.20249221 0.28256336 -0.81219321 142 111 123
-0.20128921 0.28288648 -0.81080699 126 87 108
-0.2019427 0.28028136 -0.81127429 135 106 117
-0.20165199 0.27966443 -0.81091094 126 100 108
-0.20122814 0.28096473 -0.81057376 120 88 101
-0.20250989 0.28084752 -0.81192744 149 118 133
-0.19986857 0.27982968 -0.80968457 122 96 101
-0.2002337 0.28019369 -0.80992097 121 93 101
-0.20030963 0.28118742 -0.81005055 124 91 104
-0.2004316 0.28298777 -0.81025279 125 88 107
-0.19902189 0.28248298 -0.80937624 126 97 108
-0.20020367 0.28256783 -0.81008983 125 90 107
-0.19998972 0.28148577 -0.80989367 125 93 106
-0.2028158 0.27731118 -0.81203711 131 108 112
-0.20309064 0.27713633 -0.8123225 136 113 117
-0.20260113 0.27832118 -0.81184942 137 113 119
-0.20365167 0.27633676 -0.81288725 140 118 122
-0.20271656 0.27831268 -0.8119719 140 116 122
-0.20232852 0.27659634 -0.81147945 122 99 101
-0.2014773 0.27689511 -0.81057405 116 93 94
-0.201479 0.27611879 -0.81053573 115 94 93
-0.20163748 0.27673516 -0.81073904 117 95 95
-0.20177796 0.27798593 -0.8109557 118 95 98
-0.20071501 0.27645248 -0.80993629 114 92 92
-0.2007664 0.27812433 -0.81005478 115 90 94
-0.20076045 0.27611965 -0.80994737 114 92 91
-0.19956091 0.27770358 -0.8093347 119 95 97
-0.1999187 0.27890807 -0.80963409 120 96 99
-0.19977772 0.27810553 -0.80948919 119 95 97
-0.19903116 0.27768141 -0.80903614 121 98 100
-0.20268276 0.27508241 -0.81175655 126 105 105
-0.20369522 0.27383599 -0.81267512 140 121 121
-0.20296028 0.27457276 -0.81198454 131 111 110
-0.20332296 0.27389759 -0.81228113 137 118 117
-0.20353189 0.27405161 -0.81252903 138 118 118
-0.20189805 0.27231163 -0.8106339 130 111 109
-0.20266329 0.27294734 -0.81146181 136 118 116
-0.20289674 0.27296779 -0.81169939 139 121 119
-0.20229 0.27346247 -0.81112909 131 112 110
-0.20143163 0.27162173 -0.81010312 127 107 106
-0.20199634 0.2731804 -0.81080812 128 109 107
-0.20017079 0.27244437 -0.80933899 125 106 102
-0.2007789 0.27391055 -0.80981338 118 99 96
-0.19986373 0.2721121 -0.80913121 127 108 104
-0.20019928 0.2736252 -0.80944175 121 101 98
-0.20066981 0.2743423 -0.80978286 117 97 94
-0.20389313 0.27085224 -0.81264138 160 143 142
-0.20245232 0.27005678 -0.81126565 151 133 134
-0.20270836 0.27103034 -0.81142664 145 127 126
-0.20346063 0.2686469 -0.81242573 175 158 160
-0.2034127 0.27046889 -0.81219447 158 141 141
-0.20328386 0.26859799 -0.8122521 174 156 159
-0.20247121 0.26889378 -0.81136459 159 140 142
-0.20281504 0.26857769 -0.81175423 166 148 151
-0.20132643 0.26884407 -0.81011719 139 117 120
-0.20119025 0.27138805 -0.80985326 125 105 104
-0.20172366 0.27041823 -0.81047946 139 119 120
-0.20078741 0.2691741 -0.80970359 135 114 116
-0.2007449 0.27015215 -0.80963379 131 110 111
-0.20092328 0.26808465 -0.80983424 140 117 121
-0.19989182 0.26968884 -0.80915731 136 115 116
-0.2008834 0.27140722 -0.80966651 126 106 104
-0.20014471 0.26950103 -0.80930835 136 114 116
-0.20418979 0.26504841 -0.81279397 182 165 172
-0.20326391 0.26709953 -0.81219375 176 158 163
-0.20296879 0.26602262 -0.81165612 166 146 152
-0.2030613 0.26624486 -0.81180155 168 149 155
-0.20165984 0.26742211 -0.81050736 149 127 132
-0.20393959 0.26682806 -0.81287694 187 170 175
-0.20372608 0.26453117 -0.81219715 171 152 160
-0.2041771 0.26391336 -0.81258142 176 158 167
-0.20225497 0.26494581 -0.81089079 147 126 134
-0.20141219 0.26379365 -0.8100965 125 103 114
-0.20189597 0.26547697 -0.81058621 143 121 129
-0.20159021 0.26676035 -0.81035429 145 122 128
-0.20111142 0.26478457 -0.80987573 126 104 113
-0.2011193 0.26655671 -0.80993921 136 113 120
-0.20059735 0.26723513 -0.8096472 141 119 124
-0.20069005 0.26745808 -0.80971241 142 119 124
-0.20035537 0.26749852 -0.80951387 143 120 125
-0.20225847 0.2633644 -0.81081086 138 117 127
-0.20452701 0.2621685 -0.81268716 174 152 164
-0.20369886 0.26332521 -0.81209815 164 145 155
-0.20453909 0.26230383 -0.81271601 175 153 165
-0.20250434 0.26251823 -0.81091881 138 115 127
-0.20288818 0.26240316 -0.81124789 145 122 134
-0.20283647 0.26130068 -0.81105447 146 123 134
-0.20118742 0.26241484 -0.80971903 128 107 115
-0.20406377 0.26062548 -0.81206948 159 133 148
-0.20163198 0.26211265 -0.8100788 133 111 120
-0.2016968 0.26022246 -0.80987883 145 125 130
-0.20354931 0.26035413 -0.8115682 157 133 145
-0.20153593 0.26063925 -0.80979067 141 121 127
-0.20287326 0.26175687 -0.81115007 144 120 132
-0.20091733 0.2607941 -0.80932534 137 118 124
-0.20025265 0.26274464 -0.80917418 131 110 118
-0.20060059 0.26068312 -0.80911261 139 120 125
-0.2013379 0.25859642 -0.80915105 136 117 120
-0.20289178 0.25709298 -0.81008369 140 122 125
-0.20192052 0.25616637 -0.80903405 119 98 101
-0.20275688 0.25815055 -0.81024534 149 131 135
-0.20264781 0.25657767 -0.8097468 132 113 116
-0.20298485 0.25677636 -0.81007916 138 120 123
-0.20267686 0.25791386 -0.8101173 145 127 131
-0.20170264 0.25955668 -0.80975306 147 128 132
-0.20281276 0.25886074 -0.81052649 152 132 138
-0.20098133 0.2594659 -0.80912298 142 124 127
-0.20434617 0.25367936 -0.8105678 145 128 131
-0.20444503 0.25365427 -0.81064224 145 127 130
-0.20489098 0.25239947 -0.81075215 136 116 119
-0.20293692 0.25197724 -0.80910027 140 122 123
-0.20218299 0.25565794 -0.80913705 120 99 102
-0.20308986 0.25311729 -0.80943644 140 122 124
-0.20265719 0.25345755 -0.80913693 134 115 117
-0.20272222 0.25393426 -0.80927682 133 114 116
-0.2035117 0.25424424 -0.80999047 142 124 127
-0.20249736 0.25427392 -0.8091504 129 109 112
-0.20550697 0.25136426 -0.81128263 141 121 126
-0.20576783 0.25132567 -0.81161582 148 129 134
-0.20537028 0.25018057 -0.81090873 142 122 128
-0.20557725 0.25036028 -0.81121314 143 123 129
-0.20537965 0.24973322 -0.81084722 144 124 130
-0.20523252 0.25020429 -0.81072986 141 121 126
-0.20460828 0.24916455 -0.80999398 145 125 131
-0.2045525 0.24982995 -0.81006151 143 123 128
-0.20339952 0.24969348 -0.80912787 147 128 132
-0.20344518 0.25191003 -0.809497 138 120 121
-0.20352073 0.25166124 -0.8095203 139 120 122
-0.20376298 0.25067815 -0.80956727 142 123 126
-0.20596728 0.24735682 -0.81120086 153 133 142
-0.20543008 0.24796242 -0.81061715 151 131 140
-0.20521042 0.245765 -0.81004208 170 152 159
-0.20562945 0.24441476 -0.81037563 178 162 168
-0.20459194 0.24587058 -0.80951083 168 151 157
-0.20487396 0.24548376 -0.80968642 173 157 162
-0.20450191 0.24760273 -0.80966955 154 134 142
-0.20442286 0.24792421 -0.80965143 151 131 139
-0.20786184 0.24263479 -0.81238252 169 153 161
-0.20699328 0.24342293 -0.81167334 172 156 163
-0.20701461 0.2429281 -0.81149095 177 161 168
-0.20718579 0.24350379 -0.81193793 168 153 160
-0.20534079 0.24391285 -0.80989987 187 172 177
-0.2083334 0.24117412 -0.81233877 179 163 171
-0.2052433 0.24387237 -0.80979365 187 172 177
-0.20644461 0.24111077 -0.81047499 188 173 178
-0.20614153 0.2403762 -0.8100602 190 176 180
-0.20682706 0.2423346 -0.81104875 184 169 175
-0.20817395 0.24055186 -0.8120355 182 166 174
-0.20662443 0.24078953 -0.81059259 188 173 178
-0.20665038 0.24157581 -0.81075084 186 171 177
-0.20624174 0.2413304 -0.81031805 188 173 178
-0.20505379 0.24206804 -0.8093105 191 177 180
-0.20568223 0.23834036 -0.80940974 162 145 151
-0.205983 0.23880701 -0.80972284 170 155 159
-0.20625377 0.23891954 -0.80997896 173 158 161
-0.20747265 0.23910846 -0.8111639 171 156 161
-0.20738059 0.23868589 -0.81102079 166 151 155
-0.20788148 0.23951462 -0.81160808 175 159 165
-0.20848587 0.23937976 -0.81216908 170 155 162
-0.21347658 0.30982402 -0.82742572 160 134 130
-0.21360157 0.30886453 -0.82752514 154 124 124
-0.21408898 0.31020519 -0.8283332 164 138 134
-0.21319431 0.30972499 -0.82701242 158 133 128
-0.21304177 0.30810145 -0.82660282 140 102 113
-0.21395893 0.30681953 -0.82783854 137 96 111
-0.21310446 0.3093524 -0.82683599 154 125 124
-0.21238565 0.30775985 -0.82538748 134 93 108
-0.21224186 0.30721486 -0.82505637 128 84 103
-0.21279822 0.30777213 -0.82616514 135 94 108
-0.21197695 0.30971703 -0.8248564 149 124 126
-0.21199945 0.30990753 -0.82492042 151 127 128
-0.21198367 0.30833298 -0.82470661 137 101 114
-0.21406886 0.30608302 -0.82793385 136 96 110
-0.2141002 0.30512258 -0.82789493 134 98 111
-0.21352319 0.30551946 -0.82706344 129 88 105
-0.21376765 0.30499279 -0.82738358 130 93 108
-0.21347415 0.30498797 -0.82694954 127 88 105
-0.21357583 0.30274203 -0.8269425 124 98 109
-0.21344925 0.30491605 -0.82690829 127 88 105
-0.21311609 0.30577502 -0.82648218 124 81 101
-0.21313667 0.30596232 -0.82652509 125 80 101
-0.21254362 0.30347311 -0.82542813 117 85 102
-0.21265909 0.3040401 -0.82565582 119 84 101
-0.21269749 0.30392566 -0.82571054 118 84 102
-0.21221898 0.30491742 -0.82492048 119 80 100
-0.21259442 0.30625144 -0.82564938 122 76 99
-0.21217194 0.30384052 -0.82481378 117 84 101
-0.21426789 0.30265155 -0.82795358 132 107 114
-0.2143762 0.30176213 -0.82814527 132 107 112
-0.21432139 0.29948977 -0.82815188 127 101 106
-0.21429618 0.29980248 -0.82810324 127 101 106
-0.21379815 0.30201241 -0.8272934 126 99 109
-0.21355578 0.29975319 -0.82703978 122 96 101
-0.21384728 0.30032647 -0.82743067 123 97 104
-0.21294308 0.30016208 -0.82614118 118 92 98
-0.21420006 0.29897839 -0.82800102 126 100 104
-0.21224189 0.29948217 -0.82493591 129 99 105
-0.2125109 0.29900065 -0.82544076 124 97 100
-0.21245474 0.30081066 -0.82525688 124 95 105
-0.21210119 0.30082458 -0.82467973 124 94 104
-0.21422803 0.29568678 -0.82836676 138 110 123
-0.21407759 0.29847178 -0.82786858 127 101 105
-0.21301556 0.29877588 -0.82631397 119 94 96
-0.21308108 0.29831779 -0.8264544 121 96 99
-0.21317771 0.29692593 -0.82678545 124 95 106
-0.21308956 0.29519355 -0.82692742 125 88 113
-0.21307403 0.29524264 -0.82689995 125 88 113
-0.21329868 0.29595363 -0.82708716 127 95 112
-0.21276373 0.29802248 -0.82602322 122 94 101
-0.21267799 0.29629362 -0.82612717 126 92 111
-0.21250986 0.29692307 -0.82573521 129 97 111
-0.21219432 0.29853082 -0.82492727 131 100 106
-0.21246038 0.29874173 -0.82537168 125 98 101
-0.21219766 0.29836163 -0.82495904 131 101 107
-0.21393648 0.28755742 -0.8281402 146 128 128
-0.21320516 0.28742546 -0.82713771 130 111 114
-0.21260035 0.28800151 -0.82612002 133 110 116
-0.21255794 0.2872583 -0.8260566 128 108 113
-0.21193656 0.28912321 -0.82482857 146 120 123
-0.21332446 0.28660759 -0.82721084 133 114 117
-0.21427839 0.28465012 -0.82813495 160 141 139
-0.21351847 0.28654736 -0.82746577 137 118 120
-0.21317066 0.28426322 -0.82661408 154 133 132
-0.2135524 0.28448233 -0.82714689 154 134 133
-0.21326798 0.28554529 -0.82694989 141 121 123
-0.21377949 0.28374994 -0.82732314 164 143 140
-0.21196125 0.28326857 -0.82482862 168 144 147
-0.2118516 0.28323379 -0.82467437 169 145 149
-0.21275429 0.28627247 -0.82639241 131 111 116
-0.2118661 0.28508714 -0.82471454 154 132 136
-0.21228705 0.2868894 -0.82553035 133 114 118
-0.21270889 0.28683692 -0.8263582 127 107 112
-0.21370241 0.28315231 -0.82713115 169 148 144
-0.21419173 0.28091654 -0.82766104 176 150 154
-0.21388258 0.28289524 -0.82735348 171 149 146
-0.21482077 0.28017306 -0.82844448 182 154 160
-0.21327348 0.28099272 -0.82641757 172 144 145
-0.21298498 0.282673 -0.82616174 166 142 140
-0.21328276 0.28050581 -0.82638991 173 144 146
-0.21320209 0.27991742 -0.82623059 175 144 146
-0.21444611 0.28003299 -0.82794434 179 152 158
-0.21274735 0.28136027 -0.82571477 170 143 142
-0.21270052 0.28209636 -0.82570761 168 144 142
-0.21248996 0.28177208 -0.82538557 171 145 144
-0.21214916 0.28268591 -0.82501876 169 145 147
-0.21377651 0.27866992 -0.82690573 179 148 150
-0.2148941 0.27683347 -0.82826024 181 156 156
-0.21338649 0.27869731 -0.82637411 177 145 147
-0.21456945 0.27693269 -0.82782501 180 154 153
-0.21358213 0.27896988 -0.82666832 178 146 149
-0.21440676 0.276057 -0.82746643 180 156 153
-0.2135269 0.27662295 -0.82624191 180 155 152
-0.21389599 0.27689302 -0.82684427 179 153 151
-0.2131808 0.27794835 -0.82595307 178 148 148
-0.21306084 0.27795437 -0.82577366 178 149 148
-0.21234681 0.278045 -0.82472122 182 154 153
-0.21254753 0.27648735 -0.82471675 182 160 157
-0.21355739 0.27479488 -0.82591838 179 160 154
-0.21450031 0.27453557 -0.82726967 178 157 152
-0.21417074 0.27434251 -0.82672405 177 157 151
-0.21489117 0.27437168 -0.82781523 177 155 151
-0.21502683 0.27290258 -0.82763976 170 149 145
-0.21290001 0.27389094 -0.82500279 182 165 155
-0.21414863 0.27308396 -0.82649928 174 155 148
-0.21522255 0.27159062 -0.82774466 168 147 142
-0.21458289 0.27290955 -0.82702535 171 151 146
-0.21310638 0.2748999 -0.82530981 180 162 155
-0.21368518 0.27408162 -0.82598031 177 158 151
-0.21281174 0.27294984 -0.82483643 182 167 155
-0.212724 0.27312663 -0.82470906 182 167 156
-0.21421504 0.26944095 -0.82625872 178 151 151
-0.21403524 0.27005866 -0.82610941 178 154 151
-0.21298161 0.27129254 -0.82495528 182 167 153
-0.2152925 0.27092534 -0.82775998 168 145 142
-0.21504074 0.27107799 -0.82746762 169 148 143
-0.21499641 0.27045906 -0.82734066 171 147 145
-0.21563904 0.26859704 -0.82847798 178 166 150
-0.21474811 0.26917884 -0.82705116 177 154 150
-0.21554546 0.26890004 -0.82830375 177 162 149
-0.21556708 0.26912987 -0.82831383 176 160 148
-0.21324432 0.26783097 -0.82487732 187 156 159
-0.21376202 0.26834735 -0.82562041 183 155 156
-0.21408014 0.26383823 -0.82568288 179 163 150
-0.21408497 0.26477069 -0.82577556 180 164 150
-0.21376753 0.26424769 -0.82520622 179 162 149
-0.21438634 0.26615629 -0.82644266 183 166 153
-0.21414289 0.26639611 -0.82610482 184 164 154
-0.21442789 0.26638183 -0.82654035 183 166 154
-0.21387002 0.26576102 -0.82559013 183 162 153
-0.21451063 0.26027137 -0.825239 175 153 157
-0.21381544 0.26315504 -0.8250578 178 160 150
-0.21376427 0.26210907 -0.82461971 177 156 152
-0.21462777 0.25912562 -0.8251484 163 137 146
-0.21449409 0.25893152 -0.82484573 164 138 148
-0.21378186 0.31683901 -0.84075713 190 170 168
-0.2138133 0.31639919 -0.84101754 195 176 173
-0.21384025 0.31582615 -0.84133226 202 184 179
-0.21395124 0.31642663 -0.84124672 196 176 174
-0.21417823 0.31703758 -0.84135979 190 168 171
-0.21369725 0.3153635 -0.84129727 206 191 182
-0.21400434 0.31817362 -0.84146988 158 124 142
-0.21389967 0.31237537 -0.84024197 188 169 163
-0.21472065 0.31257731 -0.84186268 196 174 175
-0.21474071 0.31068653 -0.84023577 169 143 149
-0.21458 0.31130588 -0.84049571 177 152 155
-0.21452846 0.31236914 -0.84133929 192 170 170
-0.21387352 0.31369761 -0.84134763 207 190 181
-0.21484269 0.31113192 -0.84137756 168 145 150
-0.21484622 0.3115294 -0.84387386 144 130 133
-0.21484715 0.31153244 -0.84381372 145 130 134
-0.21490024 0.31207877 -0.84296101 173 154 157
-0.21487454 0.31186631 -0.84374207 155 140 143
-0.21507291 0.30822745 -0.84260792 148 132 130
-0.21522127 0.30705947 -0.84193951 168 150 145
-0.21527879 0.30711433 -0.84097111 159 135 133
-0.21492141 0.30936339 -0.84336966 130 117 118
-0.21508113 0.30834863 -0.84231132 144 125 125
-0.21508524 0.30730921 -0.84369981 176 168 159
-0.21498096 0.30923584 -0.84165633 146 124 127
-0.21511598 0.30839583 -0.8403613 163 136 138
-0.21495743 0.30947715 -0.84067339 160 135 139
-0.21502803 0.30895737 -0.84102082 155 130 133
-0.21500999 0.30909881 -0.84082335 158 133 136
-0.2151916 0.30482858 -0.84364092 179 165 161
-0.21543187 0.30457702 -0.84231871 164 150 146
-0.21550381 0.30335832 -0.84186381 153 132 134
-0.21521893 0.3030321 -0.84339923 168 143 148
-0.21556917 0.30307552 -0.84149313 148 125 128
-0.21527559 0.30429527 -0.84315574 172 155 153
