ply
format ascii 1.0
comment PCL generated
element vertex 1011
property float x
property float y
property float z
property uchar red
property uchar green
property uchar blue
element camera 0
property float view_px
property float view_py
property float view_pz
property float x_axisx
property float x_axisy
property float x_axisz
property float y_axisx
property float y_axisy
property float y_axisz
property float z_axisx
property float z_axisy
property float z_axisz
property float focal
property float scalex
property float scaley
property float centerx
property float centery
property int viewportx
property int viewporty
property float k1
property float k2
end_header
-0.19692743 -0.25588748 -0.80075967 146 115 122
-0.19670402 -0.25593981 -0.80024678 142 112 120
-0.19560331 -0.25808135 -0.79804295 117 92 96
-0.195648 -0.25763136 -0.79807007 119 94 100
-0.19624721 -0.25741488 -0.79943275 130 101 106
-0.19683351 -0.25608417 -0.80057406 144 113 120
-0.19529867 -0.26337621 -0.79923642 117 104 102
-0.19573921 -0.26250941 -0.80092621 119 107 104
-0.19499415 -0.263522 -0.79768455 125 109 110
-0.19605435 -0.26045793 -0.80092347 150 130 133
-0.19585365 -0.26180327 -0.80095816 130 114 114
-0.1952582 -0.26271364 -0.79845285 132 115 117
-0.19516008 -0.26053602 -0.79749745 112 89 90
-0.1951873 -0.26141226 -0.79780638 121 100 102
-0.19579062 -0.26063496 -0.79984671 145 124 127
-0.19550529 -0.26143894 -0.7989856 137 117 120
-0.19557311 -0.26012626 -0.79892331 129 106 109
-0.19547085 -0.26081097 -0.79870915 130 109 111
-0.1937127 -0.26756629 -0.79844928 121 116 99
-0.19369014 -0.26737508 -0.7982887 124 120 103
-0.19493189 -0.26730266 -0.80031115 59 44 39
-0.19517615 -0.26702526 -0.8004722 52 34 33
-0.19474527 -0.26643267 -0.79929811 84 70 65
-0.19341998 -0.26665816 -0.79737151 146 146 125
-0.19500801 -0.26686311 -0.80007088 63 47 44
-0.19476831 -0.26446867 -0.79771942 118 103 101
-0.19531049 -0.26591247 -0.80041963 67 52 50
-0.19548458 -0.26508132 -0.80105543 77 65 61
-0.19525519 -0.26631564 -0.80027163 62 44 43
-0.19512072 -0.26525816 -0.79912221 87 70 70
-0.19543765 -0.2652196 -0.80085087 76 63 59
-0.19429997 -0.26811197 -0.80039269 60 45 39
-0.19485146 -0.26760009 -0.80040789 59 44 38
-0.19468375 -0.26796067 -0.80076784 48 31 27
-0.20827043 -0.18783092 -0.81562775 136 104 109
-0.20797651 -0.18943004 -0.81451344 175 154 165
-0.20823663 -0.18788035 -0.81552655 137 105 110
-0.20784371 -0.18939409 -0.81416166 172 151 162
-0.20755525 -0.18914804 -0.81343114 163 139 149
-0.20766401 -0.187131 -0.81415421 146 112 120
-0.20725484 -0.18658827 -0.81319308 175 147 158
-0.20776264 -0.1877455 -0.81427997 139 106 113
-0.20715334 -0.18607579 -0.8130374 182 154 165
-0.20776291 -0.18803047 -0.81421828 139 107 114
-0.20743597 -0.19307564 -0.81398332 171 144 149
-0.20766504 -0.19234894 -0.8144055 174 148 154
-0.20812653 -0.1923885 -0.81575388 174 152 154
-0.20853858 -0.19109364 -0.81651735 178 159 164
-0.20851442 -0.19103141 -0.81642687 178 159 164
-0.20813952 -0.19213365 -0.81570709 175 153 156
-0.20738377 -0.18999031 -0.81303746 170 146 157
-0.20747989 -0.19199835 -0.81378645 173 147 155
-0.20757288 -0.19155058 -0.81392872 174 148 157
-0.2080467 -0.19057254 -0.81497133 177 155 164
-0.20770721 -0.18952169 -0.81379765 173 151 162
-0.20789601 -0.18999816 -0.81442404 175 153 163
-0.20188351 -0.19306859 -0.8154617 46 31 29
-0.20152691 -0.19243287 -0.81586766 47 35 28
-0.203169 -0.19325161 -0.81649232 57 38 42
-0.20161058 -0.1918816 -0.81660086 52 41 31
-0.20514528 -0.1970568 -0.81447059 194 181 171
-0.20651287 -0.19542389 -0.81468844 185 166 161
-0.20651178 -0.19555566 -0.81487215 186 168 162
-0.20666382 -0.19454618 -0.81377816 179 154 155
-0.20614298 -0.19708604 -0.8162294 198 187 173
-0.20645441 -0.1947567 -0.81361938 180 155 156
-0.20687872 -0.19543082 -0.81566995 186 169 162
-0.20710285 -0.19401944 -0.81413502 175 150 151
-0.20747176 -0.19396803 -0.8151229 175 153 151
-0.20669334 -0.1962449 -0.81639296 192 180 167
-0.20669156 -0.19601308 -0.81602931 190 176 166
-0.20645495 -0.19671626 -0.81643254 195 185 171
-0.2032291 -0.19396324 -0.81628275 72 56 56
-0.20232852 -0.19402884 -0.81539375 65 52 47
-0.20202598 -0.19433643 -0.81502855 70 59 51
-0.2022218 -0.19349763 -0.81541407 51 35 34
-0.20312387 -0.19339846 -0.81631231 57 38 42
-0.20333704 -0.19540226 -0.81464577 121 108 101
-0.20330428 -0.1956584 -0.81545568 120 111 99
-0.20280488 -0.19463666 -0.81384617 101 84 81
-0.20305049 -0.1954654 -0.81556195 110 101 89
-0.20353621 -0.19590272 -0.81555116 129 120 107
-0.20378914 -0.19560055 -0.81404436 139 122 118
-0.20366283 -0.19535922 -0.81368566 134 116 114
-0.20188724 -0.19528653 -0.81332159 56 44 42
-0.20256692 -0.19459018 -0.81378442 90 74 72
-0.20132047 -0.19391765 -0.81410336 40 27 24
-0.20431517 -0.19616006 -0.81296182 156 137 137
-0.20479818 -0.19700864 -0.81532025 179 169 156
-0.20508899 -0.19804183 -0.81613439 191 182 167
-0.20472118 -0.19733667 -0.81627786 177 171 153
-0.20569876 -0.204879 -0.81644583 174 163 110
-0.20484096 -0.20457646 -0.81611949 192 180 125
-0.20525679 -0.21617459 -0.81609684 192 177 188
-0.20511189 -0.21596465 -0.81525439 183 167 178
-0.20511393 -0.21421036 -0.81410199 161 146 153
-0.20522493 -0.21456979 -0.8132605 193 180 188
-0.2049862 -0.21310028 -0.81553316 100 81 84
-0.20502289 -0.21585929 -0.81465393 178 162 172
-0.20489074 -0.2137976 -0.81660813 86 65 69
-0.20490937 -0.2149768 -0.81506944 138 120 127
-0.20478457 -0.2133069 -0.81643999 64 42 43
-0.20512979 -0.21707404 -0.81446844 214 198 211
-0.20510831 -0.21834271 -0.81581962 184 162 174
-0.20207454 -0.21990849 -0.813703 122 107 111
-0.20257579 -0.22061282 -0.81324846 119 98 98
-0.20241886 -0.2205354 -0.81335551 118 98 99
-0.20386314 -0.21848561 -0.81407547 169 152 160
-0.2041467 -0.21779451 -0.81342465 186 172 181
-0.20420779 -0.21797167 -0.81375301 183 167 176
-0.20265979 -0.21964884 -0.81429422 132 115 121
-0.20240822 -0.2194761 -0.81374234 133 119 124
-0.20326565 -0.21900956 -0.81410706 151 135 142
-0.20472756 -0.21809499 -0.81455767 185 166 176
-0.20154178 -0.21993299 -0.81495571 96 74 79
-0.20308386 -0.21951167 -0.81593937 123 97 105
-0.20252094 -0.21986723 -0.8153671 114 92 99
-0.2017038 -0.21908954 -0.81590343 92 63 70
-0.20375484 -0.21921681 -0.81648523 133 104 115
-0.20506501 -0.21790144 -0.81498903 194 174 187
-0.20194866 -0.2222293 -0.81342494 100 78 87
-0.20144971 -0.22165954 -0.81376165 94 77 84
-0.20174168 -0.22289871 -0.81347394 93 71 83
-0.20206927 -0.22375701 -0.81310284 104 81 92
-0.20219284 -0.22378497 -0.81300038 109 86 96
-0.20153201 -0.23255654 -0.81327176 122 113 124
-0.2015857 -0.23544808 -0.81422323 132 114 137
-0.20144507 -0.23570025 -0.81457567 136 117 143
-0.20199297 -0.23443581 -0.81313521 119 107 120
-0.20197286 -0.23386152 -0.81303984 119 108 120
-0.20182995 -0.23663814 -0.81377298 129 112 132
-0.20172572 -0.23816261 -0.81323785 151 140 148
-0.2013485 -0.2384804 -0.81386495 166 154 165
-0.2015893 -0.23850219 -0.81335384 159 149 156
-0.20211795 -0.23759994 -0.81290996 144 132 142
-0.20127842 -0.24261418 -0.81494367 111 96 117
-0.2021267 -0.2435168 -0.81376392 106 91 105
-0.20216361 -0.24201643 -0.81292683 163 152 157
-0.20213276 -0.24312139 -0.81355107 121 107 119
-0.20223825 -0.24383254 -0.81368786 98 83 96
-0.2022412 -0.24399334 -0.81376296 92 77 90
-0.20157132 -0.2442504 -0.81541651 60 42 69
-0.20264152 -0.24457809 -0.81352788 89 77 84
-0.20189992 -0.24566746 -0.81648457 35 23 46
-0.20184167 -0.24481827 -0.81557804 52 37 60
-0.20136698 -0.24494591 -0.81677657 30 14 46
-0.20264378 -0.24431828 -0.81320637 96 82 89
-0.20188189 -0.24446495 -0.81505919 62 46 68
-0.20262127 -0.24725643 -0.81482959 55 52 56
-0.20284149 -0.24777551 -0.81587487 39 38 42
-0.20272855 -0.2449851 -0.8135969 87 76 81
-0.20236345 -0.24713355 -0.81394053 67 62 66
-0.20295355 -0.2476256 -0.81612104 37 37 40
-0.20271626 -0.24779776 -0.8154996 43 42 46
-0.20203991 -0.24965376 -0.81601363 20 21 23
-0.20150542 -0.25048122 -0.81558549 17 18 19
-0.20188949 -0.24988198 -0.81571543 19 20 22
-0.20142354 -0.25057071 -0.81409413 21 20 21
-0.20253909 -0.24886964 -0.81597942 24 25 27
-0.20190394 -0.24919221 -0.81394541 40 38 41
-0.20245726 -0.24856603 -0.81522983 36 35 38
-0.20177598 -0.24856173 -0.81310129 62 58 61
-0.20288073 -0.24821238 -0.81630135 29 30 33
-0.18633007 -0.21986692 -0.77743834 89 60 79
-0.18559568 -0.21987996 -0.77642351 103 82 89
-0.18611304 -0.22236395 -0.77741617 107 83 97
-0.18602408 -0.22090302 -0.77711976 85 66 78
-0.1855876 -0.22172986 -0.77661413 105 88 94
-0.1845589 -0.22330411 -0.775617 112 83 96
-0.18339999 -0.22398174 -0.77437633 102 66 82
-0.18520786 -0.22357215 -0.77638781 126 100 112
-0.18504405 -0.22408637 -0.77626157 131 102 116
-0.18550441 -0.22249895 -0.77659953 116 95 104
-0.18412164 -0.22235829 -0.77502882 96 71 79
-0.18391974 -0.22288676 -0.77484882 97 68 79
-0.18355253 -0.22328013 -0.77448386 99 67 79
-0.18424372 -0.22184671 -0.77512491 94 74 78
-0.1845111 -0.22193344 -0.77541536 94 73 79
-0.18452337 -0.22493979 -0.77568656 133 101 114
-0.18302216 -0.22515862 -0.77394766 111 73 86
-0.18372372 -0.2254048 -0.77471465 124 92 102
-0.18366277 -0.22536765 -0.7746501 123 90 100
-0.19842954 -0.19538635 -0.79335088 105 79 61
-0.19796023 -0.19453762 -0.79226673 114 91 73
-0.19829763 -0.19497517 -0.79307777 107 82 64
-0.19812538 -0.19401236 -0.79279917 109 85 68
-0.19810136 -0.19672598 -0.79240054 108 81 66
-0.19824627 -0.19657657 -0.7926991 109 83 66
-0.19748166 -0.19567189 -0.79111153 113 90 78
-0.19805382 -0.1959105 -0.79229635 113 89 71
-0.19712165 -0.19621146 -0.79045987 109 86 77
-0.19847235 -0.19833691 -0.79305816 117 91 76
-0.1983927 -0.19909444 -0.79281324 125 100 88
-0.1981564 -0.19888684 -0.7923466 122 97 87
-0.19851524 -0.19844405 -0.79313552 118 92 78
-0.19748563 -0.20724797 -0.78957891 162 148 149
-0.19820291 -0.2053666 -0.7925095 122 96 101
-0.19798371 -0.20816518 -0.7899223 180 165 172
-0.19844866 -0.20628333 -0.79273504 143 119 128
-0.19839612 -0.20770067 -0.79234987 170 151 161
-0.1983477 -0.20852955 -0.79196411 186 170 181
-0.19836684 -0.20880996 -0.79215628 191 175 187
-0.1984451 -0.20661703 -0.79272431 149 126 135
-0.19734295 -0.21129175 -0.79060113 163 143 156
-0.19764848 -0.21251486 -0.79290152 104 79 90
-0.19768684 -0.21142538 -0.79161096 139 118 129
-0.19786042 -0.21092963 -0.79144853 145 126 136
-0.19822048 -0.20922737 -0.79132354 189 174 186
-0.19799949 -0.21028097 -0.79141802 162 144 155
-0.19807495 -0.21003489 -0.79161263 168 151 162
-0.19831818 -0.20931883 -0.79239351 185 169 181
-0.19648583 -0.21209556 -0.79050136 139 118 130
-0.19610505 -0.21185134 -0.78968364 152 133 144
-0.19713995 -0.21215762 -0.79142976 132 109 121
-0.19549237 -0.21255456 -0.78982866 128 109 118
-0.19708128 -0.21109664 -0.78994 174 156 169
-0.19727102 -0.21358867 -0.79275465 99 73 82
-0.19516757 -0.21307364 -0.78990459 117 97 104
-0.1968251 -0.21412262 -0.79232013 102 76 83
-0.19566786 -0.21414985 -0.79083109 110 88 93
-0.19524871 -0.21305509 -0.79000467 116 96 104
-0.19632551 -0.21328604 -0.79145682 107 84 93
-0.19573191 -0.21478935 -0.79088706 109 88 89
-0.19527568 -0.21445136 -0.7899676 115 98 96
-0.19542474 -0.21485245 -0.79019046 114 97 93
-0.19496556 -0.2134019 -0.78956133 119 101 105
-0.19553947 -0.21594584 -0.79015255 113 100 87
-0.19540179 -0.21394493 -0.79038179 113 92 97
-0.19543195 -0.22045775 -0.79088646 130 101 119
-0.19631624 -0.21844177 -0.79218978 109 81 87
-0.19639954 -0.21896042 -0.79247224 111 84 93
-0.19640714 -0.22011064 -0.79274666 118 91 107
-0.19684826 -0.21852052 -0.79326504 104 78 84
-0.19526251 -0.22045678 -0.7905494 131 102 120
-0.19642308 -0.21754484 -0.79215336 104 78 77
-0.19508262 -0.21880715 -0.78964674 127 107 106
-0.1955265 -0.21857128 -0.79054314 120 96 98
-0.19498789 -0.22004077 -0.78988647 132 103 118
-0.19543473 -0.21769163 -0.79001957 119 103 92
-0.19527766 -0.2194069 -0.79029685 126 99 108
-0.19617321 -0.22175419 -0.79261565 130 107 126
-0.19563472 -0.22229956 -0.79183251 143 122 141
-0.19579366 -0.22307344 -0.79197705 140 116 136
-0.19585976 -0.2231323 -0.79206151 139 114 135
-0.19505504 -0.2243032 -0.79085827 158 137 157
-0.19601646 -0.22208543 -0.79237169 134 111 130
-0.19637015 -0.22415257 -0.79266137 128 98 121
-0.19539775 -0.22098431 -0.79096544 134 106 126
-0.19521838 -0.22119136 -0.7906763 138 111 130
-0.19464581 -0.22281002 -0.79006535 159 138 156
-0.1947111 -0.22328414 -0.79034954 162 144 162
-0.19575745 -0.22079487 -0.7916187 128 101 121
-0.19476619 -0.22247896 -0.79019684 154 132 151
-0.19667098 -0.227337 -0.7933138 140 112 127
-0.19643259 -0.22842219 -0.79306716 148 123 134
-0.19499309 -0.22775772 -0.79065919 126 94 113
-0.1958432 -0.22630671 -0.79184669 121 87 110
-0.19596019 -0.2259849 -0.79199457 119 85 108
-0.19639422 -0.22690357 -0.79281199 133 103 121
-0.19550848 -0.22582154 -0.79138643 132 101 123
-0.19486941 -0.22595333 -0.79051042 144 118 138
-0.19455566 -0.22741109 -0.79001093 131 101 121
-0.19502519 -0.22581312 -0.79072934 143 116 137
-0.194305 -0.22468653 -0.78980565 175 158 176
-0.19590488 -0.22566883 -0.7919333 125 92 115
-0.19519126 -0.23175675 -0.79176223 138 114 134
-0.19556537 -0.23101866 -0.79221904 141 116 134
-0.19459976 -0.23203339 -0.79078096 137 115 135
-0.19605897 -0.22976473 -0.79274035 146 122 135
-0.19596781 -0.23017 -0.79269457 144 119 135
-0.19470918 -0.23192002 -0.7909444 137 115 135
-0.19455619 -0.23036163 -0.79034722 135 112 129
-0.19444822 -0.23048098 -0.79019213 134 111 129
-0.1943499 -0.22880286 -0.78976369 127 97 115
-0.19500551 -0.23014034 -0.79103684 139 116 132
-0.19422469 -0.22970511 -0.78970659 129 102 121
-0.19593009 -0.2293442 -0.79240113 146 123 136
-0.1949836 -0.23476206 -0.79121447 143 115 129
-0.19539113 -0.23520297 -0.79197448 145 116 131
-0.19566205 -0.23614645 -0.79242253 149 119 134
-0.19587198 -0.23490456 -0.79294306 146 114 133
-0.19510308 -0.23604579 -0.79133594 147 120 131
-0.19480655 -0.23554039 -0.79079914 145 119 130
-0.19517803 -0.2337684 -0.7917105 140 112 130
-0.19480515 -0.23408042 -0.79098988 140 115 130
-0.19498943 -0.23252507 -0.7915765 136 111 132
-0.19429561 -0.23465002 -0.78998154 141 118 131
-0.19459824 -0.23447606 -0.79055333 141 117 130
-0.19518164 -0.23381595 -0.79170918 140 112 130
-0.19587369 -0.23799753 -0.79321992 154 123 139
-0.19448169 -0.24009599 -0.79070777 134 100 107
-0.19472706 -0.2400417 -0.79124004 139 106 115
-0.19573241 -0.237865 -0.79286706 150 118 133
-0.19593054 -0.23757449 -0.7932269 153 122 137
-0.19534996 -0.23883374 -0.79228795 147 115 127
-0.19486313 -0.2372773 -0.79096133 142 112 121
-0.19418062 -0.23720393 -0.78961444 140 114 120
-0.19538833 -0.23636863 -0.7918753 149 120 132
-0.1943153 -0.23925117 -0.79013824 129 93 100
-0.19413815 -0.23908116 -0.78976953 129 95 101
-0.19486046 -0.24303405 -0.7924937 156 132 129
-0.19484606 -0.24218583 -0.79167312 147 118 120
-0.19479004 -0.24278456 -0.79197043 151 124 123
-0.19535163 -0.24127053 -0.79300737 159 133 140
-0.19512561 -0.24220142 -0.79287785 159 134 136
-0.19473381 -0.24085119 -0.79130536 141 109 116
-0.19485064 -0.24166653 -0.79156059 145 115 119
-0.19436291 -0.24036106 -0.79048091 132 98 104
-0.19416644 -0.24245155 -0.7900281 131 98 95
-0.19494215 -0.24130961 -0.79176724 147 117 123
-0.19427003 -0.24258327 -0.79025835 134 101 99
-0.1942496 -0.24588291 -0.79178774 156 130 122
-0.19466276 -0.2457504 -0.79307127 139 117 115
-0.19368459 -0.24744482 -0.79024106 148 116 108
-0.19408627 -0.24636459 -0.79134518 153 125 117
-0.19408894 -0.24682644 -0.79142338 142 114 109
-0.19457877 -0.24576987 -0.79280919 143 120 117
-0.1940549 -0.24455158 -0.79028064 139 108 99
-0.19423634 -0.24425687 -0.79089022 143 115 106
-0.1938919 -0.24519511 -0.78994286 138 107 97
-0.19389945 -0.24439387 -0.78953123 130 98 88
-0.19388765 -0.24560557 -0.79015219 142 111 102
-0.19380024 -0.25114632 -0.79048991 132 102 94
-0.1946318 -0.2491267 -0.79328197 104 80 95
-0.19461989 -0.24955946 -0.79322809 110 87 101
-0.19449675 -0.25133333 -0.79276389 133 111 126
-0.19439654 -0.25167426 -0.79242408 137 115 127
-0.19431947 -0.24953677 -0.79224527 110 83 89
-0.19398548 -0.24918495 -0.79120225 121 90 89
-0.19406813 -0.24912484 -0.79146719 117 87 88
-0.1937815 -0.2487921 -0.79058594 130 98 94
-0.19385794 -0.25056604 -0.79070395 126 96 89
-0.19393337 -0.24872723 -0.79106969 123 92 91
-0.19353813 -0.24918319 -0.78979099 141 108 99
-0.19349259 -0.2541464 -0.79008591 146 115 105
-0.19393468 -0.25499162 -0.79166359 126 96 98
-0.19436932 -0.25580299 -0.79320985 106 78 91
-0.1935924 -0.2543723 -0.79045069 142 111 104
-0.19350402 -0.25218889 -0.78955996 142 110 95
-0.19375756 -0.25266075 -0.79048389 135 105 98
-0.19449104 -0.25405556 -0.79320335 121 97 113
-0.19389001 -0.25219619 -0.7908116 140 112 108
-0.19355232 -0.2521539 -0.78969634 140 109 95
-0.19432941 -0.25432366 -0.79273528 118 93 104
-0.19437437 -0.25381064 -0.7927655 123 99 111
-0.19323328 -0.25538248 -0.78977776 156 124 116
-0.193938 -0.25749752 -0.79212028 140 106 116
-0.19397238 -0.25855213 -0.79237753 147 109 124
-0.19424571 -0.25796771 -0.79314154 129 94 112
-0.19386405 -0.25772858 -0.79192394 145 110 120
-0.19416074 -0.25705543 -0.79274774 125 94 107
-0.19378915 -0.25933582 -0.79239899 152 112 132
-0.19384103 -0.25817412 -0.79196554 149 112 124
-0.19299021 -0.25937796 -0.79109788 158 120 135
-0.19325073 -0.25717932 -0.7905159 157 122 124
-0.19332978 -0.2561419 -0.79017264 156 123 119
-0.19279942 -0.25730211 -0.7898646 153 121 121
-0.1925787 -0.25735557 -0.78954351 155 122 122
-0.19355232 -0.259951 -0.79228181 155 115 135
-0.19415091 -0.2599538 -0.79331678 142 103 126
-0.19281007 -0.26117763 -0.79175991 136 107 118
-0.1923622 -0.26147434 -0.79122055 127 103 110
-0.19314644 -0.26140866 -0.79241252 135 106 118
-0.1931221 -0.26019439 -0.79171258 153 116 133
-0.19266167 -0.26360375 -0.79256111 102 87 89
-0.19167121 -0.26316461 -0.78988558 117 87 96
-0.19223598 -0.26364586 -0.79146814 106 85 90
-0.19222623 -0.26137945 -0.79088348 129 104 111
-0.19258197 -0.26338255 -0.79229993 105 88 91
-0.19259422 -0.26517767 -0.79293799 106 94 99
-0.19164017 -0.26666775 -0.79073769 103 77 99
-0.19189923 -0.26750562 -0.79190922 116 98 114
-0.19174837 -0.26707879 -0.79125518 109 87 106
-0.19229154 -0.26744345 -0.79306835 123 113 120
-0.19258338 -0.26378682 -0.79240394 102 86 89
-0.19175281 -0.26421705 -0.79035938 109 81 92
-0.19154458 -0.2653507 -0.79010481 106 76 94
-0.19154069 -0.2651749 -0.79005051 107 77 94
-0.19143149 -0.26475775 -0.78966254 110 78 94
-0.19225056 -0.26882073 -0.7932663 129 121 125
-0.19155703 -0.26931712 -0.79041314 135 115 124
-0.1912591 -0.26879987 -0.78965777 122 95 114
-0.19128841 -0.26947093 -0.78955609 133 107 120
-0.19128813 -0.26858184 -0.7898075 120 92 112
-0.19168122 -0.26786938 -0.7911998 117 96 113
-0.20301045 -0.18497424 -0.80300373 116 70 76
-0.2032873 -0.18497682 -0.80413628 118 65 78
-0.2030815 -0.18510695 -0.80354488 115 64 75
-0.20230088 -0.18518306 -0.80120736 109 68 69
-0.20273849 -0.18390958 -0.80187035 121 85 89
-0.20334923 -0.18393356 -0.80266511 127 92 93
-0.2034149 -0.18813419 -0.80434722 124 84 95
-0.20354089 -0.18851577 -0.80454183 127 91 99
-0.20369682 -0.18913391 -0.80471444 131 100 106
-0.20351937 -0.1884058 -0.80452961 127 89 98
-0.20306462 -0.1884703 -0.80315268 122 85 94
-0.2036768 -0.18927032 -0.80459136 132 102 107
-0.20248735 -0.18728322 -0.80149418 113 76 79
-0.20259559 -0.18609625 -0.80225313 110 64 70
-0.20257944 -0.18915306 -0.80136812 120 90 95
-0.20256798 -0.18841912 -0.8015182 117 84 89
-0.20252323 -0.1874367 -0.80159926 114 76 81
-0.20264153 -0.19231333 -0.80312043 121 93 98
-0.20251279 -0.19333935 -0.80306178 126 99 98
-0.20304665 -0.1915672 -0.80380577 127 99 102
-0.20350266 -0.19134824 -0.80470252 139 114 109
-0.20303749 -0.19295646 -0.80406719 139 114 105
-0.20330775 -0.19310009 -0.80465388 148 126 110
-0.2020456 -0.19188064 -0.80143493 108 77 90
-0.20162363 -0.19325055 -0.80117822 99 66 84
-0.20215714 -0.1912972 -0.80134231 111 80 91
-0.20337626 -0.18977639 -0.80385023 128 100 105
-0.20252202 -0.1908388 -0.80209064 116 86 96
-0.20292519 -0.19012536 -0.80276746 122 94 100
-0.2031796 -0.19522521 -0.80457324 143 115 106
-0.20273374 -0.19598085 -0.80258036 138 127 111
-0.20273481 -0.19678958 -0.80311221 133 109 104
-0.20304765 -0.1961989 -0.80447125 137 102 102
-0.20311935 -0.19567882 -0.80453253 140 109 104
-0.20246907 -0.19666497 -0.80169052 132 125 110
-0.20263095 -0.19596115 -0.80229813 136 125 110
-0.20318516 -0.19388114 -0.80425018 148 129 111
-0.20222811 -0.19406353 -0.80220455 119 95 96
-0.20252039 -0.19408311 -0.8028 128 106 101
-0.20248356 -0.19461288 -0.80251813 128 109 103
-0.2024526 -0.19973588 -0.80380523 138 109 120
-0.20243935 -0.20090379 -0.80447322 147 126 136
-0.20228605 -0.20029968 -0.80334765 139 114 126
-0.20215757 -0.20114376 -0.80325133 143 125 136
-0.20199428 -0.20112844 -0.80244648 140 122 134
-0.20280597 -0.19867815 -0.80486286 137 98 110
-0.20233573 -0.19897842 -0.80267388 132 105 113
-0.20286764 -0.19767062 -0.80451083 130 86 98
-0.20297413 -0.19742399 -0.80489165 130 82 95
-0.20221983 -0.19861716 -0.8017168 131 116 115
-0.20194387 -0.20042072 -0.8017332 134 113 125
-0.20214641 -0.19896112 -0.80160397 132 117 118
-0.20266831 -0.20367211 -0.80491048 173 156 143
-0.20219631 -0.20439039 -0.80290169 153 139 116
-0.20256244 -0.20350894 -0.80455083 167 150 137
-0.20279093 -0.20506467 -0.80498964 187 171 146
-0.20232642 -0.20359141 -0.80362391 155 139 125
-0.20237386 -0.20319693 -0.80391622 155 138 128
-0.20207335 -0.20239641 -0.80275506 142 126 123
-0.20182177 -0.20331734 -0.80145174 137 123 111
-0.20242175 -0.20145208 -0.80453199 149 130 137
-0.20207974 -0.20209478 -0.80281174 142 125 126
-0.2019424 -0.20422453 -0.80196226 140 126 104
-0.20248289 -0.20849727 -0.8022303 153 143 124
-0.20246445 -0.20835938 -0.8037914 103 90 80
-0.20257229 -0.20749189 -0.80344296 150 138 119
-0.20252338 -0.2080752 -0.80260509 156 146 126
-0.20253675 -0.20803416 -0.80221343 172 162 140
-0.20252167 -0.20661008 -0.80297095 174 162 137
-0.20236728 -0.20643915 -0.80248946 166 154 128
-0.20267545 -0.20625858 -0.8037855 182 168 144
-0.20196675 -0.20567 -0.80144954 145 134 105
-0.20250721 -0.20629247 -0.80311954 173 161 135
-0.20230456 -0.2094321 -0.80463576 33 19 20
-0.20232794 -0.20942293 -0.80488151 43 27 29
-0.20192364 -0.21242325 -0.80185342 39 34 36
-0.20216267 -0.21224447 -0.80432755 129 117 122
-0.20196804 -0.2125854 -0.80239683 67 60 63
-0.20211577 -0.21212573 -0.8037762 103 92 97
-0.20214349 -0.2106376 -0.80338609 34 23 24
-0.20235556 -0.20949349 -0.80185437 128 120 105
-0.2023582 -0.20913477 -0.80427444 56 42 39
-0.20220272 -0.21030265 -0.80306751 57 47 44
-0.20208827 -0.21115588 -0.80222499 56 49 46
-0.20131016 -0.21659608 -0.80183882 178 155 168
-0.20144513 -0.21604896 -0.80195618 156 137 148
-0.20182866 -0.21555808 -0.8030659 144 131 140
-0.20200142 -0.21650758 -0.80441773 188 174 186
-0.20164791 -0.21623722 -0.80286878 169 151 163
-0.20171838 -0.21626173 -0.80315614 172 155 166
-0.20199537 -0.21344699 -0.80295324 103 95 100
-0.20218161 -0.21389139 -0.80504769 187 174 182
-0.20216385 -0.21336544 -0.80473167 172 159 167
-0.20211266 -0.21587007 -0.80478752 187 174 185
-0.20198892 -0.21325594 -0.80283844 98 90 95
-0.2014516 -0.21753475 -0.80348718 179 156 167
-0.20191683 -0.21734042 -0.80501264 191 174 184
-0.20175613 -0.21763186 -0.80477768 183 164 174
-0.20122872 -0.21938539 -0.80504417 146 119 122
-0.20096382 -0.21929264 -0.80403215 145 117 120
-0.20108846 -0.21833824 -0.80319357 161 134 141
-0.2007129 -0.21826248 -0.8019222 160 134 141
-0.20016989 -0.22037865 -0.80250067 128 104 100
-0.20072767 -0.21808371 -0.80175102 163 137 144
-0.20026061 -0.22026588 -0.80271256 129 105 102
-0.20042613 -0.21930492 -0.80213135 144 120 121
-0.20029493 -0.22036663 -0.80297655 128 103 99
-0.20131795 -0.22427027 -0.80465221 116 73 103
-0.20097813 -0.22314197 -0.80454266 118 80 99
-0.20024332 -0.22406326 -0.80306005 132 101 120
-0.20040312 -0.22236717 -0.80396658 128 99 106
-0.20044112 -0.22237809 -0.80402088 128 98 105
-0.20096394 -0.22177014 -0.80505246 117 83 91
-0.19999704 -0.22165057 -0.8028034 130 107 105
-0.19961731 -0.22290544 -0.80206108 141 119 123
-0.19983269 -0.22171579 -0.8021965 131 109 108
-0.19975843 -0.22095037 -0.80144727 126 106 100
-0.20011127 -0.22076374 -0.80272228 123 100 94
-0.19997127 -0.22089279 -0.80224925 125 102 97
-0.20151509 -0.22577977 -0.80479008 123 87 113
-0.20143121 -0.22850965 -0.80457526 135 114 128
-0.20066325 -0.22675285 -0.80352503 122 88 112
-0.19925265 -0.22805725 -0.8016057 119 87 113
-0.20078941 -0.22750573 -0.80369586 127 97 118
-0.20027313 -0.22804832 -0.8029933 126 97 119
-0.19996081 -0.22798114 -0.80256867 124 93 117
-0.20010257 -0.22588579 -0.80271834 122 87 113
-0.19930466 -0.22528848 -0.80148137 144 121 136
-0.2001538 -0.22585075 -0.80279219 122 86 112
-0.19999689 -0.22482024 -0.8024798 135 105 125
-0.19991086 -0.22679968 -0.8025012 117 81 109
-0.20043662 -0.23132575 -0.80497277 127 84 105
-0.20003034 -0.23061337 -0.80405265 126 88 110
-0.19932716 -0.22954988 -0.80239171 122 87 111
-0.20003328 -0.22899413 -0.80298352 127 97 118
-0.19990353 -0.22907509 -0.80286086 126 95 117
-0.19996101 -0.22946115 -0.80319482 126 94 115
-0.19899336 -0.23130393 -0.8020305 130 99 119
-0.19932599 -0.23084621 -0.80293441 125 87 110
-0.19963665 -0.23214252 -0.80419737 126 83 105
-0.19889957 -0.23038241 -0.80152041 127 98 119
-0.19909957 -0.23077272 -0.80222559 127 94 115
-0.1988862 -0.23192944 -0.8018555 134 105 122
-0.19977862 -0.23358755 -0.80471683 132 91 111
-0.19938606 -0.23597275 -0.80338067 149 123 139
-0.19976133 -0.23484494 -0.80483282 137 104 121
-0.19949359 -0.23479655 -0.80366737 142 109 128
-0.19974053 -0.2360536 -0.80492628 143 116 130
-0.19961827 -0.23399425 -0.80408496 136 98 119
-0.19962308 -0.23263125 -0.80418456 129 87 108
-0.19945869 -0.23256519 -0.80369532 130 91 111
-0.19895788 -0.23466101 -0.80177414 148 122 140
-0.19964199 -0.23334241 -0.80410898 133 91 113
-0.19935463 -0.23419112 -0.80307293 141 106 127
-0.19909434 -0.23483667 -0.80215764 148 119 139
-0.19945988 -0.23873056 -0.80338389 146 118 136
-0.19979215 -0.23967645 -0.80424017 158 133 148
-0.19941896 -0.237973 -0.80345565 142 114 132
-0.19971681 -0.23779373 -0.80450726 148 123 137
-0.1998859 -0.23991396 -0.80448997 161 137 151
-0.19933003 -0.23825361 -0.80305785 142 113 133
-0.19957903 -0.23659463 -0.80425072 146 120 135
-0.1992982 -0.23705587 -0.80300373 148 123 140
-0.19895928 -0.23934498 -0.80137795 143 113 137
-0.19921072 -0.23762235 -0.80258578 147 120 139
-0.19896349 -0.23954415 -0.80138236 142 111 135
-0.19883074 -0.24406999 -0.80285507 143 120 118
-0.1996963 -0.24210179 -0.80497766 164 144 150
-0.1989239 -0.24354888 -0.80281264 144 120 119
-0.19970745 -0.24183346 -0.80479217 163 142 148
-0.19922206 -0.24316205 -0.80379879 153 131 132
-0.19861178 -0.24389121 -0.80172545 134 108 105
-0.19891571 -0.24206968 -0.80190879 140 111 121
-0.1990782 -0.24117522 -0.80207956 143 114 130
-0.19944142 -0.24077156 -0.803132 152 125 140
-0.19944298 -0.24041441 -0.80298716 152 124 142
-0.19916509 -0.2410157 -0.80230492 145 117 132
-0.19888154 -0.24224798 -0.80186874 139 111 119
-0.19848415 -0.24746016 -0.8026821 131 109 112
-0.19859806 -0.24695095 -0.80293381 137 116 119
-0.19866535 -0.24657694 -0.80298162 144 122 126
-0.19900484 -0.24597584 -0.80499357 128 113 110
-0.19888841 -0.24642146 -0.8046332 125 108 106
-0.19845766 -0.24625397 -0.80181468 140 115 118
-0.19849733 -0.24453686 -0.8015396 133 107 104
-0.19829708 -0.24714132 -0.80133432 138 113 118
-0.19890855 -0.24488924 -0.8034597 151 130 130
-0.19842075 -0.24517195 -0.80136627 133 107 106
-0.19867098 -0.25133592 -0.80415809 131 116 120
-0.19861688 -0.25165471 -0.8039214 136 121 124
-0.19870892 -0.24881402 -0.80496114 97 83 81
-0.19865215 -0.25045985 -0.8043493 120 105 106
-0.19819756 -0.25145665 -0.802827 143 125 114
-0.19844335 -0.25063187 -0.8037293 127 110 105
-0.19796608 -0.2504282 -0.80202764 142 121 105
-0.19845986 -0.24845271 -0.8037762 107 90 85
-0.19795217 -0.25071195 -0.80225343 140 120 101
-0.19812699 -0.24887386 -0.80149972 140 116 115
-0.19820784 -0.24827211 -0.80145043 137 112 117
-0.19796906 -0.25552601 -0.80294341 135 98 110
-0.19777042 -0.25344217 -0.80189955 151 123 113
-0.19812572 -0.25457585 -0.80303466 135 102 106
-0.19730203 -0.25464398 -0.80120695 158 129 124
-0.19845711 -0.25520515 -0.80396575 123 86 100
-0.19795679 -0.25291732 -0.80216682 148 121 108
-0.19813763 -0.25319681 -0.80270231 142 115 108
-0.19885147 -0.25492084 -0.80490452 115 80 102
-0.19851267 -0.25406826 -0.80385447 128 97 105
-0.19865339 -0.25418729 -0.80425709 124 93 106
-0.19855268 -0.25364581 -0.80390394 130 102 110
-0.19787127 -0.25687358 -0.80404347 133 100 111
-0.19790301 -0.25629178 -0.80339676 133 97 111
-0.1979786 -0.25617009 -0.80342025 131 95 110
-0.19794165 -0.25660124 -0.80386853 132 97 110
-0.19706921 -0.25748029 -0.80306542 149 122 124
-0.19693357 -0.2572937 -0.80262965 149 123 125
-0.19656654 -0.25849456 -0.80185831 154 129 133
-0.19700448 -0.25651231 -0.80166888 150 119 125
-0.19634785 -0.25957102 -0.80215544 155 135 137
-0.19654521 -0.25916865 -0.80321735 151 132 131
-0.19694377 -0.25668088 -0.80144691 151 120 126
-0.19689158 -0.25731376 -0.80239654 149 123 125
-0.19616292 -0.26135796 -0.80501437 124 110 107
-0.19600937 -0.26200557 -0.80378789 118 106 102
-0.19635767 -0.26067463 -0.80440146 136 123 117
-0.19567591 -0.26332241 -0.8025313 102 92 88
-0.19630098 -0.26085955 -0.8047992 132 118 114
-0.19606212 -0.26137722 -0.80222744 132 118 114
-0.19618443 -0.2603313 -0.80183548 148 130 131
-0.19595084 -0.26227376 -0.8024981 118 107 100
-0.19594935 -0.26225856 -0.80245912 118 107 101
-0.1957698 -0.26274806 -0.80140167 114 103 98
-0.19635603 -0.260524 -0.80387735 140 126 120
-0.20941077 -0.19133529 -0.82260203 166 145 159
-0.20953244 -0.19096595 -0.82220435 168 147 158
-0.20921993 -0.1929805 -0.82352996 172 154 173
-0.2096362 -0.19068106 -0.82178134 169 148 157
-0.20979081 -0.19050235 -0.8211019 172 151 158
-0.20985185 -0.19062708 -0.82082498 174 154 160
-0.20951785 -0.19300634 -0.82220423 180 163 177
-0.20901391 -0.19389358 -0.82249391 180 164 177
-0.20910107 -0.19359079 -0.82320249 176 159 176
-0.18963701 -0.20814736 -0.77930117 161 135 139
-0.18943442 -0.20778899 -0.77902889 155 128 130
-0.18950015 -0.20914716 -0.77904326 187 169 165
-0.19048458 -0.21084714 -0.78158122 173 159 154
-0.19000907 -0.21220677 -0.78152281 187 190 160
-0.18980616 -0.211941 -0.78104502 190 193 162
-0.18974747 -0.21255974 -0.78129566 192 200 162
-0.18925744 -0.21229964 -0.78041667 189 190 160
-0.18987632 -0.21511009 -0.78143102 138 123 116
-0.18978834 -0.21620119 -0.78113872 101 76 84
-0.18981183 -0.21643901 -0.78114372 95 66 78
-0.18880464 -0.21404508 -0.78023338 168 162 138
-0.18917222 -0.2143632 -0.78056258 152 145 125
-0.18832943 -0.21598597 -0.77947605 114 85 90
-0.18766293 -0.21585487 -0.77881628 127 97 101
-0.18887059 -0.21579243 -0.78005403 112 88 89
-0.18827184 -0.21382421 -0.77942216 162 146 135
-0.18883228 -0.21340196 -0.78020257 177 174 148
-0.18785229 -0.21346983 -0.77866805 153 127 131
-0.18807226 -0.21426143 -0.77921695 155 136 128
-0.18983573 -0.21688029 -0.78116542 86 54 70
-0.189761 -0.21784896 -0.78142726 100 70 83
-0.18929988 -0.21940957 -0.78137398 113 89 94
-0.1878823 -0.21830988 -0.7794956 115 81 92
-0.18854304 -0.21818414 -0.780119 103 73 83
-0.18891495 -0.21941017 -0.78097486 114 90 95
-0.18869257 -0.21963163 -0.78083473 121 96 100
-0.18875989 -0.21934235 -0.78079063 116 90 95
-0.18919097 -0.21695726 -0.78030074 78 46 60
-0.18805894 -0.22018254 -0.78005862 112 88 95
-0.18745223 -0.21894856 -0.77902675 109 77 90
-0.18806301 -0.21912298 -0.77996492 121 91 99
-0.18655621 -0.22002745 -0.77777624 80 52 73
-0.18717642 -0.21770903 -0.77849364 113 74 90
-0.18727751 -0.22048891 -0.77890825 92 68 82
-0.18876034 -0.22126167 -0.78120458 130 110 110
-0.18699849 -0.22210988 -0.77868998 112 87 101
-0.1869541 -0.22222938 -0.77863854 113 88 102
-0.18855616 -0.22129007 -0.78093421 130 109 111
-0.18649919 -0.22298735 -0.77805042 118 91 107
-0.18652724 -0.22155242 -0.77790648 90 65 84
-0.1882448 -0.22072522 -0.78039104 112 91 97
-0.18872121 -0.23591606 -0.78079838 130 107 123
-0.18954401 -0.23983279 -0.78160864 132 117 89
-0.18936372 -0.23914434 -0.78132433 138 123 105
-0.188463 -0.23652419 -0.78033376 128 105 121
-0.18963566 -0.24254341 -0.78140998 145 134 110
-0.18931688 -0.2429965 -0.7808674 141 122 106
-0.20073327 -0.18514995 -0.79706401 130 97 110
-0.20071736 -0.1843702 -0.79678214 137 105 117
-0.19958517 -0.18478785 -0.79532087 125 94 103
-0.20000577 -0.18462531 -0.79588079 128 96 106
-0.20005137 -0.18551204 -0.79619879 123 91 103
-0.19921328 -0.18855059 -0.79497707 119 88 102
-0.20033133 -0.18686171 -0.79658419 125 91 106
-0.19952287 -0.18809947 -0.7954213 121 89 103
-0.20064023 -0.18684824 -0.79700679 126 92 106
-0.20024543 -0.18891039 -0.79637009 123 89 104
-0.19948158 -0.18783097 -0.79537755 121 89 103
-0.19979827 -0.18874176 -0.79576719 121 88 104
-0.1988298 -0.19290446 -0.79501092 118 89 79
-0.19946706 -0.19207312 -0.79624468 125 94 93
-0.19963364 -0.19196995 -0.79684937 130 98 99
-0.20013678 -0.19103648 -0.79713839 129 96 103
-0.19893047 -0.19270323 -0.79503304 117 89 80
-0.19972537 -0.19160034 -0.79640901 125 93 95
-0.19989336 -0.19086342 -0.79574907 117 85 89
-0.19858569 -0.19716392 -0.79348165 106 78 61
-0.19984013 -0.1956773 -0.79717451 127 103 90
-0.19950755 -0.19561082 -0.79653794 125 100 86
-0.19900046 -0.1946312 -0.79622012 129 100 90
-0.19876239 -0.19685057 -0.79407912 110 83 66
-0.19895296 -0.19466381 -0.79609793 129 99 89
-0.19850948 -0.19498949 -0.79389775 110 83 66
-0.19858414 -0.19674335 -0.79365528 108 80 63
-0.19861265 -0.19494991 -0.79444444 115 87 72
-0.19851406 -0.19409652 -0.79424101 113 86 70
-0.19853191 -0.19393247 -0.79439193 114 87 72
-0.19875294 -0.19528532 -0.79504848 120 91 78
-0.19940281 -0.20059904 -0.79461253 133 113 102
-0.19968694 -0.19956653 -0.79536074 130 110 97
-0.19942765 -0.1998733 -0.79483438 135 116 103
-0.20083532 -0.20030577 -0.79717553 95 74 69
-0.20050077 -0.1993707 -0.79682398 109 88 78
-0.20031759 -0.19866922 -0.79667819 117 97 83
-0.1996848 -0.19846873 -0.79554605 126 106 89
-0.1992943 -0.19944325 -0.79463756 133 113 98
-0.19908398 -0.19792096 -0.79436457 116 92 75
-0.19935395 -0.19753382 -0.79496235 114 90 72
-0.19912049 -0.19945194 -0.79427809 132 111 97
-0.19955362 -0.19805725 -0.79531884 121 99 82
-0.20013493 -0.20489804 -0.79569769 129 111 102
-0.2005941 -0.20446284 -0.79638094 126 110 98
-0.20100595 -0.20496382 -0.79695714 137 125 106
-0.19951458 -0.20370516 -0.79489452 109 83 87
-0.19950122 -0.20427136 -0.79481524 115 92 93
-0.20052606 -0.2031194 -0.79637808 107 88 83
-0.20038714 -0.20288637 -0.79620779 104 82 80
-0.19913037 -0.20306198 -0.79419714 121 97 97
-0.19956282 -0.20323071 -0.79496688 108 83 86
-0.19944765 -0.20215768 -0.79465342 120 98 95
-0.2008653 -0.20121223 -0.79701865 90 68 68
-0.19921175 -0.2012074 -0.79414296 135 115 106
-0.20059995 -0.20123532 -0.79655969 97 75 74
-0.19901928 -0.20559223 -0.7944473 118 96 98
-0.19885689 -0.20662403 -0.79496163 106 88 94
-0.19926091 -0.20630093 -0.79531235 112 95 96
-0.20007253 -0.20690078 -0.79692411 112 104 97
-0.19926161 -0.20796658 -0.79652339 94 86 90
-0.19983855 -0.20725633 -0.79684335 106 98 95
-0.19908829 -0.20756359 -0.7959795 97 86 91
-0.19904743 -0.20863836 -0.79614872 108 100 108
-0.19858508 -0.20679283 -0.79372305 141 120 129
-0.19896616 -0.20749103 -0.79569227 100 87 93
-0.19861883 -0.20620239 -0.79387355 126 103 111
-0.19923195 -0.20886531 -0.79709822 86 82 88
-0.19869184 -0.21088499 -0.79594254 88 76 83
-0.19878528 -0.2117587 -0.79627824 91 79 83
-0.19882746 -0.21067351 -0.79628032 88 78 84
-0.19863757 -0.21281151 -0.79599339 94 79 82
-0.19908282 -0.21046208 -0.79693538 88 81 85
-0.19885831 -0.21010813 -0.79630494 86 77 84
-0.19892055 -0.20923437 -0.79579461 118 110 118
-0.19888774 -0.20901303 -0.7953794 135 126 135
-0.19855715 -0.20966737 -0.79442614 145 131 142
-0.198292 -0.21037717 -0.79386878 142 124 136
-0.19793439 -0.21157102 -0.79338199 125 102 114
-0.19798529 -0.21661483 -0.79589635 99 72 71
-0.19733101 -0.21584043 -0.79348761 92 64 65
-0.19744837 -0.21573509 -0.79382694 93 65 67
-0.19752368 -0.21542871 -0.7939533 93 66 68
-0.19808887 -0.21550648 -0.7958113 98 72 75
-0.19831863 -0.21654911 -0.79695326 102 76 75
-0.19808961 -0.21517578 -0.79567939 98 72 76
-0.19811329 -0.21376614 -0.79504526 95 72 78
-0.19886765 -0.21360138 -0.79696196 96 82 82
-0.19808026 -0.21393345 -0.79504049 95 72 78
-0.19823092 -0.21562916 -0.79627794 99 74 76
-0.19845858 -0.21376093 -0.79595733 96 77 80
-0.19820762 -0.21966022 -0.79666197 137 121 123
-0.19812562 -0.21903788 -0.79639894 128 110 111
-0.19838364 -0.22065777 -0.79722929 151 140 143
-0.19737166 -0.21689214 -0.79395336 95 67 65
-0.1980489 -0.21825644 -0.79615438 118 97 97
-0.19751878 -0.21885477 -0.79464352 113 91 95
-0.19769278 -0.21978281 -0.79526657 124 105 112
-0.19804166 -0.22032635 -0.79627562 138 123 129
-0.19757621 -0.22000097 -0.79500222 122 102 111
-0.19668782 -0.22057751 -0.79339808 118 93 111
-0.19719189 -0.21929634 -0.79394925 109 84 93
-0.19681154 -0.21928994 -0.79336363 109 83 94
-0.19793025 -0.22261636 -0.79605627 129 111 122
-0.19792511 -0.22177458 -0.79604167 132 116 125
-0.19785443 -0.22224946 -0.79585797 128 110 121
-0.19800067 -0.22099234 -0.79623777 138 123 131
-0.19741379 -0.22186147 -0.79463702 118 95 111
-0.19757999 -0.22223279 -0.7950936 121 99 114
-0.19728895 -0.22178893 -0.79427171 116 90 108
-0.19751938 -0.22379784 -0.79474247 116 88 109
-0.19795103 -0.22392929 -0.7960186 125 104 119
-0.19700544 -0.22449768 -0.79351085 115 79 105
-0.19712433 -0.22175303 -0.79398918 117 91 110
-0.19708394 -0.22244491 -0.79385293 117 89 109
-0.1979937 -0.22561133 -0.79660457 125 103 118
-0.1976562 -0.22643332 -0.79603213 117 90 109
-0.1982398 -0.22488688 -0.79695559 130 112 124
-0.19786255 -0.22681768 -0.79685313 122 98 114
-0.19765203 -0.22700287 -0.79632211 117 90 109
-0.19730324 -0.22717635 -0.79489833 125 94 115
-0.19736506 -0.22771817 -0.79537421 126 96 116
-0.19731882 -0.22625408 -0.79468066 118 85 109
-0.19718409 -0.22629435 -0.79421306 122 90 112
-0.19722979 -0.22839272 -0.79500586 135 107 124
-0.19724004 -0.22516271 -0.79400343 113 78 104
-0.19791919 -0.23072621 -0.79716933 110 89 108
-0.19776626 -0.23071492 -0.79642552 116 94 113
-0.19781111 -0.23044862 -0.79678708 114 92 111
-0.19727637 -0.22878313 -0.79516041 135 106 125
-0.19760233 -0.23078069 -0.79594862 123 98 118
-0.19740067 -0.23102276 -0.79540539 130 103 124
-0.19750895 -0.23032781 -0.79571831 126 100 120
-0.1972598 -0.22925916 -0.79510719 136 106 126
-0.19691294 -0.23079503 -0.79461026 136 106 128
-0.19688611 -0.23148698 -0.79455024 136 106 129
-0.19673015 -0.22890286 -0.79386401 145 119 132
-0.19656464 -0.22911373 -0.79350907 147 122 134
-0.19680177 -0.22958955 -0.79435843 139 110 128
-0.19803798 -0.23245911 -0.7970351 106 87 108
-0.198073 -0.23269577 -0.79709107 108 88 108
-0.19801825 -0.23294415 -0.79690748 113 91 111
-0.1974972 -0.23449825 -0.79535693 142 108 129
-0.19763722 -0.23394305 -0.79575366 139 106 126
-0.19768275 -0.23569992 -0.79569221 145 108 128
-0.19740579 -0.2344649 -0.79513681 142 109 131
-0.19712602 -0.23580165 -0.79450685 149 112 135
-0.19640209 -0.23598126 -0.79367787 150 117 135
-0.19640754 -0.23340534 -0.79385334 140 109 131
-0.196288 -0.23491724 -0.79361629 146 114 133
-0.19715607 -0.23269856 -0.79484117 137 107 131
-0.19747764 -0.23689003 -0.79529977 145 109 127
-0.19775893 -0.23758551 -0.79619825 137 105 117
-0.1977922 -0.23774822 -0.7963289 136 104 115
-0.19778226 -0.23834917 -0.79648697 131 102 110
-0.19740176 -0.23743083 -0.79528183 142 109 125
-0.19762664 -0.23888205 -0.79627156 129 102 110
-0.19692701 -0.23890381 -0.79490882 149 117 132
-0.19711366 -0.23785248 -0.79486245 149 115 132
-0.19675486 -0.23961106 -0.79486793 150 120 132
-0.19657069 -0.23933627 -0.79449511 152 122 136
-0.19593115 -0.23836833 -0.79340631 156 126 142
-0.1966577 -0.23661397 -0.79397094 152 117 136
-0.19579157 -0.23973411 -0.79344428 159 131 146
-0.19773959 -0.24353109 -0.79724032 151 135 149
-0.19774874 -0.24150103 -0.79709375 133 113 118
-0.19733807 -0.24237341 -0.79637545 157 137 146
-0.1971198 -0.24251355 -0.79610628 160 141 148
-0.19502409 -0.24390768 -0.79357207 165 146 138
-0.19687934 -0.24207051 -0.79569805 156 134 139
-0.19711137 -0.2437039 -0.79632688 169 156 162
-0.19710954 -0.24364078 -0.79631209 168 155 161
-0.19673757 -0.24259536 -0.79561049 160 140 144
-0.19631711 -0.24153733 -0.79481286 153 127 129
-0.19714023 -0.24025255 -0.79566932 145 115 123
-0.19569045 -0.24232034 -0.7940973 159 135 135
-0.19539607 -0.2420285 -0.79354656 162 138 141
-0.19623899 -0.24549374 -0.7961427 155 142 142
-0.19667985 -0.24450052 -0.79607314 167 155 158
-0.19648927 -0.24509734 -0.79621446 160 148 149
-0.1954041 -0.24437815 -0.79428381 165 149 143
-0.19662189 -0.24487977 -0.79624748 163 151 153
-0.19613409 -0.24637476 -0.79658759 145 133 131
-0.19490509 -0.24587512 -0.79388499 138 117 116
-0.19492555 -0.24632108 -0.79402494 130 110 110
-0.19527876 -0.24625669 -0.79519713 142 126 121
-0.19499195 -0.24745516 -0.79442906 112 90 96
-0.19499317 -0.24734013 -0.79441464 114 93 97
-0.19576542 -0.24872702 -0.79717952 131 120 115
-0.19551727 -0.25119907 -0.7965399 148 141 136
-0.19502404 -0.25190318 -0.79469019 146 133 142
-0.19565994 -0.25175619 -0.79717952 155 153 140
-0.19526312 -0.25068557 -0.79546636 139 127 132
-0.1956486 -0.2498282 -0.79686981 139 129 124
-0.19485109 -0.24955331 -0.79399937 116 95 108
-0.19492264 -0.25054979 -0.79420394 130 112 127
-0.19471443 -0.24909626 -0.79355788 106 83 97
-0.19472855 -0.24873386 -0.7936179 102 78 91
-0.19509363 -0.24811186 -0.79486203 105 84 91
-0.19534461 -0.24850139 -0.79568863 118 100 104
-0.19519015 -0.25541192 -0.79622728 119 100 109
-0.19554405 -0.25290966 -0.79699075 146 140 133
-0.19487479 -0.25456402 -0.79482031 122 104 108
-0.19518098 -0.2537275 -0.79579455 134 121 120
-0.19521236 -0.25376368 -0.79592317 134 122 120
-0.19474292 -0.25450253 -0.79428816 120 100 108
-0.19551754 -0.25208101 -0.79667979 153 149 140
-0.19486812 -0.2520071 -0.79409653 143 128 142
-0.19509496 -0.25197789 -0.79498374 147 136 142
-0.19460109 -0.25362894 -0.79348838 125 104 121
-0.19451734 -0.25547409 -0.79366493 108 84 96
-0.19493356 -0.25806087 -0.79581821 125 98 111
-0.19509158 -0.25839958 -0.79660004 116 91 99
-0.19448242 -0.25945464 -0.79432738 135 99 118
-0.19519633 -0.25789091 -0.79688805 115 92 100
-0.19517706 -0.25828046 -0.79692805 114 90 96
-0.19496152 -0.25709265 -0.79567546 126 99 115
-0.19451594 -0.25687116 -0.79393131 116 87 103
-0.19464438 -0.25708407 -0.7944603 121 92 108
-0.19483852 -0.25640434 -0.7950834 116 91 105
-0.19459218 -0.2564387 -0.79414678 113 85 100
-0.19457035 -0.25613523 -0.79400975 109 82 97
-0.19410022 -0.26340571 -0.79540247 118 102 103
-0.1936435 -0.26341841 -0.79442453 113 98 98
-0.19400464 -0.26057711 -0.79340249 136 101 120
-0.19435774 -0.26145771 -0.79471117 134 105 119
-0.19421545 -0.26064178 -0.7938866 138 103 122
-0.1943846 -0.26230207 -0.79531181 129 105 114
-0.19439813 -0.26264569 -0.79556167 127 105 112
-0.19480166 -0.26185584 -0.79636621 125 101 107
-0.19486172 -0.26230454 -0.79674667 123 102 106
-0.19460633 -0.26084805 -0.79525322 130 100 113
-0.19470699 -0.26030427 -0.7955336 125 94 105
-0.19458237 -0.26038325 -0.79502261 130 98 112
-0.19328541 -0.26322582 -0.79359257 109 94 95
-0.19366489 -0.26589251 -0.79708475 142 139 123
-0.19381461 -0.26440454 -0.79575115 123 113 107
-0.19369642 -0.26404718 -0.79509842 117 105 101
-0.19425124 -0.26424757 -0.79651821 126 114 110
-0.2066071 -0.18539564 -0.81079388 141 117 123
-0.20719202 -0.18759108 -0.8127414 179 153 165
-0.20700485 -0.18790701 -0.81172973 178 153 164
-0.20678058 -0.18924157 -0.81014144 173 149 159
-0.20714577 -0.1890146 -0.81196231 172 149 160
-0.20695932 -0.18726207 -0.81176752 181 155 166
-0.20665818 -0.18730223 -0.81033069 165 140 149
-0.20689949 -0.18588303 -0.81203073 177 150 160
-0.20654665 -0.18583968 -0.81038898 143 118 124
-0.20661081 -0.18592198 -0.81065792 149 125 131
-0.20659636 -0.18799314 -0.8097648 165 140 149
-0.20639972 -0.18669321 -0.80935824 136 112 117
-0.20626585 -0.19243799 -0.81025982 180 159 171
-0.2070345 -0.19120078 -0.81231058 172 147 158
-0.20679772 -0.19159232 -0.81168181 174 151 162
-0.20679292 -0.19146176 -0.81163007 175 151 163
-0.20654149 -0.19291809 -0.81125504 176 151 161
-0.20734657 -0.18974467 -0.81287497 170 146 158
-0.20719022 -0.18956389 -0.8121056 170 147 159
-0.20601065 -0.19277793 -0.80955595 182 163 176
-0.2065814 -0.19130562 -0.81086808 177 156 168
-0.20618565 -0.1923528 -0.80998313 181 161 173
-0.20665354 -0.18953143 -0.8095302 172 149 159
-0.2051782 -0.1968793 -0.81014246 187 163 160
-0.20644422 -0.19425923 -0.81287968 176 148 153
-0.20509747 -0.19651107 -0.81216431 188 166 166
-0.2066455 -0.1941047 -0.81223971 174 144 149
-0.20524906 -0.19669425 -0.8104533 186 162 160
-0.20586784 -0.1946578 -0.8099615 182 158 164
-0.20562626 -0.19584 -0.80983084 183 158 159
-0.20641658 -0.19366498 -0.81115049 177 151 159
-0.20597501 -0.1949378 -0.81044352 180 155 159
-0.20587419 -0.19570115 -0.81053126 180 153 154
-0.20196529 -0.19710223 -0.81139678 73 47 50
-0.20482422 -0.19645976 -0.8126232 179 157 158
-0.20242491 -0.19705333 -0.81137085 90 64 67
-0.20411804 -0.19704877 -0.81055468 152 128 127
-0.20469366 -0.19679704 -0.81130368 174 151 150
-0.2017556 -0.19601879 -0.81285369 46 36 34
-0.20117612 -0.19684577 -0.81167287 36 15 18
-0.20348674 -0.19654177 -0.81241894 126 105 106
-0.20480323 -0.1976441 -0.80905259 184 160 152
-0.20282745 -0.19962631 -0.80965561 167 134 109
-0.20299703 -0.19974343 -0.80944377 166 133 113
-0.20450491 -0.19789718 -0.80918229 182 156 146
-0.20255965 -0.19760363 -0.81035471 104 77 74
-0.20184329 -0.20002556 -0.81015551 146 111 82
-0.20267136 -0.19882342 -0.8100214 143 112 95
-0.20357351 -0.19745551 -0.8098886 137 112 109
-0.20303738 -0.19877185 -0.80985272 155 124 107
-0.20143646 -0.19814885 -0.81078422 78 49 42
-0.20459628 -0.20398399 -0.80902594 186 168 146
-0.20418277 -0.20409977 -0.80955362 186 166 136
-0.20322365 -0.2029594 -0.80963057 173 146 116
-0.20349599 -0.20292795 -0.80937445 173 145 122
-0.20234981 -0.20453335 -0.81142771 136 93 82
-0.20167112 -0.20295654 -0.81097281 141 99 74
-0.20187178 -0.20262796 -0.81058168 151 112 82
-0.20323688 -0.20336302 -0.8098855 174 149 115
-0.20446503 -0.20495182 -0.80987245 183 163 138
-0.20395313 -0.20429933 -0.80988431 179 157 129
-0.20240204 -0.20438032 -0.81128126 140 98 84
-0.2031502 -0.20320384 -0.80985528 175 148 114
-0.20633706 -0.20852281 -0.81245679 61 60 42
-0.20512974 -0.20686087 -0.81243062 140 136 90
-0.20508236 -0.20735109 -0.81182724 113 109 73
-0.20526257 -0.20828649 -0.81108588 62 61 41
-0.20297465 -0.20712772 -0.81048167 62 35 34
-0.20402546 -0.20814052 -0.80919361 48 39 34
-0.20254406 -0.20515473 -0.81159103 131 87 81
-0.20176549 -0.20533282 -0.81219882 104 53 54
-0.2028053 -0.20705575 -0.81065524 61 32 32
-0.20405674 -0.20618746 -0.8098954 127 108 93
-0.20350322 -0.20524476 -0.81072664 151 120 105
-0.2050622 -0.20516646 -0.80939066 192 179 151
-0.20455953 -0.20752189 -0.81116462 99 93 62
-0.20439161 -0.20874119 -0.80969 29 25 18
-0.2045726 -0.20635691 -0.81270188 152 141 95
-0.20230921 -0.20562921 -0.81277037 114 72 60
-0.2042257 -0.20769194 -0.81080973 80 72 49
-0.20139739 -0.20545404 -0.81264275 93 39 42
-0.20271307 -0.20622584 -0.81214416 99 65 53
-0.20233306 -0.20613346 -0.8121165 92 52 46
-0.20216067 -0.20573951 -0.81256694 104 61 53
-0.20689707 -0.20905206 -0.81284249 45 44 33
-0.20642386 -0.20906395 -0.81213248 40 39 30
-0.20583169 -0.21028993 -0.81191522 84 81 77
-0.20554529 -0.21020465 -0.81143427 78 75 71
-0.20586807 -0.21062955 -0.81215858 99 95 92
-0.20521562 -0.21200378 -0.81180984 139 133 135
-0.20470063 -0.21172725 -0.81088793 111 106 107
-0.203595 -0.21161389 -0.80937487 79 75 74
-0.20455126 -0.21092078 -0.81029832 78 75 73
-0.2034943 -0.21240723 -0.80962831 105 100 100
-0.20440587 -0.21174254 -0.8105067 104 99 100
-0.20432743 -0.21206917 -0.81056225 114 109 110
-0.20352098 -0.21142861 -0.80924809 73 68 67
