ply
format ascii 1.0
comment PCL generated
element vertex 1015
property float x
property float y
property float z
property uchar red
property uchar green
property uchar blue
element camera 0
property float view_px
property float view_py
property float view_pz
property float x_axisx
property float x_axisy
property float x_axisz
property float y_axisx
property float y_axisy
property float y_axisz
property float z_axisx
property float z_axisy
property float z_axisz
property float focal
property float scalex
property float scaley
property float centerx
property float centery
property int viewportx
property int viewporty
property float k1
property float k2
end_header
-0.26696762 0.73681688 -0.87920576 215 198 193
-0.26493409 0.73747772 -0.87687933 203 181 178
-0.26471847 0.73693156 -0.87698644 202 180 178
-0.26591489 0.73756206 -0.87776178 208 189 184
-0.26638407 0.737773 -0.87808651 211 193 187
-0.26679757 0.73701042 -0.87891388 214 197 191
-0.26647627 0.73776931 -0.87817609 211 194 187
-0.2640329 0.73847735 -0.8763184 195 176 168
-0.26421705 0.73928976 -0.87633312 195 179 167
-0.26525387 0.73808414 -0.87692094 204 183 178
-0.26418871 0.7378366 -0.87644678 197 177 171
-0.26675081 0.73949623 -0.87749439 211 194 185
-0.26391637 0.73786062 -0.87631792 195 175 169
-0.26339236 0.73739529 -0.8760621 193 172 168
-0.26307705 0.73664773 -0.87592131 193 171 169
-0.26328978 0.7390787 -0.87584805 190 174 162
-0.26254949 0.73839682 -0.87540054 187 169 159
-0.26269814 0.73853499 -0.87549073 188 170 159
-0.26400584 0.73530108 -0.87721115 198 173 174
-0.26393706 0.73528808 -0.87715298 197 172 174
-0.26574507 0.73494321 -0.87905514 207 187 185
-0.26480022 0.73429286 -0.87851113 201 178 179
-0.26446554 0.73306614 -0.87885833 198 174 176
-0.26510331 0.73347217 -0.87924337 202 179 180
-0.26439148 0.73375326 -0.87841576 199 174 176
-0.26379707 0.73422682 -0.8770538 198 173 175
-0.26395959 0.73389751 -0.87752098 198 173 175
-0.26374644 0.73306799 -0.87715143 198 174 176
-0.26376888 0.73252249 -0.8773123 198 174 176
-0.26316118 0.73385131 -0.87642658 196 172 174
-0.26278752 0.73395789 -0.87612158 195 171 173
-0.26337025 0.73490858 -0.87638193 196 172 173
-0.26307282 0.73399287 -0.87633204 196 171 174
-0.26216429 0.73601961 -0.87539309 191 168 167
-0.26240185 0.73561513 -0.87560141 192 169 169
-0.26204914 0.73518008 -0.87542796 191 168 168
-0.26438513 0.72918373 -0.87894911 205 184 186
-0.26411086 0.73110813 -0.87821633 201 178 180
-0.26411501 0.73094118 -0.87823111 202 179 181
-0.26425782 0.72870529 -0.87876391 206 185 187
-0.26370385 0.73158449 -0.8772732 200 177 179
-0.26374048 0.73045933 -0.87750602 203 180 182
-0.2635867 0.73069501 -0.87727487 202 179 181
-0.26319435 0.72944993 -0.87715876 202 180 182
-0.26225483 0.72927928 -0.87647676 198 174 177
-0.26227421 0.730407 -0.87632936 196 171 174
-0.26358089 0.72893995 -0.87752259 205 184 186
-0.26259398 0.73109561 -0.87647039 196 172 174
-0.26201066 0.7309925 -0.87604189 194 170 173
-0.26157859 0.73148912 -0.87563801 192 168 172
-0.26372954 0.72767913 -0.87808752 207 186 189
-0.26390204 0.72659063 -0.8788439 208 186 190
-0.26400363 0.72683799 -0.87894577 208 186 190
-0.26340815 0.72551954 -0.87849873 208 184 190
-0.26218286 0.72484869 -0.87741703 203 179 185
-0.26257658 0.726345 -0.87727976 203 181 185
-0.26250103 0.72699392 -0.87695175 203 181 184
-0.26276681 0.72608346 -0.87758613 204 182 186
-0.26254374 0.72546208 -0.8775782 204 181 186
-0.26320958 0.72679114 -0.87780088 206 184 187
-0.26224259 0.72667754 -0.87678981 202 180 183
-0.26184082 0.72681886 -0.87641358 200 177 180
-0.26070824 0.72596383 -0.87563175 195 172 176
-0.2604433 0.72541165 -0.87547761 195 171 175
-0.26039284 0.72509086 -0.87546587 195 172 175
-0.26102364 0.72789818 -0.87571108 195 170 174
-0.2601065 0.72307801 -0.87548274 191 165 174
-0.25987232 0.72199851 -0.87539554 188 160 172
-0.26339447 0.7245928 -0.87883103 208 184 191
-0.26062635 0.72425133 -0.87586677 196 172 177
-0.26175451 0.72360575 -0.87719703 199 174 183
-0.26158977 0.7226361 -0.87718582 197 169 181
-0.26112467 0.72167468 -0.87718129 192 163 177
-0.26124921 0.72109842 -0.87807232 191 161 175
-0.26261473 0.72326589 -0.87840599 202 176 185
-0.2612589 0.72173387 -0.8773852 193 164 177
-0.26041952 0.72080219 -0.87673461 187 157 172
-0.26213118 0.72262299 -0.87814921 199 172 182
-0.26052225 0.71993834 -0.8767823 189 161 173
-0.2603963 0.72053993 -0.87674093 187 157 172
-0.26052058 0.72035909 -0.87692696 188 159 173
-0.26155832 0.71903872 -0.87854737 195 171 176
-0.26156145 0.7182337 -0.87827051 197 176 177
-0.26179942 0.71951216 -0.87919831 194 169 176
-0.26038811 0.71828812 -0.87671691 189 162 171
-0.26015505 0.71930259 -0.87625283 188 159 171
-0.26027322 0.71951699 -0.87635416 188 160 172
-0.261787 0.71688795 -0.87864065 200 181 178
-0.25998789 0.7186265 -0.87617797 187 157 170
-0.25874135 0.71701151 -0.87544519 181 148 163
-0.25928271 0.71889979 -0.87550247 183 151 167
-0.25930291 0.71928579 -0.87544554 183 152 168
-0.26060998 0.7164852 -0.87731564 192 166 172
-0.26009074 0.71638942 -0.87671566 188 159 169
-0.26064619 0.71519333 -0.87760854 193 167 174
-0.26197097 0.71501374 -0.87922126 202 184 182
-0.26183566 0.7145766 -0.87914461 201 183 182
-0.26164526 0.71410733 -0.87900853 200 181 181
-0.2613748 0.713265 -0.87881029 199 179 181
-0.26012319 0.71403462 -0.8769111 192 169 174
-0.26013851 0.71537763 -0.87687105 190 163 171
-0.26111841 0.71362275 -0.87841189 198 176 179
-0.26070073 0.71325207 -0.8778075 196 176 179
-0.25879905 0.71289212 -0.87577951 189 170 168
-0.25953665 0.71543247 -0.87615895 187 160 168
-0.25953218 0.71297747 -0.87627095 192 171 173
-0.25871614 0.71582472 -0.87553871 183 154 163
-0.25942704 0.71675032 -0.87600034 184 153 165
-0.26066831 0.71020019 -0.87877059 197 168 178
-0.26124224 0.71205014 -0.8789413 200 177 181
-0.26066113 0.71013635 -0.87878346 197 167 178
-0.26094761 0.71145695 -0.87872189 198 174 180
-0.26068524 0.71101791 -0.87849355 197 171 178
-0.25995669 0.71054864 -0.87747025 197 171 177
-0.26001269 0.71108323 -0.87741095 195 170 177
-0.26030406 0.71006274 -0.87823427 197 167 177
-0.25943023 0.71025044 -0.87697774 196 172 176
-0.25944516 0.70997936 -0.87706912 197 172 177
-0.2592372 0.70928305 -0.87712693 197 171 176
-0.25946578 0.71051496 -0.87692451 196 172 176
-0.25902146 0.71004742 -0.87674433 194 170 174
-0.25850677 0.71239847 -0.8757121 189 169 167
-0.25768104 0.71124369 -0.8754589 187 167 163
-0.25822359 0.71229643 -0.87554765 188 168 165
-0.26017982 0.70854235 -0.87837857 198 168 178
-0.26065543 0.70852649 -0.87922823 197 163 177
-0.26020527 0.70823193 -0.8784554 197 167 177
-0.25989553 0.7074033 -0.87790614 197 168 175
-0.26011807 0.70559049 -0.87842965 192 163 170
-0.25971588 0.70678496 -0.8775816 196 168 173
-0.25887519 0.70706952 -0.87695909 190 162 169
-0.25944769 0.70685637 -0.87738317 194 166 172
-0.25690904 0.70508993 -0.87553024 173 145 153
-0.25938693 0.70784652 -0.87732828 196 168 174
-0.25766465 0.707196 -0.87607849 184 157 163
-0.25839862 0.70873791 -0.87661225 193 167 171
-0.25687543 0.706725 -0.87550938 178 152 157
-0.25673962 0.70512432 -0.87540531 172 144 152
-0.25798133 0.7067979 -0.87630451 184 156 163
-0.26009855 0.70250642 -0.87881643 194 171 168
-0.25992599 0.70403582 -0.87817156 193 167 168
-0.25989744 0.70331156 -0.87814254 194 170 169
-0.25987375 0.70358366 -0.87805259 194 170 169
-0.25983503 0.70286709 -0.87793982 195 173 169
-0.25783989 0.70261008 -0.87646395 185 160 164
-0.25737205 0.70128584 -0.87620062 184 162 164
-0.2585102 0.70183599 -0.87691993 190 169 167
-0.25931993 0.70290345 -0.87741172 193 170 168
-0.25950792 0.70290929 -0.87753308 194 172 169
-0.25898811 0.70122343 -0.8772468 193 175 168
-0.25687706 0.70468366 -0.87555188 174 146 154
-0.25742507 0.70409536 -0.87602299 179 152 159
-0.2583392 0.70380431 -0.87673002 186 159 165
-0.25926396 0.70497376 -0.87727791 189 161 166
-0.25758246 0.70311999 -0.87625057 183 156 163
-0.25991431 0.69862169 -0.87903178 198 182 172
-0.2600612 0.70064032 -0.87893212 196 178 169
-0.25785729 0.70116973 -0.87651795 187 166 165
-0.25710195 0.69963592 -0.87625694 183 155 160
-0.25753731 0.70008224 -0.87647533 185 160 162
-0.25625694 0.69837058 -0.87588573 179 144 155
-0.25782287 0.69929808 -0.87676066 188 160 161
-0.25646877 0.69900024 -0.87593758 180 148 157
-0.25925565 0.69785035 -0.87843615 196 177 170
-0.25956714 0.70089054 -0.87767828 197 179 170
-0.25698835 0.69830292 -0.87637925 183 150 157
-0.25777602 0.6985535 -0.87695706 187 159 161
-0.25755593 0.69811022 -0.87692082 186 157 160
-0.25951883 0.69932562 -0.87816256 197 180 171
-0.25877768 0.69993919 -0.877334 193 170 166
-0.25565872 0.69886476 -0.87542081 176 142 154
-0.25841591 0.69451374 -0.87795949 195 167 174
-0.25614783 0.69487548 -0.87631983 179 150 157
-0.25688106 0.69470167 -0.876858 185 156 163
-0.25734758 0.69448662 -0.87721527 188 160 166
-0.25843573 0.69363308 -0.87809849 195 171 176
-0.25804672 0.69428813 -0.87773305 193 166 172
-0.25921416 0.69356096 -0.87865388 201 177 181
-0.25913417 0.69719154 -0.8785302 195 176 170
-0.25890046 0.69636375 -0.87833554 195 173 171
-0.25803098 0.69678932 -0.87760407 190 163 165
-0.25784287 0.69680637 -0.877446 189 161 164
-0.25818866 0.69596583 -0.87773824 192 164 169
-0.25654095 0.69712168 -0.87635136 181 145 156
-0.25850424 0.6957624 -0.87800384 194 168 171
-0.25560397 0.69536871 -0.87584132 177 147 154
-0.25516853 0.69396567 -0.87568855 176 154 155
-0.25514525 0.69525951 -0.87549496 176 148 152
-0.25973749 0.69320947 -0.87909859 205 182 185
-0.25822559 0.69011486 -0.87889147 193 172 170
-0.25908411 0.69204694 -0.87893188 200 177 179
-0.25861052 0.69075286 -0.87901723 196 175 174
-0.2590425 0.69153613 -0.87912667 199 178 178
-0.25704098 0.68955213 -0.87784404 184 161 162
-0.25747001 0.69197375 -0.87754911 188 164 168
-0.25732028 0.69257003 -0.87740642 187 164 168
-0.25611275 0.69130248 -0.87664127 178 154 158
-0.25785455 0.69301713 -0.87775218 191 168 172
-0.25630125 0.69015336 -0.87684625 178 153 159
-0.25720781 0.69166338 -0.8773852 186 161 166
-0.25756139 0.6913538 -0.87765247 188 163 169
-0.25571835 0.69148523 -0.87633985 176 151 156
-0.25557986 0.69021755 -0.87630999 174 148 155
-0.2550087 0.69012386 -0.87586069 172 145 152
-0.25444877 0.69016641 -0.87540948 171 143 150
-0.25569427 0.69302016 -0.87622285 177 154 157
-0.25722763 0.68818957 -0.87826896 187 165 163
-0.25785226 0.68876004 -0.87888378 191 171 167
-0.2577109 0.68704307 -0.87895995 191 172 165
-0.25732818 0.68674737 -0.87857592 188 168 163
-0.2574383 0.68735713 -0.87861532 189 169 164
-0.2558699 0.68879586 -0.87672555 174 148 154
-0.25548741 0.68727034 -0.87670648 172 143 149
-0.25560805 0.68754143 -0.87675488 173 144 150
-0.2549355 0.68903273 -0.87591505 171 142 150
-0.25452331 0.68720764 -0.87589121 166 136 143
-0.25518757 0.68894833 -0.8761301 171 143 151
-0.25744489 0.68385321 -0.87926632 193 170 167
-0.25780877 0.68548274 -0.87928754 193 175 165
-0.27688947 0.74494648 -0.89709812 217 197 189
-0.27744606 0.74748725 -0.89876443 202 179 174
-0.27707773 0.74432534 -0.89855915 219 195 184
-0.27693513 0.74521905 -0.89719588 216 196 188
-0.27700701 0.74572599 -0.89730269 213 193 186
-0.27713811 0.74448627 -0.89880955 218 194 183
-0.27667347 0.74523944 -0.89560729 219 202 196
-0.27700076 0.74803585 -0.89527643 215 198 195
-0.27696311 0.74794704 -0.89509857 216 200 196
-0.27698639 0.74694282 -0.89619076 213 195 191
-0.27721465 0.74720621 -0.8975243 206 186 182
-0.27548093 0.7424776 -0.89603651 222 206 203
-0.2754088 0.74181932 -0.89766306 218 200 197
-0.2755163 0.74271989 -0.8954801 224 208 206
-0.27591008 0.74300033 -0.89652497 222 204 199
-0.27577189 0.7430858 -0.89553648 224 207 204
-0.27688709 0.74408412 -0.89780927 221 199 188
-0.27442917 0.74109846 -0.89627916 216 199 197
-0.2745001 0.74088019 -0.89741296 212 194 192
-0.27445847 0.74068218 -0.8979423 210 191 189
-0.27379763 0.74026823 -0.89634508 212 196 193
-0.27466875 0.74103844 -0.89760518 212 194 192
-0.27520627 0.74224681 -0.89570612 221 205 204
-0.27318203 0.73648304 -0.89725894 210 191 191
-0.27408728 0.73967761 -0.89836603 207 187 186
-0.2735444 0.73738813 -0.89810973 208 189 189
-0.2739976 0.73918051 -0.89845335 207 188 186
-0.2736868 0.73828346 -0.89785528 208 189 188
-0.27400637 0.74006993 -0.89760864 209 191 188
-0.27344522 0.73871577 -0.89624035 212 193 192
-0.27339852 0.73862946 -0.89610153 212 194 193
-0.27322972 0.73841417 -0.895509 213 196 195
-0.27278545 0.73662853 -0.89509797 213 194 195
-0.27293998 0.73411483 -0.89782828 213 197 196
-0.27254847 0.73281419 -0.89669818 217 203 201
-0.2724328 0.73304188 -0.89574867 217 203 202
-0.27297947 0.73457623 -0.89760989 212 196 195
-0.27296159 0.73426896 -0.89780766 213 197 195
-0.27286586 0.73284084 -0.89864868 216 200 198
-0.27268961 0.73574293 -0.8953011 214 196 196
-0.2730166 0.73576462 -0.89694595 211 193 193
-0.27245206 0.73324114 -0.89568138 217 203 201
-0.27309063 0.73625475 -0.89701086 210 192 192
-0.27306953 0.73537731 -0.89745998 211 194 193
-0.27247515 0.73446709 -0.89502174 216 200 200
-0.27155864 0.72868186 -0.89820766 216 198 198
-0.27183786 0.73113525 -0.89493078 219 204 204
-0.27155668 0.72961026 -0.89609599 218 201 202
-0.27166274 0.72904742 -0.89816266 216 199 199
-0.27200571 0.73003697 -0.89838642 216 200 199
-0.27212551 0.73087609 -0.89748812 217 202 200
-0.2722798 0.73217279 -0.89590764 219 205 203
-0.27234393 0.73193824 -0.89676696 218 204 202
-0.27235562 0.73170638 -0.89729422 217 203 201
-0.2723453 0.73127335 -0.89807862 217 201 199
-0.27147979 0.72964364 -0.89546996 218 202 203
-0.27108997 0.72856176 -0.89557159 216 197 199
-0.27144235 0.72714931 -0.89851612 214 198 196
-0.27124742 0.72716737 -0.89726645 214 197 196
-0.27137226 0.72742504 -0.89794248 214 197 197
-0.2710281 0.72811723 -0.89546424 215 197 199
-0.27119079 0.72656399 -0.89717323 213 197 195
-0.2710273 0.72590256 -0.8961637 212 199 196
-0.27101442 0.72577226 -0.89610219 212 199 196
-0.27105621 0.72752953 -0.89589727 214 197 197
-0.27099502 0.72634035 -0.8957777 213 198 197
-0.27091488 0.72693366 -0.8949694 213 198 198
-0.27019399 0.72091144 -0.89657116 207 191 193
-0.27043906 0.72098947 -0.89734542 208 191 193
-0.27020904 0.7209093 -0.89662147 207 191 193
-0.27036378 0.7215023 -0.89690018 208 192 192
-0.27051362 0.72137624 -0.89744079 208 192 193
-0.27078167 0.72444046 -0.89501899 210 201 196
-0.27092841 0.72386879 -0.89749235 210 197 192
-0.27069744 0.72406232 -0.89523333 210 200 195
-0.27035573 0.72293282 -0.8951658 209 197 194
-0.27048981 0.72312576 -0.89577109 209 196 194
-0.27053115 0.71979845 -0.89796293 211 194 196
-0.27049679 0.71836108 -0.89750397 211 191 193
-0.27103922 0.7171483 -0.8981992 207 178 183
-0.27020651 0.71681798 -0.89653134 214 192 192
-0.2706573 0.71831572 -0.89779556 210 188 191
-0.27049521 0.71893734 -0.89765888 211 192 194
-0.26999214 0.71845788 -0.89656842 215 200 199
-0.26977995 0.71841854 -0.89588213 215 200 199
-0.26972419 0.72024298 -0.89522839 208 192 193
-0.26969799 0.72006667 -0.89518791 209 193 193
-0.26954824 0.71790403 -0.89525431 217 202 200
-0.26959836 0.71866238 -0.89522314 214 199 197
-0.27094269 0.71581262 -0.8978644 205 176 179
-0.27056307 0.71503556 -0.8970989 207 181 181
-0.27062705 0.71368492 -0.89859545 199 179 174
-0.27003825 0.7136476 -0.89632994 207 187 182
-0.27049285 0.71311921 -0.89859337 198 181 174
-0.26950547 0.7161575 -0.89515454 218 202 198
-0.26986709 0.71598411 -0.89582777 214 195 193
-0.27086219 0.7157101 -0.89769435 206 177 180
-0.2696422 0.7157439 -0.89538562 216 199 195
-0.26957357 0.7151612 -0.89521635 215 198 193
-0.26982462 0.71588624 -0.89574075 215 196 193
-0.26972616 0.7091856 -0.89789325 214 196 194
-0.26990691 0.7109682 -0.89709508 206 191 185
-0.26962095 0.71014833 -0.8961373 211 195 191
-0.26987571 0.71035272 -0.89757448 209 192 188
-0.26993653 0.7103076 -0.89802188 209 192 188
-0.26995385 0.71056694 -0.89784712 208 191 187
-0.27003676 0.71192956 -0.89727432 204 188 181
-0.26968947 0.71184856 -0.89593899 208 192 186
-0.26936886 0.71028256 -0.89509696 214 198 194
-0.27034175 0.71260154 -0.89828962 199 183 175
-0.27041677 0.7128669 -0.89851314 198 182 174
-0.26957163 0.70580226 -0.8982715 213 200 195
-0.26941422 0.70550096 -0.89790595 213 200 195
-0.2690222 0.70646316 -0.89696038 213 199 195
-0.26948103 0.70642245 -0.89804476 213 199 195
-0.26966879 0.70702809 -0.89847571 214 198 195
-0.26932585 0.70788842 -0.89749944 214 197 195
-0.2684527 0.70604366 -0.89515871 213 200 195
-0.26819372 0.70522213 -0.89496464 212 200 195
-0.26953846 0.70853525 -0.89770907 214 197 195
-0.26901671 0.70744544 -0.89628744 214 199 196
-0.26933202 0.70850199 -0.89642125 215 199 196
-0.26910207 0.70162219 -0.89833665 214 202 195
-0.26913759 0.70198584 -0.89785987 215 201 195
-0.2688697 0.70127642 -0.89602923 217 200 197
-0.26942432 0.70331168 -0.89830655 214 201 195
-0.26943317 0.70363462 -0.89756787 215 200 196
-0.26869053 0.70178443 -0.89496499 217 200 197
-0.26905414 0.70350879 -0.89647329 215 200 196
-0.26879415 0.70279539 -0.89559054 216 200 196
-0.26892811 0.70216858 -0.89567071 217 200 197
-0.26841077 0.70420891 -0.89521754 213 200 195
-0.26916659 0.70495319 -0.89728284 213 200 195
-0.26780483 0.69738352 -0.89619094 224 209 203
-0.26862538 0.69764322 -0.89793903 223 206 201
-0.26825151 0.69807732 -0.89662397 223 206 202
-0.26865974 0.70016485 -0.89561689 220 202 199
-0.26830196 0.69844085 -0.89639884 223 205 201
-0.26839653 0.69894356 -0.89614731 222 204 200
-0.26890892 0.69916815 -0.89832199 219 204 198
-0.26902002 0.70097858 -0.89853913 214 202 195
-0.26904589 0.70110571 -0.89880568 214 203 195
-0.2688418 0.70067126 -0.89628708 218 201 197
-0.26879022 0.70050669 -0.89569026 219 201 198
-0.26850536 0.69719642 -0.89802897 223 207 201
-0.26807165 0.69451094 -0.89800233 196 189 177
-0.26768866 0.696859 -0.89617282 220 206 199
-0.268282 0.6958735 -0.89799225 210 198 189
-0.26799521 0.69448298 -0.89782315 198 191 179
-0.2677038 0.69338703 -0.89749414 214 204 192
-0.26730162 0.69485271 -0.89610082 221 205 198
-0.26749155 0.69493932 -0.89643764 222 208 200
-0.26752457 0.69566178 -0.89623553 223 209 201
-0.2672188 0.69685626 -0.89529365 222 205 201
-0.26771295 0.69244409 -0.89825445 215 206 195
-0.26740217 0.69134456 -0.89848417 223 212 205
-0.26702112 0.69226146 -0.89702863 220 203 198
-0.26664475 0.69092667 -0.89741892 219 200 201
-0.2668933 0.69123721 -0.89764065 220 204 201
-0.26671004 0.69087803 -0.89758658 220 202 201
-0.26632342 0.6909678 -0.89635128 216 196 196
-0.26645735 0.69076836 -0.89694762 218 198 198
-0.2663497 0.69168967 -0.89591926 215 193 194
-0.26586014 0.69054657 -0.89508981 213 191 190
-0.26658961 0.69034427 -0.89770055 220 201 202
-0.26646841 0.69099462 -0.8968218 218 197 198
-0.26576027 0.68596119 -0.89730465 211 198 189
-0.26599172 0.68680805 -0.89764631 214 200 194
-0.26577127 0.68594724 -0.89739156 211 198 189
-0.26610544 0.68725497 -0.89777398 215 201 196
-0.26628354 0.68781376 -0.89815784 217 203 199
-0.26565462 0.688097 -0.89551866 211 194 193
-0.26638839 0.68936116 -0.89768624 219 202 202
-0.26550451 0.68732154 -0.89520264 210 193 191
-0.26546443 0.68674982 -0.89520812 209 194 192
-0.2660163 0.6882959 -0.89669174 215 199 198
-0.26573795 0.68900478 -0.8955763 213 194 193
-0.25592744 0.68723118 -0.89847684 53 26 28
-0.25718379 0.68555808 -0.8975684 95 75 74
-0.25641969 0.68663621 -0.89819258 68 44 45
-0.2560412 0.68680584 -0.89807016 61 36 38
-0.2654711 0.68165201 -0.89737642 205 178 179
-0.2656922 0.68386883 -0.89806634 209 190 182
-0.2655963 0.68294525 -0.89776331 208 185 181
-0.2656084 0.6835559 -0.89775336 209 188 182
-0.26525694 0.68197054 -0.89646763 207 178 181
-0.2657505 0.68372262 -0.89831954 208 190 182
-0.26558149 0.68509126 -0.89703423 209 195 186
-0.2656959 0.68536484 -0.89756453 210 197 186
-0.26528507 0.68380398 -0.89604831 209 187 186
-0.26519433 0.68286246 -0.89611363 209 182 184
-0.26506123 0.68326598 -0.89501256 208 183 186
-0.26545539 0.68423992 -0.89681852 210 190 185
-0.26537839 0.68001932 -0.89808142 207 187 176
-0.26487476 0.67819065 -0.89668399 212 197 177
-0.26516598 0.67924815 -0.89656281 212 196 180
-0.26568928 0.68114817 -0.89862806 204 182 176
-0.26498982 0.67860848 -0.89856082 205 187 171
-0.265264 0.6811493 -0.8965922 208 181 181
-0.26511467 0.68036795 -0.89608079 210 187 181
-0.26488191 0.67972326 -0.89521003 213 191 183
-0.26525846 0.68129492 -0.89655054 207 180 181
-0.26567492 0.68154824 -0.89822483 205 180 178
-0.26444685 0.67497355 -0.89774227 204 185 170
-0.26455083 0.67669207 -0.89790237 206 188 171
-0.26430637 0.6740458 -0.89713871 204 185 172
-0.26462176 0.67546421 -0.89867854 201 184 165
-0.26453334 0.6745075 -0.89840221 200 183 166
-0.26425633 0.67400706 -0.89684266 205 185 174
-0.26473626 0.67767292 -0.89523935 217 205 182
-0.26461995 0.67711484 -0.89502102 217 203 183
-0.26430047 0.67558175 -0.89561498 213 194 181
-0.26437685 0.67594826 -0.89697891 208 189 176
-0.26427245 0.67544734 -0.89514494 214 195 183
-0.26467434 0.67737573 -0.89671624 212 196 176
-0.26405311 0.67184144 -0.89680398 214 186 184
-0.26406747 0.67140025 -0.89718246 214 185 183
-0.26443687 0.67250693 -0.89871073 204 182 171
-0.26440039 0.6726647 -0.89840209 204 182 171
-0.26417458 0.67279953 -0.89694488 209 186 179
-0.26427749 0.67231506 -0.89783686 208 184 177
-0.26414564 0.67368621 -0.89629006 208 186 178
-0.26424477 0.67229033 -0.89764947 209 184 178
-0.27178299 0.74761289 -0.88557035 206 188 178
-0.27209422 0.74676108 -0.88603991 205 187 178
-0.272506 0.7470333 -0.88676 204 186 179
-0.27212563 0.74570668 -0.88595241 205 188 179
-0.27272218 0.74429297 -0.88691187 202 185 178
-0.2721543 0.74437177 -0.88573354 208 192 184
-0.27254999 0.74454725 -0.88660276 203 186 179
-0.27250761 0.74481791 -0.88657022 203 186 179
-0.27134126 0.74460572 -0.88425541 214 200 190
-0.27118996 0.7442106 -0.884049 215 201 191
-0.27087334 0.7469399 -0.88428766 207 189 178
-0.27029422 0.74687493 -0.88362992 204 186 174
-0.27034754 0.74573398 -0.88356811 208 190 181
-0.27242059 0.74086964 -0.88677233 220 198 191
-0.272228 0.74317926 -0.88599527 212 195 187
-0.27214447 0.74340302 -0.88578343 212 195 187
-0.27221438 0.74281156 -0.88602579 214 196 188
-0.2715168 0.74186206 -0.88435656 222 206 201
-0.2715916 0.74371874 -0.88456589 216 202 192
-0.27178052 0.74219382 -0.88507402 220 203 195
-0.27179971 0.74220347 -0.88512629 219 203 195
-0.27152285 0.74095577 -0.88436997 224 208 204
-0.2714493 0.74090856 -0.88423169 224 208 205
-0.2707302 0.74040025 -0.88355553 223 207 204
-0.27077553 0.74399889 -0.88368988 214 199 190
-0.2704381 0.74332935 -0.8833884 215 199 191
-0.27199396 0.7396763 -0.88650244 222 202 198
-0.2717534 0.73988676 -0.8855263 224 205 202
-0.27192491 0.74015999 -0.88557339 224 205 200
-0.27031794 0.73756391 -0.88640296 215 195 194
-0.27050328 0.73734802 -0.88704431 214 195 194
-0.27102178 0.73857963 -0.88602448 220 201 200
-0.27010494 0.73758525 -0.88609236 214 195 193
-0.27075604 0.73872828 -0.88535506 220 201 200
-0.27042624 0.73856556 -0.88523757 218 200 198
-0.26955777 0.73724282 -0.88553643 213 194 192
-0.26909816 0.73773682 -0.88342369 217 200 196
-0.26992279 0.73913676 -0.88365066 219 202 199
-0.26871872 0.73673713 -0.88387334 214 198 193
-0.26870295 0.7369554 -0.88348705 215 199 194
-0.26974905 0.73821861 -0.88457417 216 198 196
-0.26774457 0.73249978 -0.88423949 211 195 193
-0.26779303 0.73314226 -0.88399804 212 195 193
-0.26830497 0.73446977 -0.88448423 214 197 193
-0.26812893 0.73395163 -0.88436109 213 196 194
-0.26820782 0.73514336 -0.88380009 214 197 193
-0.26828229 0.73407269 -0.88468039 213 196 194
-0.26891854 0.73353225 -0.88676137 213 194 193
-0.26845846 0.73620832 -0.88382202 214 197 192
-0.26851356 0.73473471 -0.88486141 214 197 193
-0.26904282 0.73554838 -0.88592261 211 193 190
-0.26921344 0.73494434 -0.8867811 211 191 190
-0.26890296 0.73306566 -0.88699406 213 194 193
-0.26742449 0.7325412 -0.88363343 210 194 192
-0.26867712 0.73208034 -0.88684148 214 195 195
-0.2684336 0.72952801 -0.8868472 215 198 197
-0.26820067 0.73070699 -0.88592964 214 197 195
-0.26856679 0.73022211 -0.88702303 215 197 196
-0.26822826 0.72986776 -0.8862167 215 198 196
-0.26813874 0.72902936 -0.88626558 216 199 197
-0.26766539 0.72898173 -0.88521409 217 201 199
-0.2679309 0.73001927 -0.88545895 214 198 196
-0.26715997 0.7293458 -0.88437474 214 198 197
-0.26725534 0.72921306 -0.88453823 215 199 198
-0.26714581 0.72954232 -0.8842901 213 198 196
-0.26646924 0.73017621 -0.88329744 209 192 192
-0.26813141 0.72738874 -0.88705337 216 199 198
-0.26823986 0.72805655 -0.88692528 216 200 198
-0.26760462 0.72831261 -0.88534951 217 202 200
-0.26745757 0.72726774 -0.8857286 216 200 200
-0.26668936 0.72756428 -0.88460988 212 196 196
-0.26721811 0.72825736 -0.88487542 215 200 199
-0.26634043 0.72506964 -0.88507807 210 190 196
-0.26553449 0.72579902 -0.88334966 208 186 194
-0.26624578 0.72630346 -0.88446552 210 191 195
-0.26600793 0.72675276 -0.88387197 209 190 194
-0.26583052 0.72465551 -0.88429683 208 186 195
-0.26663655 0.72573417 -0.88538051 211 193 196
-0.26482341 0.72093725 -0.88408566 206 189 186
-0.26622638 0.72213733 -0.88586456 210 195 192
-0.26654693 0.72316396 -0.88617086 211 194 194
-0.26578549 0.72081369 -0.88543141 209 195 190
-0.26691875 0.72299016 -0.88670772 212 197 196
-0.26695579 0.72331035 -0.88671631 212 196 196
-0.26684627 0.72257233 -0.88666314 212 197 195
-0.26624483 0.72358876 -0.8855722 210 191 194
-0.26662749 0.72455728 -0.88579088 211 191 197
-0.26459217 0.72172236 -0.88348323 205 186 186
-0.26475787 0.72261757 -0.88334292 205 184 189
-0.26447189 0.72182709 -0.88321239 204 185 186
-0.26502773 0.72282642 -0.88373142 206 186 190
-0.26611128 0.7183466 -0.8870436 201 183 186
-0.26480326 0.71719414 -0.88382453 204 184 188
-0.26564726 0.71717983 -0.88690448 196 173 181
-0.26497114 0.71739185 -0.88417172 204 184 188
-0.26512128 0.71722424 -0.88493818 201 180 186
-0.26649967 0.71945947 -0.8869797 207 192 190
-0.26576746 0.71887928 -0.88521153 208 193 191
-0.26595712 0.72030413 -0.8856374 209 196 191
-0.26481283 0.71956897 -0.88397187 205 188 187
-0.26514208 0.7183075 -0.88428181 206 188 189
-0.26585642 0.71957368 -0.8854143 209 194 191
-0.26444763 0.72068328 -0.88359541 204 187 185
-0.26483259 0.71803319 -0.88382262 205 186 188
-0.26488319 0.71481144 -0.88513434 205 186 187
-0.26556215 0.71567923 -0.88705772 198 174 182
-0.26542407 0.71383882 -0.88659793 207 183 186
-0.26451907 0.7137478 -0.8840782 211 195 191
-0.26470587 0.71410513 -0.88461226 208 191 189
-0.26495281 0.71663117 -0.88493383 200 178 184
-0.26449335 0.71499574 -0.8836776 208 190 190
-0.26436478 0.71416271 -0.88342023 211 195 192
-0.26449913 0.71442878 -0.88384068 209 193 190
-0.26458114 0.7139526 -0.88425756 210 194 190
-0.26426786 0.71328008 -0.88329005 214 200 194
-0.26467937 0.70932484 -0.88485271 209 193 187
-0.26543471 0.71007109 -0.88694078 203 182 178
-0.26496595 0.71017665 -0.88556957 209 190 186
-0.26462883 0.71002483 -0.88461357 213 195 191
-0.26527217 0.71060497 -0.88639933 207 186 183
-0.26518911 0.71032953 -0.88619542 207 186 183
-0.26440209 0.71282655 -0.88372326 215 200 194
-0.2649112 0.7119773 -0.8852129 213 192 191
-0.26476544 0.71124655 -0.88487166 213 194 192
-0.26468655 0.71187717 -0.88459712 214 195 192
-0.26414937 0.71008259 -0.88326079 215 202 195
-0.26467758 0.70517004 -0.88599181 211 194 190
-0.26498133 0.70548654 -0.88692528 210 194 189
-0.26441035 0.70609385 -0.88467818 208 188 186
-0.26469418 0.70683622 -0.88536769 206 187 183
-0.2644524 0.70636958 -0.88471252 207 187 185
-0.26488265 0.70765561 -0.88570702 203 184 180
-0.26435778 0.70853031 -0.88404214 211 196 190
-0.26481664 0.70760602 -0.88552409 204 185 181
-0.2642265 0.70874846 -0.88362575 213 199 193
-0.26471657 0.70761406 -0.88523304 205 187 182
-0.26524693 0.70873672 -0.88658237 201 183 176
-0.26425833 0.70142138 -0.88573235 209 194 189
-0.26425815 0.70153874 -0.88568223 209 194 189
-0.26383376 0.70212966 -0.88435066 209 194 190
-0.26428014 0.70262796 -0.88527888 210 192 189
-0.26476908 0.70491886 -0.88638234 211 194 190
-0.26419055 0.70439756 -0.88446462 211 192 190
-0.26422825 0.70461506 -0.88455188 211 192 190
-0.26472533 0.70267826 -0.88668907 210 194 189
-0.2641457 0.70460528 -0.88426489 211 192 190
-0.26422316 0.70383346 -0.8846944 211 192 190
-0.26321396 0.70246547 -0.88332331 209 192 188
-0.26313877 0.70246619 -0.88324535 208 192 188
-0.26442355 0.70103657 -0.88630229 209 194 189
-0.26447394 0.70038861 -0.88663846 209 192 188
-0.26439428 0.7010501 -0.88622332 209 194 189
-0.26419351 0.70026195 -0.88596416 209 193 188
-0.26429698 0.69854826 -0.88677704 208 189 187
-0.2637023 0.70077068 -0.88448775 209 195 189
-0.26385781 0.69827247 -0.88523787 211 191 189
-0.26393232 0.69920224 -0.8855598 208 191 188
-0.26350784 0.69798648 -0.88416666 213 193 191
-0.26356921 0.69790637 -0.88425499 213 193 191
-0.26281884 0.70078337 -0.88343626 208 193 186
-0.26273307 0.699808 -0.88328296 209 192 187
-0.26370066 0.6968075 -0.88487029 214 193 191
-0.26382002 0.69638175 -0.8857168 213 193 190
-0.26409122 0.69690859 -0.88657111 210 189 188
-0.26411077 0.69695526 -0.88662648 209 189 188
-0.26326731 0.69611478 -0.8846553 214 195 191
-0.26317626 0.69710565 -0.88382316 213 192 190
-0.26321656 0.6946559 -0.88558769 214 197 190
-0.26304689 0.69543749 -0.88479048 214 195 190
-0.26292497 0.69579983 -0.88434988 213 194 190
-0.26227725 0.69366169 -0.88470519 210 191 187
-0.26174605 0.69435662 -0.88337195 207 186 185
-0.26311299 0.69358736 -0.88612664 214 197 190
-0.2628881 0.69414037 -0.88539046 213 195 189
-0.26255488 0.69067246 -0.88601935 207 191 182
-0.26287401 0.6905784 -0.88658428 205 191 180
-0.26189747 0.68952984 -0.88520926 204 186 179
-0.26226199 0.69043469 -0.88558656 207 190 182
-0.2621887 0.69067389 -0.88539928 209 191 183
-0.26233819 0.69140559 -0.88545853 212 194 186
-0.26150736 0.69138128 -0.88409096 210 189 185
-0.26296148 0.69295913 -0.8861202 214 197 189
-0.2608107 0.68969381 -0.88333017 210 186 183
-0.26125622 0.69076049 -0.88381952 210 188 184
-0.26249877 0.69239289 -0.88548905 213 195 188
-0.26108694 0.69091511 -0.88350648 209 186 183
-0.26179641 0.68656254 -0.88634831 205 188 185
-0.26233867 0.68827486 -0.8862443 202 187 179
-0.26225597 0.68775952 -0.8865301 203 188 181
-0.26161239 0.68581009 -0.88656545 207 189 188
-0.26196641 0.68728727 -0.88611627 204 188 183
-0.26176003 0.68636894 -0.88643879 206 188 186
-0.26121983 0.68678766 -0.8843599 208 189 184
-0.26136011 0.68771887 -0.8845005 207 188 183
-0.26155758 0.68803298 -0.88480204 206 187 181
-0.26260248 0.6888414 -0.88648635 201 187 177
-0.26082548 0.68636286 -0.88373673 210 189 186
-0.26170605 0.6881777 -0.88503826 205 187 181
-0.26081657 0.68298823 -0.88512921 206 189 189
-0.26077631 0.68295372 -0.88499904 206 189 189
-0.26151252 0.68466085 -0.88686436 206 188 189
-0.26110047 0.68236017 -0.88646406 206 188 187
-0.26134369 0.68458056 -0.88628775 206 189 189
-0.26085818 0.68187565 -0.88581318 206 188 187
-0.26100954 0.6843254 -0.88528454 207 189 189
-0.26051503 0.68375993 -0.88388151 208 190 189
-0.26101962 0.68543506 -0.88500309 209 189 189
-0.26062822 0.68318337 -0.88440204 206 190 189
-0.26073113 0.6841979 -0.88444084 208 190 189
-0.26031893 0.67779815 -0.88523573 206 176 180
-0.26007017 0.67826682 -0.88448399 207 179 182
-0.26039514 0.67935604 -0.88472396 206 183 184
-0.26034555 0.6796447 -0.88450092 206 184 185
-0.26074284 0.67888188 -0.88569039 205 180 182
-0.26083675 0.6800065 -0.885858 205 183 183
-0.26048484 0.68060815 -0.88457179 205 186 186
-0.26085231 0.68084109 -0.88590926 205 185 185
-0.26099104 0.68102628 -0.88641363 205 185 185
-0.2607123 0.67969859 -0.88540661 205 182 183
-0.25953409 0.67866015 -0.8834058 206 180 182
-0.26071966 0.6771459 -0.88641787 204 176 176
-0.26031709 0.6755231 -0.88635355 201 179 170
-0.2607241 0.67725712 -0.88637257 204 176 177
-0.26103237 0.6771664 -0.88708049 204 176 175
-0.26008034 0.6776908 -0.88477349 206 176 180
-0.25981164 0.67469651 -0.88497239 208 189 176
-0.25996849 0.67584741 -0.88535345 203 180 173
-0.25986814 0.67418307 -0.88532591 208 190 173
-0.25963578 0.67674452 -0.88408703 207 179 180
-0.25927937 0.67530233 -0.88382238 206 182 177
-0.25945005 0.67399359 -0.88441491 209 189 175
-0.2590124 0.67611957 -0.88338488 204 177 176
-0.26002413 0.6727469 -0.88608521 203 181 169
-0.25908205 0.6738137 -0.8838383 207 186 174
-0.25939766 0.67315257 -0.88459599 206 188 173
-0.27717844 0.74538183 -0.90085399 223 204 195
-0.27684194 0.74444622 -0.90025306 222 202 192
-0.27785957 0.74741411 -0.9023236 225 211 203
-0.27733827 0.74653834 -0.90244108 226 211 204
-0.27624729 0.74454528 -0.90239418 227 211 204
-0.2771208 0.74509645 -0.90052247 222 203 193
-0.27741057 0.74537963 -0.90008485 221 201 191
-0.2775062 0.74661201 -0.89979541 213 192 185
-0.27730554 0.74549437 -0.89922649 215 193 183
-0.2778354 0.74718612 -0.90163749 223 207 199
-0.27723268 0.74531478 -0.89885658 213 190 180
-0.27722937 0.74516267 -0.89894348 215 192 182
-0.27550155 0.74209583 -0.90032786 219 201 197
-0.27540764 0.74199474 -0.90180248 219 201 198
-0.27550566 0.74205124 -0.89998776 218 200 196
-0.27569476 0.74218893 -0.89945006 218 199 194
-0.27648133 0.74335182 -0.89925605 219 198 189
-0.27638507 0.74413681 -0.90119255 224 206 197
-0.27563488 0.7425915 -0.90047783 221 203 198
-0.27641505 0.74370641 -0.90020585 222 202 193
-0.2746979 0.7406612 -0.89889294 210 190 187
-0.27479362 0.74076277 -0.89935267 211 192 189
-0.27531603 0.74143618 -0.89974332 216 197 193
-0.2751694 0.74149758 -0.90150243 217 198 195
-0.27524754 0.74128801 -0.89956981 215 196 192
-0.27164182 0.72853982 -0.89941967 211 191 195
-0.27290249 0.73057747 -0.90120691 211 194 196
-0.27209735 0.72918743 -0.90106463 204 180 191
-0.27339357 0.7313543 -0.90209383 210 193 196
-0.27211595 0.72914898 -0.90186256 198 171 188
-0.27244496 0.72984344 -0.90049702 212 194 196
-0.27317885 0.73190862 -0.90048254 214 200 198
-0.2729238 0.73096526 -0.90061712 214 199 198
-0.27340421 0.73181415 -0.9013046 213 199 198
-0.27291492 0.73116988 -0.90038103 214 199 198
-0.27271268 0.73088014 -0.9000231 215 199 198
-0.27223629 0.72972029 -0.89966375 215 198 198
-0.27148786 0.72762293 -0.90124291 199 173 187
-0.27169541 0.72811878 -0.90136641 197 169 187
-0.27150559 0.72734612 -0.89885908 214 198 196
-0.27151626 0.71765316 -0.90218687 199 178 176
-0.27149671 0.71726602 -0.90085012 201 175 176
-0.27129486 0.71747404 -0.89959133 204 175 179
-0.27141362 0.71754622 -0.90092176 203 177 179
-0.27127984 0.71800268 -0.90098238 204 179 180
-0.27137196 0.71763706 -0.9007917 203 178 179
-0.27083617 0.72001344 -0.90095907 208 189 188
-0.27100229 0.71918547 -0.90013993 207 184 186
-0.27109671 0.71847558 -0.90028584 206 180 183
-0.27081677 0.72004598 -0.90121835 208 189 188
-0.27091077 0.71979284 -0.9002043 207 187 188
-0.27170175 0.71645594 -0.90217233 185 163 162
-0.27161813 0.71656191 -0.90113777 191 166 167
-0.27134508 0.71468633 -0.9026047 200 180 180
-0.27136493 0.71553296 -0.90094525 202 176 178
-0.27104545 0.71347606 -0.90234208 205 183 185
-0.27095178 0.71460897 -0.89922982 201 177 176
-0.27096885 0.7142092 -0.90018749 202 179 179
-0.27106199 0.7151311 -0.89911681 201 175 176
-0.27082339 0.71387523 -0.89961612 200 179 177
-0.27108356 0.71447521 -0.90063262 203 179 181
-0.27017388 0.70967185 -0.90126371 195 174 173
-0.27054638 0.71093941 -0.90264732 191 169 169
-0.27004573 0.7094534 -0.90023732 204 183 182
-0.27005863 0.70916498 -0.90112615 193 171 169
-0.27032661 0.71020973 -0.90178502 194 172 172
-0.27052167 0.71237516 -0.89977515 201 184 179
-0.27073541 0.71285492 -0.9009102 201 183 180
-0.27006584 0.70989531 -0.89948016 212 193 192
-0.27026895 0.7111814 -0.89934748 206 188 184
-0.27023327 0.7103889 -0.90019727 211 192 191
-0.27006662 0.70532101 -0.90033072 209 189 190
-0.27026087 0.70653695 -0.9019857 196 170 174
-0.27021587 0.70550156 -0.90119839 206 182 186
-0.27041212 0.70547301 -0.90219706 204 175 184
-0.27039152 0.70573699 -0.90223217 202 173 181
-0.2700474 0.70649463 -0.90085989 199 178 177
-0.26987079 0.70855206 -0.89931548 210 190 189
-0.2699793 0.70891243 -0.90061384 197 175 173
-0.26999176 0.70841646 -0.90082043 194 173 171
-0.26989457 0.70826352 -0.89963949 206 187 185
-0.27014247 0.70891297 -0.90262395 177 152 150
-0.26992366 0.70715272 -0.90011698 201 183 180
-0.26961344 0.70266849 -0.90060812 212 193 192
-0.2697863 0.70313841 -0.90124106 212 190 192
-0.26939473 0.70211804 -0.90018445 213 197 194
-0.2693308 0.70203882 -0.90075797 216 201 196
-0.2690883 0.70143396 -0.90033406 218 206 198
-0.26948023 0.70284474 -0.89938629 212 198 194
-0.26941785 0.70298624 -0.8989237 213 201 195
-0.26995879 0.70363039 -0.90107954 209 186 190
-0.26990566 0.70399779 -0.90044039 211 190 192
-0.26957464 0.70302099 -0.89969921 212 196 193
-0.26891831 0.69738144 -0.9011749 222 203 201
-0.26887855 0.69736385 -0.89994544 223 205 201
-0.26886472 0.69998467 -0.90202093 227 215 205
-0.26887527 0.69935101 -0.90173882 226 212 204
-0.26891211 0.69845819 -0.90201181 224 207 203
-0.26889268 0.69935459 -0.90004838 223 210 201
-0.26895186 0.70085531 -0.90043825 221 210 200
-0.26893827 0.70001876 -0.89984125 221 208 200
-0.26889414 0.70091069 -0.90162241 226 215 204
-0.26901504 0.70075691 -0.89910287 216 204 196
-0.26853552 0.69481695 -0.90203702 219 204 199
-0.26839203 0.69410962 -0.90077329 206 195 186
-0.26843172 0.69417173 -0.90256554 228 212 207
-0.26833349 0.69369024 -0.90167177 218 205 197
-0.26845616 0.69435161 -0.90213823 222 207 201
-0.26886287 0.69669336 -0.90212387 215 198 196
-0.26842585 0.69439149 -0.89984572 193 186 175
-0.26888049 0.69683772 -0.90196854 217 199 197
-0.26877484 0.69639266 -0.90088272 213 198 193
-0.26887572 0.69696945 -0.90118957 219 201 198
-0.26808763 0.69274449 -0.90193063 231 216 210
-0.26801857 0.69249034 -0.90235758 231 216 210
-0.26774192 0.69165581 -0.90137434 228 216 208
-0.26806498 0.69280839 -0.89938074 201 195 183
-0.26811922 0.69292605 -0.9004389 212 203 193
-0.26810518 0.69287175 -0.90063274 216 205 196
-0.26512671 0.68975329 -0.90076774 180 154 163
-0.26591456 0.69049263 -0.89986491 199 178 188
-0.26391509 0.69138747 -0.90230793 145 112 135
-0.26398128 0.69006711 -0.90215629 150 117 132
-0.26482496 0.69034231 -0.90116131 171 144 157
-0.26572096 0.68946594 -0.90004045 196 174 179
-0.2651054 0.69046348 -0.90083212 178 152 165
-0.2648685 0.69257283 -0.90257943 164 136 158
-0.26574925 0.69151461 -0.90158641 189 166 178
-0.26637238 0.69094199 -0.90121406 205 186 191
-0.26571772 0.6909166 -0.90042967 192 170 182
-0.26682737 0.68983084 -0.89964271 222 206 206
-0.26599011 0.69192022 -0.90261799 191 169 179
-0.265807 0.69140399 -0.90144408 191 169 180
-0.26740602 0.69083363 -0.90009803 226 214 207
-0.26747173 0.6909188 -0.90095091 227 214 208
-0.26153451 0.69068485 -0.90131301 115 92 97
-0.26239318 0.68949473 -0.90178776 125 98 107
-0.26099649 0.69192272 -0.90101504 110 88 91
-0.26228663 0.68971074 -0.90172881 124 97 106
-0.26213536 0.69046652 -0.90164459 123 96 104
-0.25982657 0.69272327 -0.90036905 94 79 78
-0.26207241 0.69163024 -0.90164089 122 95 105
-0.2630232 0.69170439 -0.90222234 132 100 120
-0.26285186 0.69130713 -0.90209651 131 100 116
-0.26242957 0.69100803 -0.9018237 127 98 109
-0.263531 0.68999988 -0.90243733 141 107 121
-0.26224813 0.69206232 -0.90177131 123 95 109
-0.26585373 0.68944764 -0.89987725 200 178 183
-0.26472121 0.68852758 -0.90062404 171 147 151
-0.26587665 0.68929613 -0.89974946 200 180 183
-0.26396576 0.68910724 -0.90191239 151 120 130
-0.26519459 0.68907559 -0.90042013 183 159 164
-0.2646482 0.68779379 -0.9002257 169 149 149
-0.2641128 0.68863052 -0.90142065 155 127 134
-0.26419783 0.68923122 -0.90171659 157 127 136
-0.26430568 0.68559432 -0.8996073 163 149 140
-0.26418167 0.68583149 -0.89969069 158 144 137
-0.26559275 0.68583935 -0.89901358 201 188 176
-0.26549941 0.68560004 -0.89903444 199 186 173
-0.26267892 0.68595743 -0.89995432 133 118 112
-0.26032799 0.68863308 -0.90024918 96 85 84
-0.25986907 0.68747264 -0.90012622 101 85 83
-0.26031205 0.68753624 -0.90013158 104 89 86
-0.26276299 0.68591416 -0.89994943 134 119 113
-0.26259157 0.68796736 -0.90091366 128 108 109
-0.26141661 0.68876797 -0.9007957 111 94 96
-0.26108068 0.68868732 -0.90055704 106 91 92
-0.2633341 0.6882605 -0.90151715 139 112 118
-0.26228946 0.68896621 -0.90140831 123 100 106
-0.26366657 0.68596268 -0.90017921 143 127 122
-0.26258862 0.68871564 -0.90140736 128 104 109
-0.26417404 0.68452775 -0.89970207 155 140 132
-0.26374182 0.68338811 -0.89995027 137 120 116
-0.26382345 0.68538058 -0.89984018 147 133 126
-0.26541656 0.68532687 -0.89907676 195 183 170
-0.26528102 0.68245721 -0.89914674 185 166 160
-0.26566973 0.6848951 -0.8989597 202 189 176
-0.26390862 0.681714 -0.89991307 136 117 115
-0.26276579 0.68247974 -0.89999676 124 105 103
-0.26052877 0.68347675 -0.89955682 121 103 95
-0.26133662 0.6834901 -0.89982647 121 101 97
-0.26043269 0.68374842 -0.89960581 120 101 94
-0.26004162 0.68371415 -0.89946711 120 102 93
-0.26209274 0.68330842 -0.89999187 122 102 99
-0.26097235 0.68518686 -0.89992881 121 101 96
-0.26220211 0.68329346 -0.89999205 123 103 100
-0.26188904 0.68466902 -0.89994419 126 107 103
-0.26234481 0.68414283 -0.89996141 127 109 105
-0.26497155 0.68035841 -0.89944345 190 168 159
-0.26514083 0.68113774 -0.89926708 186 164 158
-0.2639412 0.67830276 -0.90023893 181 159 141
-0.26510105 0.68037051 -0.89936894 195 172 163
-0.26504111 0.67885876 -0.89885461 204 185 170
-0.26458529 0.67795986 -0.89916825 199 181 162
-0.2629962 0.67915887 -0.90000379 154 131 119
-0.26289874 0.67846793 -0.90003216 162 138 123
-0.26263762 0.67968202 -0.89979118 144 120 111
-0.26235473 0.68044585 -0.89960921 133 110 104
-0.26270345 0.6811465 -0.89972603 130 110 105
-0.26226729 0.68064833 -0.89958107 132 110 104
-0.26114345 0.68149728 -0.89921409 129 113 102
-0.26404288 0.67718804 -0.89981121 190 170 151
-0.26395687 0.67690039 -0.89989847 189 168 150
-0.26442292 0.67738801 -0.89926821 198 180 160
-0.26456124 0.67617893 -0.89896458 202 184 165
-0.26398757 0.67408919 -0.8995223 197 176 162
-0.26294333 0.67551076 -0.89988977 176 153 140
-0.26358911 0.67517072 -0.90004677 189 166 152
-0.26314661 0.67488074 -0.89986235 183 160 147
-0.26310921 0.67447382 -0.89979059 184 161 149
-0.26333588 0.67768437 -0.90029913 175 152 133
-0.26380399 0.67287558 -0.89969331 199 175 164
-0.26405835 0.74768662 -0.87476146 156 127 124
-0.26432347 0.74737555 -0.87502974 161 132 129
-0.26405004 0.74737614 -0.87481022 157 128 125
-0.2638478 0.74466956 -0.87504238 172 135 138
-0.26261517 0.74784297 -0.87358165 145 113 113
-0.26084343 0.74544287 -0.87286198 141 112 112
-0.26118386 0.74651796 -0.87281203 141 110 110
-0.26034015 0.74561256 -0.87239653 138 108 108
-0.26035714 0.74553198 -0.87243521 139 109 109
-0.26138559 0.74721628 -0.87276363 140 108 108
-0.2606546 0.74582481 -0.87258971 139 109 109
-0.2616061 0.74549282 -0.87338316 147 117 117
-0.26164195 0.74511796 -0.87345189 150 119 119
-0.26355204 0.74510831 -0.87467021 167 133 134
-0.26323611 0.74526429 -0.87444979 163 130 131
-0.26253679 0.74471974 -0.87407082 160 128 128
-0.26145878 0.74449778 -0.873411 152 121 121
-0.25970739 0.74511808 -0.87203938 136 106 107
-0.25953552 0.74421895 -0.87220621 137 110 109
-0.26371256 0.74348944 -0.87511283 177 144 143
-0.26318556 0.74181461 -0.87519604 180 156 147
-0.2628946 0.74200088 -0.8749243 177 151 144
-0.26241443 0.74059558 -0.87498575 179 159 146
-0.26153827 0.74131775 -0.87411821 169 139 134
-0.26044023 0.74034941 -0.87358952 164 135 128
-0.26125333 0.74050766 -0.87414759 170 144 135
-0.26158664 0.74206996 -0.87393165 166 132 131
-0.26184937 0.74375272 -0.87377775 160 127 128
-0.26124135 0.74331909 -0.87347311 156 124 124
-0.26166829 0.74297887 -0.87381011 162 129 129
-0.26244396 0.74293822 -0.8743121 169 135 135
-0.25996494 0.74089599 -0.87312233 157 125 122
-0.25971916 0.74295819 -0.87257189 144 115 114
-0.2587797 0.74154788 -0.87223983 144 115 110
-0.25855011 0.74088591 -0.8722192 146 116 110
-0.2592288 0.74262065 -0.87232244 142 113 111
-0.25878906 0.74348843 -0.8718791 136 109 106
-0.25953218 0.74387443 -0.87227768 138 110 110
-0.26155344 0.73864895 -0.87463111 178 154 148
-0.26207867 0.73681694 -0.87522852 188 165 163
-0.26179159 0.73926955 -0.87473851 178 156 147
-0.26207724 0.73945171 -0.87493068 180 160 149
-0.26230538 0.73955548 -0.87508881 181 163 150
-0.26154742 0.73677355 -0.87487423 185 162 159
-0.26088163 0.73667252 -0.87445706 182 161 155
-0.26017249 0.73699504 -0.87393945 176 155 148
-0.26146996 0.73678464 -0.87482184 184 162 158
-0.25908276 0.73943168 -0.87278742 160 129 121
-0.25883222 0.73773837 -0.87290335 167 142 131
-0.25747657 0.73711556 -0.87207443 165 139 121
-0.25758293 0.73656404 -0.8722418 168 144 126
-0.25905392 0.73693669 -0.87319303 172 150 139
-0.2585735 0.73793226 -0.87269181 165 139 127
-0.25822902 0.73945051 -0.87223846 153 123 114
-0.25726318 0.73802739 -0.87180233 157 130 113
-0.2585471 0.73925728 -0.87246674 157 127 117
-0.25651902 0.73655015 -0.8715151 163 138 115
-0.26109612 0.73549151 -0.87476534 185 165 161
-0.26135692 0.73579174 -0.87489617 186 166 162
-0.26089838 0.73433846 -0.87478733 186 165 163
-0.26110184 0.73414135 -0.87494588 187 165 165
-0.26080739 0.73324013 -0.87489223 186 164 166
-0.26024133 0.73415309 -0.87441605 183 162 160
-0.26030722 0.73254097 -0.87471557 185 161 166
-0.25892544 0.73324347 -0.87364715 181 160 159
-0.25852934 0.73435241 -0.87316549 180 161 154
-0.25835952 0.73403376 -0.8730877 180 161 155
-0.2590785 0.73426825 -0.87359774 180 160 156
-0.25724217 0.7333678 -0.8723439 181 163 154
-0.2570377 0.7324723 -0.87233311 182 163 157
-0.25883013 0.73445386 -0.87337834 180 160 155
-0.25663951 0.73460549 -0.87178731 174 153 137
-0.25783163 0.73592746 -0.87248993 172 151 135
-0.25635573 0.73481601 -0.87157249 172 150 132
-0.25801465 0.73562801 -0.87264329 174 154 140
-0.25654054 0.73338795 -0.87182939 179 161 149
-0.26108244 0.73137164 -0.87530494 190 166 171
-0.2604073 0.73192042 -0.87485045 186 162 167
-0.2599093 0.73099834 -0.87459654 186 161 166
-0.25632623 0.73040295 -0.87201285 179 155 157
-0.25682485 0.72960216 -0.87247801 178 151 159
-0.25795129 0.73115164 -0.87317234 180 156 161
-0.25750056 0.7316739 -0.87277317 181 159 159
-0.25719631 0.7315411 -0.87255532 180 159 158
-0.25655887 0.73079902 -0.87214816 179 157 157
-0.2585189 0.73019826 -0.87362808 182 156 163
-0.25796276 0.72917742 -0.87327522 182 155 162
-0.2579515 0.72986192 -0.87324971 181 154 161
-0.25832441 0.72882992 -0.8735311 184 157 162
-0.2587249 0.7312122 -0.87374222 181 156 163
-0.2571134 0.7294299 -0.87268907 179 151 160
-0.25563917 0.73052627 -0.87151676 178 156 154
-0.26056978 0.72789484 -0.87536418 193 167 171
-0.26017934 0.72669673 -0.87511271 192 168 171
-0.25993079 0.72559023 -0.87487191 192 169 172
-0.25610957 0.72633171 -0.87224597 182 155 160
-0.25656056 0.72640371 -0.87251055 183 156 161
-0.25800288 0.72505796 -0.87352818 189 164 167
-0.25801718 0.72601688 -0.87343246 186 161 166
-0.25649664 0.7268346 -0.87242508 182 154 161
-0.25628877 0.72567052 -0.87242615 184 157 161
-0.25974557 0.72492528 -0.87461847 192 169 172
-0.25879157 0.72592974 -0.87393689 188 163 168
-0.25858241 0.72836614 -0.87371993 186 159 163
-0.25777304 0.7269749 -0.87321001 184 158 164
-0.25908458 0.72575086 -0.87414229 189 165 169
-0.25881803 0.727579 -0.87390465 187 161 165
-0.25584915 0.72635549 -0.87208652 182 154 159
-0.25535366 0.72596687 -0.8718515 178 151 156
-0.2550469 0.72703505 -0.87155902 174 146 154
-0.2598404 0.72192633 -0.87536347 188 159 172
-0.25716424 0.72083879 -0.87365359 189 163 170
-0.25941861 0.72207475 -0.87496662 188 161 172
-0.25839955 0.72159809 -0.87435466 189 162 171
-0.25824621 0.7224102 -0.87406385 190 166 171
-0.25818655 0.72273529 -0.87394863 191 167 171
-0.25814599 0.72255123 -0.87396139 191 167 171
-0.25658277 0.72390473 -0.87280595 188 163 164
-0.2559641 0.72398478 -0.8724224 187 161 162
-0.25653607 0.72179925 -0.87303698 190 166 168
-0.25673154 0.72374612 -0.87291533 189 163 165
-0.2564266 0.72378939 -0.87272578 188 162 164
-0.25829399 0.72426128 -0.87379569 191 166 169
-0.25447896 0.7209149 -0.87185168 185 161 161
-0.25553757 0.72333091 -0.87223327 187 161 162
-0.25518522 0.72144234 -0.87223977 187 162 164
