ply
format ascii 1.0
comment PCL generated
element vertex 692
property float x
property float y
property float z
property uchar red
property uchar green
property uchar blue
element camera 1
property float view_px
property float view_py
property float view_pz
property float x_axisx
property float x_axisy
property float x_axisz
property float y_axisx
property float y_axisy
property float y_axisz
property float z_axisx
property float z_axisy
property float z_axisz
property float focal
property float scalex
property float scaley
property float centerx
property float centery
property int viewportx
property int viewporty
property float k1
property float k2
end_header
-0.24041954 0.55469823 -0.87131202 196 169 154
-0.24053708 0.55531716 -0.87140101 195 168 152
-0.23933929 0.55552959 -0.86972231 180 150 136
-0.23845503 0.55390036 -0.86909473 174 133 134
-0.23917639 0.55526751 -0.86959809 179 147 135
-0.23972952 0.55449915 -0.87039554 188 158 146
-0.23984776 0.55538726 -0.87032765 187 160 143
-0.23991682 0.55540884 -0.87040055 188 161 144
-0.23828308 0.5528844 -0.86913103 174 131 138
-0.237128 0.55422509 -0.86777705 156 115 117
-0.23753157 0.55480331 -0.86812383 159 124 119
-0.23882943 0.55542779 -0.86925912 174 143 131
-0.23800585 0.5545435 -0.86854666 166 128 126
-0.23893417 0.55156559 -0.87006193 184 143 148
-0.23947968 0.5502553 -0.87085956 192 152 156
-0.23778057 0.55211812 -0.86868459 169 121 133
-0.23845695 0.55184877 -0.86948454 178 133 142
-0.23828574 0.55176818 -0.86930281 176 130 140
-0.23897962 0.55088401 -0.8702082 185 143 149
-0.23859094 0.54923904 -0.86991817 184 148 148
-0.2378878 0.54981214 -0.86902303 176 139 140
-0.23784655 0.5509845 -0.86888599 172 126 136
-0.23811096 0.55048561 -0.86924368 176 133 140
-0.23711491 0.54975837 -0.86808974 168 136 132
-0.23725519 0.55003768 -0.86823916 169 134 133
-0.23729773 0.54995763 -0.86829668 170 135 134
-0.23803939 0.54549456 -0.86941135 193 166 163
-0.23762776 0.5452044 -0.86882275 190 164 162
-0.2378394 0.5460853 -0.86893773 188 159 161
-0.23909564 0.54517907 -0.87119359 207 181 169
-0.23879269 0.54536337 -0.87065834 202 176 167
-0.23824225 0.54540801 -0.86976033 196 169 165
-0.23749352 0.54567057 -0.86848694 186 159 160
-0.23740606 0.5483796 -0.86848766 176 149 141
-0.23837963 0.5480231 -0.86964899 186 154 153
-0.23747504 0.54804945 -0.86855346 177 150 144
-0.23801182 0.54822737 -0.869214 182 152 148
-0.2384838 0.5478248 -0.86976457 188 155 155
-0.23744173 0.54738545 -0.86847717 180 152 148
-0.23844634 0.54106802 -0.87074035 192 161 155
-0.2379206 0.54227316 -0.86973077 189 160 156
-0.23674881 0.54211408 -0.86803824 190 158 159
-0.23673169 0.54427129 -0.86759037 184 158 160
-0.23768164 0.54331887 -0.86917436 186 159 157
-0.23804633 0.54245734 -0.8698796 188 160 156
-0.23773961 0.54319102 -0.86928463 186 159 157
-0.23859918 0.54441249 -0.87052083 200 175 166
-0.23861776 0.54447454 -0.8705433 201 175 166
-0.23842113 0.54353201 -0.87033927 195 168 161
-0.23893309 0.54474437 -0.87101889 205 180 168
-0.23844847 0.54390025 -0.87033933 197 171 163
-0.23805928 0.54376185 -0.86972898 192 166 161
-0.23848563 0.54468447 -0.87030542 200 175 166
-0.23711377 0.5406754 -0.86893094 191 159 157
-0.23716314 0.53908247 -0.86963671 188 158 151
-0.23733203 0.53866374 -0.87005115 187 158 149
-0.23792794 0.53942984 -0.87062144 188 159 151
-0.23797861 0.54042071 -0.8703019 191 160 154
-0.23843484 0.53921783 -0.87144983 188 160 148
-0.2364471 0.53923368 -0.86863887 180 151 143
-0.23679455 0.5388841 -0.86924809 182 154 145
-0.23708649 0.53833377 -0.86988157 182 155 143
-0.24595627 0.57283115 -0.87817276 190 164 140
-0.24651778 0.57344127 -0.87921107 186 163 138
-0.24628833 0.57248491 -0.87882334 192 169 143
-0.24635817 0.5732438 -0.87891716 187 163 139
-0.24590269 0.57251501 -0.87808698 192 166 142
-0.24642946 0.57160234 -0.87915319 190 167 143
-0.24628516 0.56985706 -0.87901729 181 154 139
-0.24575631 0.56854343 -0.8780852 170 139 131
-0.24624239 0.5712617 -0.87881285 186 163 141
-0.24620388 0.5714823 -0.87871802 187 164 141
-0.24628474 0.57083017 -0.87893337 185 160 140
-0.24523261 0.5713321 -0.87686723 184 155 136
-0.24579833 0.57192957 -0.87791693 190 165 141
-0.24626605 0.5718084 -0.87881386 189 167 142
-0.24604817 0.56557518 -0.87916905 174 144 132
-0.24597853 0.5645085 -0.87922782 174 144 130
-0.24615434 0.56716251 -0.87908709 175 144 134
-0.2461493 0.56801444 -0.87891412 175 143 136
-0.24573985 0.56358057 -0.87906712 176 146 130
-0.24535485 0.56417435 -0.8780185 174 142 130
-0.24470967 0.55727953 -0.87850666 186 158 144
-0.24419455 0.55841196 -0.87683767 185 151 143
-0.24462104 0.5581277 -0.87811613 182 154 140
-0.24364443 0.55752838 -0.87623388 189 154 147
-0.24360254 0.55749649 -0.87618929 189 154 147
-0.24384654 0.55776042 -0.87643683 188 153 146
-0.24428824 0.55559283 -0.87789243 200 173 162
-0.24477297 0.55643183 -0.87889129 190 164 149
-0.24458177 0.55493158 -0.87905908 202 182 164
-0.24451524 0.5549106 -0.87887675 203 182 165
-0.2442017 0.55370975 -0.87855822 214 196 177
-0.24300553 0.55452436 -0.87619323 195 168 156
-0.24328922 0.55343586 -0.87717539 206 186 168
-0.24266897 0.55314475 -0.87633234 200 180 162
-0.24325855 0.55504251 -0.87634206 194 166 155
-0.24281816 0.55403215 -0.87613595 196 172 157
-0.24311365 0.55485481 -0.87621391 194 166 155
-0.24355339 0.55644625 -0.8763175 193 159 153
-0.24298373 0.55476463 -0.87608355 194 166 155
-0.24288933 0.55021572 -0.87713063 199 176 162
-0.24373606 0.55030507 -0.87837493 206 186 163
-0.24317721 0.5498786 -0.8775689 200 177 159
-0.24247153 0.54905736 -0.87656289 190 163 151
-0.2438186 0.55070871 -0.87847984 208 189 167
-0.24252363 0.550107 -0.87659615 196 171 160
-0.24270518 0.55060011 -0.87683344 199 176 164
-0.24320965 0.55152828 -0.87752903 207 187 171
-0.24223308 0.55130613 -0.87600321 195 172 158
-0.24324444 0.55228555 -0.87749803 209 191 172
-0.24349275 0.55246383 -0.87787217 212 196 176
-0.24308485 0.55186266 -0.87729275 206 187 170
-0.2431093 0.54834515 -0.87769461 195 170 153
-0.24342652 0.54815191 -0.8782351 198 174 154
-0.24332586 0.54868186 -0.87788677 196 172 151
-0.2431199 0.5457142 -0.87870312 200 175 169
-0.24299783 0.54570371 -0.87852716 200 173 169
-0.24338697 0.54824144 -0.87814301 197 173 154
-0.24367821 0.5480032 -0.87866217 200 177 155
-0.24169455 0.54664063 -0.87589413 197 167 162
-0.24199033 0.54806727 -0.87614983 187 158 154
-0.24203008 0.54593354 -0.87667024 201 171 167
-0.24185303 0.54609883 -0.87630415 200 170 166
-0.24247156 0.54637724 -0.87740415 197 169 165
-0.2431553 0.54498798 -0.8789748 204 178 174
-0.24169526 0.54162264 -0.87672251 202 188 159
-0.24214408 0.54184985 -0.8779161 204 185 160
-0.24306683 0.54392058 -0.87923938 204 180 170
-0.24282715 0.5432201 -0.87901032 204 181 167
-0.2421103 0.5422079 -0.87756181 203 186 162
-0.24186692 0.54186231 -0.87707132 202 187 160
-0.24119619 0.54152572 -0.8755188 201 191 158
-0.24139977 0.54303181 -0.87581193 204 185 164
-0.2431493 0.54481596 -0.87898356 204 179 174
-0.24127725 0.54446828 -0.87549847 208 179 171
-0.2418074 0.54385626 -0.87652701 205 182 168
-0.24202718 0.5446071 -0.87689465 206 179 172
-0.24188171 0.53950065 -0.8785423 200 171 154
-0.24179335 0.5392909 -0.87839538 199 168 153
-0.24171974 0.53783798 -0.87883985 196 168 148
-0.24163157 0.53861409 -0.87825614 197 165 151
-0.24181166 0.53818178 -0.87893707 197 170 149
-0.24191147 0.53838575 -0.87911773 198 172 150
-0.24100493 0.53908765 -0.87623078 194 161 153
-0.24126391 0.54010814 -0.8763966 199 176 155
-0.24072874 0.53789687 -0.87611562 190 144 152
-0.24123722 0.53961766 -0.87661183 197 168 154
-0.24098495 0.53996027 -0.87564433 197 176 154
-0.2416086 0.53630459 -0.87886536 191 163 142
-0.241776 0.53632843 -0.87928408 192 163 143
-0.24156082 0.53518128 -0.87870228 187 154 139
-0.24152042 0.53591609 -0.8786301 190 160 141
-0.24155593 0.53543019 -0.87869978 188 156 139
-0.24104016 0.53587049 -0.87737411 188 153 141
-0.24077319 0.53496611 -0.87669045 185 147 136
-0.24059267 0.53653586 -0.87612808 186 141 146
-0.24111491 0.53673536 -0.87753749 190 154 146
-0.2404384 0.536569 -0.87570751 185 137 147
-0.25371638 0.58785516 -0.89495224 179 144 131
-0.23242499 0.54957235 -0.8630839 115 63 85
-0.23267353 0.54879087 -0.86329538 126 72 95
-0.23293331 0.54733121 -0.86350399 139 95 103
-0.23289277 0.54632604 -0.86344033 144 106 105
-0.23178793 0.54503804 -0.8623597 129 102 90
-0.23208161 0.54824883 -0.86270738 116 64 85
-0.23190479 0.54588395 -0.86249083 127 93 89
-0.23218109 0.54717106 -0.86278903 125 83 90
-0.23302974 0.54355299 -0.86357027 163 134 120
-0.23279288 0.54376608 -0.8633523 157 131 115
-0.23248936 0.54426801 -0.8630504 149 126 107
-0.23253275 0.54111707 -0.86295885 174 144 136
-0.23190774 0.54240435 -0.86232376 150 124 113
-0.23238309 0.54211485 -0.86281914 165 136 126
-0.23217471 0.54480857 -0.8627342 139 116 98
-0.23271942 0.54081571 -0.86322129 175 144 135
-0.23206894 0.54024458 -0.86251879 164 131 128
-0.23212694 0.54055369 -0.86254352 167 134 130
-0.24920174 0.58014274 -0.88380849 177 146 128
-0.25019026 0.57751966 -0.88596034 182 142 135
-0.25025415 0.57706696 -0.88615954 185 146 138
-0.25028047 0.57660538 -0.88626724 187 149 140
-0.24984266 0.57706475 -0.88515013 180 140 133
-0.25032595 0.57878339 -0.88617504 178 136 131
-0.25000295 0.57961905 -0.88547742 177 139 129
-0.25025427 0.57939917 -0.88600445 177 136 129
-0.24974269 0.57966942 -0.8849234 177 141 129
-0.24899301 0.57771921 -0.88322878 177 140 129
-0.24911746 0.5770613 -0.88346398 176 137 129
-0.24921726 0.57818907 -0.88373041 177 140 129
-0.25046363 0.57530349 -0.88682723 192 158 146
-0.25029495 0.5751425 -0.88628685 193 157 147
-0.25034833 0.57334113 -0.88690746 189 163 146
-0.24985424 0.57352984 -0.88516438 194 160 148
-0.24965031 0.57240099 -0.88473785 193 163 149
-0.249589 0.57278299 -0.88443446 194 162 149
-0.24952719 0.57436752 -0.88425672 190 153 143
-0.25013715 0.57508653 -0.88583422 193 156 146
-0.24937421 0.57449841 -0.88389617 188 150 141
-0.24940127 0.57390136 -0.8838954 191 154 144
-0.24953957 0.57614374 -0.88448685 181 142 134
-0.25017807 0.57592493 -0.88602877 189 151 142
-0.24985206 0.57059079 -0.88614821 186 162 144
-0.24984217 0.57045424 -0.88615501 186 161 144
-0.24967641 0.56850654 -0.88618052 185 155 144
-0.24876809 0.56864369 -0.8834911 182 158 141
-0.24934658 0.56849575 -0.88521981 184 156 143
-0.24937467 0.56901902 -0.88516492 184 158 143
-0.24916956 0.57071847 -0.88386744 189 161 146
-0.24923663 0.57168752 -0.8836292 193 161 148
-0.24923931 0.57201451 -0.88348025 195 162 150
-0.24977095 0.57156831 -0.88552237 188 164 146
-0.2490508 0.57071668 -0.8834604 190 160 146
-0.24982898 0.57171351 -0.88565159 189 164 146
-0.24885385 0.56466949 -0.88495469 189 161 141
-0.24898612 0.56474203 -0.88534474 189 161 141
-0.2493363 0.56462103 -0.88649654 189 163 141
-0.24981052 0.56793523 -0.88673204 186 154 144
-0.24934432 0.56530106 -0.88626289 189 161 141
-0.24910557 0.56537515 -0.88548082 189 159 141
-0.24915741 0.5674963 -0.88494235 185 156 142
-0.24846512 0.56595021 -0.88334888 187 158 141
-0.24844503 0.56573045 -0.88335115 187 158 141
-0.24950765 0.56821215 -0.88576686 184 155 143
-0.24868909 0.56810826 -0.88340437 182 157 141
-0.24875312 0.5605945 -0.88616085 198 176 159
-0.24808842 0.56318343 -0.88347703 189 159 142
-0.24888639 0.56121808 -0.88615972 198 176 158
-0.24819827 0.56333858 -0.88363606 190 160 143
-0.24911766 0.56184787 -0.88657773 198 175 156
-0.24906191 0.56374878 -0.88588536 192 166 145
-0.24837618 0.5644089 -0.88354075 190 159 141
-0.24875601 0.56429011 -0.88477236 190 162 141
-0.24913347 0.56380641 -0.88609558 191 166 144
-0.24741086 0.56136572 -0.88325483 187 161 144
-0.24797831 0.56077725 -0.88441461 191 165 150
-0.24891904 0.55991989 -0.88691086 203 180 164
-0.24857621 0.55867189 -0.88687855 207 179 168
-0.24827674 0.55744243 -0.88693082 212 178 172
-0.24835871 0.55898476 -0.8862192 204 175 164
-0.24808414 0.55706465 -0.88671839 212 177 172
-0.24784783 0.55958927 -0.88476425 195 170 155
-0.24733539 0.55855799 -0.88428605 196 174 157
-0.24764664 0.55844229 -0.88500303 200 174 160
-0.24800086 0.55952865 -0.88511884 197 170 157
-0.24760768 0.55780977 -0.88528514 203 176 163
-0.24731964 0.56050044 -0.88351494 188 163 146
-0.24683821 0.55919206 -0.88320345 190 168 150
-0.24743007 0.55536878 -0.88695848 191 158 154
-0.24644102 0.55579406 -0.88443285 188 167 151
-0.24713728 0.55516577 -0.88656616 186 155 149
-0.24643803 0.55526173 -0.88500124 180 158 145
-0.24705397 0.55647314 -0.88498086 203 177 164
-0.24768898 0.55599153 -0.88682783 202 168 163
-0.2456414 0.54935843 -0.88327235 208 186 169
-0.24549489 0.54718971 -0.88377988 206 190 167
-0.24543619 0.54649138 -0.88392621 204 190 166
-0.24524981 0.54521537 -0.88347155 205 195 167
-0.24532297 0.54577368 -0.8835938 205 194 167
-0.24561541 0.54801065 -0.88407791 205 187 167
-0.24217366 0.55818564 -0.87385577 184 152 140
-0.24246761 0.55726767 -0.87460434 189 155 146
-0.24209088 0.55671036 -0.87401599 192 159 149
-0.24206485 0.55760729 -0.87377512 187 156 144
-0.24202329 0.55807412 -0.8735972 185 154 141
-0.24222969 0.55447823 -0.87514293 194 166 154
-0.24216004 0.55442739 -0.87500685 194 166 154
-0.24200244 0.55431134 -0.87469959 195 166 155
-0.24092136 0.5530901 -0.87281084 198 170 160
-0.24185258 0.55491406 -0.87403959 195 163 155
-0.24224763 0.5549143 -0.87495977 194 163 153
-0.24133226 0.55593848 -0.87276191 194 164 151
-0.24258931 0.55642152 -0.8750158 193 157 151
-0.24071078 0.55430031 -0.87195837 197 168 157
-0.24074936 0.55524522 -0.87182099 196 168 153
-0.24081504 0.55541068 -0.87190759 195 167 153
-0.24054372 0.55431038 -0.87164241 197 169 157
-0.24075964 0.55050272 -0.87295657 194 162 158
-0.24085757 0.55060846 -0.87318283 193 162 157
-0.24064843 0.55000967 -0.87274605 195 162 160
-0.24064006 0.55098498 -0.87260407 195 164 159
-0.24039561 0.55210733 -0.8718639 198 168 161
-0.24172232 0.55134708 -0.87509215 191 166 154
-0.24094465 0.55219972 -0.87313801 196 169 159
-0.24092667 0.55147803 -0.87321669 194 165 157
-0.24139217 0.54973483 -0.87459224 187 157 152
-0.24168991 0.55092943 -0.87508643 190 164 153
-0.24081033 0.55271453 -0.87273914 198 172 160
-0.24060142 0.548724 -0.87280673 197 160 161
-0.24137382 0.54829609 -0.87481201 190 157 154
-0.24095084 0.54655093 -0.87425405 204 170 168
-0.2414867 0.54753286 -0.87529629 193 161 157
-0.24094644 0.54606354 -0.87437636 207 173 170
-0.24046318 0.5477131 -0.87273246 203 167 167
-0.24044536 0.54756624 -0.87271702 204 168 168
-0.24039194 0.5464223 -0.87282377 209 176 173
-0.24078633 0.54595029 -0.87397599 208 175 172
-0.23996852 0.54655999 -0.87204242 208 176 171
-0.24002114 0.54651511 -0.87211782 208 176 171
-0.23999134 0.548127 -0.87174237 202 165 165
-0.24095914 0.54419249 -0.87472022 210 183 171
-0.24055304 0.544662 -0.87360054 214 185 176
-0.24074003 0.54396284 -0.8741563 211 186 172
-0.24074212 0.54309964 -0.8742336 208 189 168
-0.2403979 0.54416937 -0.87322789 213 188 175
-0.24037188 0.54283786 -0.87321907 208 187 166
-0.2403385 0.54126662 -0.87320113 201 186 155
-0.24068026 0.54214257 -0.87412089 205 189 162
-0.24014935 0.54434538 -0.87266368 213 186 176
-0.2398614 0.54247367 -0.87243366 204 179 163
-0.23971023 0.54311258 -0.8722344 205 177 167
-0.23977803 0.54360348 -0.8722834 208 179 171
-0.23972961 0.54435188 -0.8721537 211 183 173
-0.24055308 0.53972 -0.87454683 195 170 153
-0.2403467 0.5395878 -0.87404013 194 167 153
-0.2406099 0.53948808 -0.87483728 194 168 153
-0.24035759 0.53903174 -0.87438375 192 159 152
-0.24025938 0.53832519 -0.87445837 191 152 152
-0.23811491 0.53741854 -0.87166071 185 160 144
-0.2399997 0.53790855 -0.87422937 190 150 151
-0.23924157 0.53754514 -0.87328511 187 152 148
-0.23888005 0.53735048 -0.87284631 186 153 146
-0.23973931 0.53838742 -0.87358212 191 158 150
-0.24005929 0.54023385 -0.87307507 197 177 152
-0.23892887 0.54019743 -0.8717128 191 165 151
-0.23815061 0.53782403 -0.87156188 185 160 145
-0.23965539 0.54075664 -0.87235302 196 175 153
-0.2395574 0.53537196 -0.87405127 175 131 136
-0.24008726 0.53664458 -0.87480783 185 137 148
-0.23963696 0.5354985 -0.87416971 176 132 137
-0.23877649 0.53461307 -0.87285316 164 123 125
-0.23991811 0.53514338 -0.87464786 179 134 137
-0.23911241 0.53600979 -0.87333632 176 135 138
-0.2385601 0.53657311 -0.87250072 180 147 141
-0.23824976 0.53590131 -0.87204182 174 141 134
-0.23894341 0.53622061 -0.87308019 178 139 139
-0.23819162 0.53556705 -0.87195814 171 138 131
-0.23839475 0.53580505 -0.87226063 173 139 133
-0.25227344 0.58402234 -0.8903662 168 137 118
-0.25292823 0.5864321 -0.89085305 181 152 134
-0.25251675 0.58325452 -0.89094299 178 148 127
-0.2523604 0.58321542 -0.89061081 171 141 121
-0.25200048 0.58014083 -0.88960743 177 145 127
-0.25223011 0.58144802 -0.8903355 169 139 120
-0.25126728 0.58028984 -0.8881309 176 138 127
-0.25189292 0.58057922 -0.8893832 174 141 125
-0.25181472 0.58060133 -0.88923031 174 140 125
-0.25246027 0.57885522 -0.89071721 180 154 137
-0.25258353 0.57844263 -0.89100349 181 157 141
-0.25226742 0.5777449 -0.89007187 184 156 144
-0.25219151 0.57683426 -0.88983482 186 158 149
-0.25200519 0.57980728 -0.88957709 178 146 130
-0.25140646 0.57843351 -0.88850766 184 149 135
-0.2509298 0.57689244 -0.8876617 190 154 142
-0.25161505 0.57653552 -0.88871783 188 156 147
-0.25176024 0.57738352 -0.88899904 186 154 143
-0.25120902 0.57904959 -0.88807988 181 144 133
-0.25094923 0.57795274 -0.88765001 185 148 138
-0.25171474 0.57997698 -0.88900757 178 143 128
-0.25122851 0.57916945 -0.88810939 181 144 132
-0.25204876 0.57604092 -0.88944703 187 158 150
-0.25220981 0.57567972 -0.88980931 184 157 148
-0.25246873 0.57551181 -0.89041495 183 158 149
-0.25237256 0.57342076 -0.89011633 176 153 137
-0.25200662 0.5746035 -0.88934374 192 166 151
-0.25205556 0.57276076 -0.88945138 197 175 153
-0.25128046 0.57299501 -0.88835275 194 172 152
-0.25173232 0.57556933 -0.88893896 189 160 150
-0.25121871 0.57276475 -0.88827229 195 173 152
-0.25074396 0.57266068 -0.88764977 190 168 148
-0.25052032 0.57479233 -0.88712597 191 159 146
-0.25132245 0.57489222 -0.88837701 188 161 148
-0.25072116 0.5750609 -0.88741207 191 159 146
-0.25057599 0.57471925 -0.88722169 190 160 146
-0.25248176 0.57202846 -0.89046383 175 154 134
-0.25199729 0.56966513 -0.89058876 199 172 159
-0.25220564 0.57131279 -0.89022952 189 166 148
-0.25186789 0.56863874 -0.89095205 199 171 161
-0.25137785 0.56966752 -0.88987154 195 170 157
-0.25178418 0.57217139 -0.88906604 203 181 157
-0.25075534 0.57194179 -0.88783902 192 170 149
-0.25144142 0.57001722 -0.88976794 197 172 157
-0.250779 0.56912893 -0.88874972 191 163 152
-0.25101152 0.56962782 -0.88917249 192 166 154
-0.25028437 0.56874496 -0.88771391 188 157 147
-0.25068945 0.57064629 -0.88824219 190 166 150
-0.25067616 0.56925768 -0.88849235 190 162 151
-0.25035304 0.57191306 -0.88722974 188 166 146
-0.25007555 0.56554759 -0.88997054 189 169 143
-0.25034425 0.5659771 -0.88953233 191 168 147
-0.25001803 0.56544763 -0.88990664 189 169 143
-0.24963452 0.5646736 -0.88733387 190 165 142
-0.24998938 0.56530875 -0.8881036 191 166 145
-0.25002557 0.56543827 -0.88946819 190 168 143
-0.25087908 0.56769812 -0.88930953 193 164 153
-0.25002787 0.56805009 -0.88729829 186 155 145
-0.25067493 0.56801379 -0.88876444 191 161 151
-0.25069794 0.56721634 -0.88903266 193 165 152
-0.25030479 0.56603742 -0.88846773 192 166 148
-0.25039417 0.56798053 -0.88814157 189 159 149
-0.2489754 0.56079739 -0.88836527 196 174 156
-0.24908613 0.5623464 -0.88980168 190 171 145
-0.24850425 0.56091458 -0.89074206 187 160 144
-0.24926719 0.56289959 -0.88964528 191 174 144
-0.24876465 0.5611096 -0.88975716 191 167 149
-0.24907261 0.56301123 -0.89070702 186 168 139
-0.24936907 0.56307948 -0.8878696 193 172 147
-0.24930452 0.56231427 -0.8878274 195 175 152
-0.24935865 0.56312454 -0.88834649 192 172 146
-0.24944748 0.56402671 -0.88797253 190 168 141
-0.24927677 0.561791 -0.88725072 197 176 156
-0.24639332 0.56125349 -0.89042622 167 131 127
-0.24523468 0.56179386 -0.88987797 156 116 117
-0.24571203 0.56199336 -0.89011574 157 121 118
-0.24815798 0.55992359 -0.89068013 189 158 146
-0.24890274 0.56050193 -0.888336 197 174 157
-0.24876775 0.55968833 -0.88796264 201 175 162
-0.24820133 0.55718398 -0.88752729 212 176 172
-0.24870653 0.55937505 -0.88786268 203 176 163
-0.24834034 0.55813509 -0.88805264 206 174 166
-0.24846189 0.5602718 -0.89013511 190 162 149
-0.24639212 0.56044054 -0.89036334 175 133 132
-0.24725728 0.55833805 -0.88873297 196 157 154
-0.24750349 0.55938822 -0.88999194 189 153 146
-0.24662144 0.55949467 -0.88960284 183 142 140
-0.24719563 0.55969346 -0.89014167 185 148 142
-0.24656855 0.55844796 -0.88845772 192 149 150
-0.24650279 0.55877876 -0.88877267 189 146 146
-0.2462448 0.55943871 -0.88932878 182 138 139
-0.24686724 0.55853629 -0.88872194 193 151 150
-0.24508904 0.55747402 -0.88864362 163 130 120
-0.24620678 0.55740249 -0.88818687 184 147 142
-0.24558422 0.55842656 -0.88853276 177 135 135
-0.24645767 0.5570057 -0.88804895 186 152 145
-0.24516276 0.55688393 -0.8885591 161 133 119
-0.24530824 0.55909652 -0.88870615 176 129 133
-0.24784514 0.55616766 -0.88715261 204 169 165
-0.24638554 0.55631441 -0.88798612 182 152 142
-0.24505481 0.55607331 -0.88847917 157 131 117
-0.24710023 0.55658561 -0.88774645 196 163 155
-0.24453156 0.55533761 -0.88855922 145 121 110
-0.24607518 0.55653679 -0.88815057 177 147 136
-0.23638089 0.54595906 -0.8669098 173 139 144
-0.23462018 0.54528379 -0.86510295 165 132 128
-0.23585759 0.54707825 -0.8664571 166 136 131
-0.23507574 0.54682612 -0.8656776 162 134 124
-0.23457743 0.54602522 -0.86512548 162 132 123
-0.23445064 0.54621798 -0.8650192 160 132 120
-0.2344836 0.54554182 -0.86499286 163 132 125
-0.23361903 0.54638857 -0.86417472 153 119 113
-0.23323461 0.54581356 -0.86375827 153 119 112
-0.23367605 0.54717839 -0.86425638 149 111 111
-0.23503707 0.54767722 -0.86568743 158 129 120
-0.23350267 0.5455128 -0.86402881 157 127 114
-0.23362687 0.54573238 -0.86416435 157 127 115
-0.23656668 0.5435822 -0.86746353 185 155 159
-0.23639442 0.54185867 -0.86756486 191 157 160
-0.23528524 0.54281259 -0.86620319 179 145 144
-0.23441027 0.54353791 -0.8651877 171 139 132
-0.23453566 0.54377007 -0.86525571 170 138 132
-0.23614424 0.54224181 -0.86716741 186 150 155
-0.23338637 0.544734 -0.86391926 160 130 116
-0.23619996 0.54235762 -0.86719471 186 149 156
-0.23348351 0.542871 -0.86410892 170 139 128
-0.23366557 0.54358822 -0.8643102 167 136 125
-0.23461612 0.54202294 -0.86551881 180 147 142
-0.2333439 0.54171914 -0.86397249 176 145 134
-0.23316275 0.54420483 -0.86367714 161 132 118
-0.23379755 0.54119694 -0.86454266 181 149 141
-0.23375943 0.54295522 -0.86444378 171 140 130
-0.23503155 0.53800458 -0.86708319 157 131 120
-0.23485613 0.53894609 -0.86627799 168 136 134
-0.23556112 0.53911877 -0.86738384 170 141 135
-0.23479584 0.53834277 -0.86650026 161 132 125
-0.23477337 0.53890616 -0.86615872 168 135 133
-0.23555699 0.54036528 -0.866768 184 149 151
-0.23573202 0.54098845 -0.86691594 190 155 156
-0.23549695 0.54067051 -0.86666226 186 151 153
-0.23527808 0.54080009 -0.86638093 186 152 152
-0.23302969 0.53999507 -0.86371756 170 138 130
-0.23490509 0.54000986 -0.86600876 179 144 144
-0.24836829 0.58053464 -0.8820343 178 149 128
-0.24826288 0.58070403 -0.88180029 178 148 127
-0.24769044 0.58187127 -0.88080347 170 139 121
-0.24792035 0.58331901 -0.88079756 169 136 121
-0.24731793 0.58089489 -0.88057786 169 137 119
-0.24772072 0.58043218 -0.88108265 175 145 124
-0.24757867 0.583543 -0.88033634 166 133 119
-0.24842368 0.57866502 -0.88216001 179 145 129
-0.24894464 0.57906449 -0.88319004 178 146 129
-0.24840258 0.57869136 -0.88212007 179 145 129
-0.24851112 0.57766759 -0.88222426 175 140 126
-0.24754393 0.57764512 -0.88054001 171 140 122
-0.24754235 0.57823217 -0.88063222 174 144 124
-0.24782388 0.57913095 -0.88108867 177 147 126
-0.24713643 0.57824695 -0.88019741 172 143 122
-0.24907641 0.57428217 -0.88314211 185 147 139
-0.24854463 0.57500774 -0.88193703 174 137 127
-0.24905606 0.57307941 -0.88295972 191 155 144
-0.24852163 0.57418555 -0.88182402 179 144 132
-0.24814777 0.57363909 -0.88102543 183 154 135
-0.24806383 0.57304275 -0.88083678 188 162 140
-0.24750663 0.57438314 -0.88029701 176 146 128
-0.24796212 0.5733965 -0.88072491 185 158 137
-0.24738529 0.5733279 -0.88015699 185 159 137
-0.24699658 0.57578206 -0.87970811 170 139 121
-0.24673121 0.5740943 -0.87946427 181 156 133
-0.24832511 0.57207787 -0.88142788 194 169 147
-0.24883145 0.57007486 -0.88308907 188 160 145
-0.24841319 0.57065314 -0.88203609 189 165 144
-0.24817021 0.57052863 -0.88141996 191 167 145
-0.24809854 0.57021797 -0.88124299 192 167 146
-0.2485067 0.56905913 -0.88267595 184 160 142
-0.24793059 0.56935078 -0.88106704 190 165 146
-0.24781796 0.57094622 -0.88069803 191 166 145
-0.24782604 0.56914461 -0.88096941 189 163 146
-0.24718128 0.57026941 -0.88002056 185 158 141
-0.24771503 0.57164204 -0.88048643 191 167 145
-0.24699348 0.57136917 -0.87978935 190 166 144
-0.24826862 0.56570446 -0.88282108 189 160 142
-0.24835089 0.56529212 -0.88319743 188 158 141
-0.24834833 0.56668866 -0.88277841 187 160 142
-0.24818197 0.56571656 -0.88255918 190 161 143
-0.24797411 0.56801325 -0.88134706 190 164 146
-0.24637492 0.56451315 -0.87987977 176 147 131
-0.24772893 0.56679249 -0.88134569 188 160 143
-0.24689949 0.56609762 -0.88021839 181 153 137
-0.2480128 0.56770808 -0.88150996 190 163 146
-0.24736273 0.56549299 -0.8811726 184 156 138
-0.24783406 0.56798863 -0.88113439 189 162 146
-0.24668886 0.56597561 -0.87996089 179 151 136
-0.24676044 0.56624931 -0.88001782 180 152 137
-0.24688062 0.56639653 -0.88014805 181 153 138
-0.24746056 0.56194085 -0.88300711 188 161 143
-0.24763729 0.56333369 -0.88255477 187 159 140
-0.24675657 0.56243783 -0.8815918 182 155 138
-0.24750645 0.56362587 -0.88218611 186 157 139
-0.24609776 0.56414598 -0.87960976 175 146 131
-0.24740121 0.56351721 -0.88207185 185 157 139
-0.24685036 0.56118256 -0.8823629 184 158 141
-0.24645178 0.5628441 -0.8808701 179 151 136
-0.24618256 0.55713487 -0.88258159 194 176 155
-0.24574666 0.55737382 -0.88116342 190 167 149
-0.24594888 0.55760676 -0.88160634 190 168 150
-0.24641405 0.55839157 -0.88246965 191 169 150
-0.24540572 0.55697823 -0.88041842 189 166 148
-0.24670607 0.55895722 -0.88296598 190 168 150
-0.2458972 0.55983013 -0.88071233 187 157 140
-0.2465672 0.55969894 -0.88216674 186 161 144
-0.24553074 0.55924851 -0.88004178 187 157 140
-0.2456193 0.5585441 -0.88036525 187 160 143
-0.24511828 0.55317992 -0.88126522 207 186 170
-0.24489854 0.55359191 -0.8805722 212 197 176
-0.24532609 0.5546267 -0.88135016 208 193 172
-0.24510799 0.55349308 -0.88114148 208 190 172
-0.24450493 0.55321473 -0.87966394 217 205 182
-0.24547511 0.55635828 -0.88096792 194 173 154
-0.24513693 0.55566704 -0.88031775 198 178 159
-0.24515574 0.55645227 -0.8799929 190 167 150
-0.24549183 0.55660456 -0.88089752 191 170 152
-0.24496616 0.55476606 -0.88025641 206 189 168
-0.24470618 0.54990745 -0.88038409 200 177 154
-0.24541405 0.54885077 -0.88263232 210 189 170
-0.24446027 0.54926157 -0.8797639 202 181 154
-0.24437706 0.55249977 -0.87950099 218 204 182
-0.24445209 0.55238253 -0.87969553 216 201 179
-0.24449861 0.55080289 -0.87983698 208 189 165
-0.24455206 0.55170345 -0.87996203 211 194 172
-0.2443464 0.55139989 -0.87943733 214 198 173
-0.24444389 0.55007905 -0.87970632 206 186 160
-0.24424237 0.54573721 -0.88042206 207 187 171
-0.24429837 0.54601777 -0.88046068 206 188 169
-0.2443382 0.5459882 -0.88057584 206 188 169
-0.24498865 0.54556268 -0.88243359 206 195 166
-0.24423738 0.54832667 -0.87940001 204 184 156
-0.24518865 0.54813957 -0.88218999 209 190 167
-0.24533583 0.54821253 -0.88259965 209 191 169
-0.24490277 0.5478825 -0.88143063 207 189 163
-0.24551162 0.54831332 -0.8830846 211 191 171
-0.24501233 0.54594541 -0.88236189 206 194 165
-0.2450303 0.54621422 -0.88233018 206 194 166
-0.24354939 0.54524559 -0.87950081 204 181 173
-0.24411438 0.54782462 -0.87932003 205 183 159
-0.24297126 0.54132754 -0.87994379 207 182 159
-0.24393725 0.54361796 -0.88056564 207 185 170
-0.24394238 0.54423678 -0.88040131 207 186 173
-0.24402261 0.5432834 -0.88076884 207 184 169
-0.24364643 0.54425961 -0.87998456 206 184 173
-0.243488 0.54442304 -0.8797037 205 182 173
-0.24398623 0.54017663 -0.88152027 204 177 156
-0.24208473 0.53772175 -0.8795771 196 171 148
-0.24336714 0.54061103 -0.88062984 205 178 157
-0.24240279 0.53996444 -0.87951458 203 179 154
-0.24243541 0.5407843 -0.87938309 206 182 157
-0.24201781 0.53666794 -0.87978262 193 170 143
-0.24196573 0.53416151 -0.87961781 184 148 136
-0.24199769 0.53404373 -0.87968189 184 148 135
-0.24198656 0.53614044 -0.8797279 191 165 142
-0.25373319 0.58790106 -0.89439547 180 146 133
-0.25371456 0.58795232 -0.89416969 180 147 133
-0.2523573 0.58570999 -0.89383572 173 139 124
-0.25361821 0.58755499 -0.89471883 180 145 131
-0.2529591 0.58627611 -0.89385223 178 144 128
-0.25311506 0.58585995 -0.89297479 180 147 130
-0.25256029 0.5842548 -0.89144272 180 148 128
-0.25314969 0.58752561 -0.89105856 180 152 136
-0.2529605 0.58628172 -0.89115405 180 151 133
-0.25370249 0.58772612 -0.89439315 180 146 133
-0.25263962 0.58428586 -0.89119643 180 149 129
-0.25289482 0.58546376 -0.89159358 180 150 131
-0.2518999 0.58486986 -0.89316297 172 138 122
-0.25228459 0.58367634 -0.89148515 177 146 126
-0.25204334 0.58302772 -0.89186722 174 142 123
-0.25207677 0.5802843 -0.89164829 167 139 119
-0.25128442 0.58387434 -0.89207649 170 138 121
-0.25185826 0.58052611 -0.89185536 165 136 117
-0.24725212 0.58020055 -0.89183629 182 149 134
-0.25209525 0.57940644 -0.89173841 170 142 123
-0.25224262 0.5799945 -0.89141458 171 144 123
-0.25247109 0.57842761 -0.89125341 180 154 137
-0.25230551 0.5781222 -0.89161938 178 152 135
-0.25062278 0.577268 -0.89241874 182 154 138
-0.24927667 0.5782029 -0.89232457 188 159 141
-0.24921092 0.57767379 -0.89239734 191 162 142
-0.25063607 0.57648969 -0.89252323 185 157 141
-0.25045708 0.57633495 -0.89254826 187 159 142
-0.24866675 0.5785107 -0.89229745 191 162 142
-0.25158048 0.57708669 -0.8923952 177 149 134
-0.250339 0.57903987 -0.89212805 178 149 131
-0.25013506 0.5797841 -0.89200729 177 148 129
-0.25108215 0.57776427 -0.89230728 178 149 133
-0.25117248 0.5782209 -0.89221799 176 147 131
-0.247566 0.57631195 -0.89231318 198 170 147
-0.2478634 0.57741082 -0.89234757 198 169 146
-0.24643447 0.57709706 -0.89151353 183 153 136
-0.24792761 0.5772984 -0.89240211 199 170 147
-0.24719179 0.57949984 -0.89178616 183 152 135
-0.24726132 0.5797444 -0.89182264 184 152 135
-0.24573633 0.57709152 -0.89117151 176 145 131
-0.25215703 0.57552814 -0.89206469 182 155 144
-0.252222 0.57560879 -0.89194107 183 156 145
-0.25255877 0.57460862 -0.89126956 182 158 148
-0.2523692 0.57370979 -0.8915596 184 156 145
-0.24943878 0.57244545 -0.89197129 149 114 116
-0.24852729 0.57269871 -0.89193594 138 103 108
-0.2496718 0.57317299 -0.89214861 169 135 129
-0.24984592 0.5731408 -0.89215887 171 138 131
-0.24935579 0.57328445 -0.8921414 166 132 127
-0.24833192 0.57278198 -0.89193457 137 102 106
-0.25106597 0.57570183 -0.89251304 185 156 141
-0.25162029 0.57317322 -0.89226949 189 156 144
-0.25164545 0.57617164 -0.89254218 180 152 138
-0.25151601 0.57308114 -0.89226359 190 157 145
-0.2508561 0.57607138 -0.89255166 185 157 141
-0.24777289 0.57286066 -0.89181525 138 102 107
-0.24785052 0.57265085 -0.8918013 132 96 103
-0.24798177 0.57357824 -0.89205015 150 116 115
-0.24625176 0.57468224 -0.89137477 174 138 130
-0.24779628 0.5760057 -0.89245635 201 172 149
-0.24741152 0.57530767 -0.89214951 192 159 142
-0.24677667 0.57565373 -0.89179534 187 155 139
-0.25263417 0.57173163 -0.89107358 165 143 127
-0.25241399 0.57076794 -0.89107132 176 152 138
-0.25182402 0.57000887 -0.89149475 194 163 154
-0.25069755 0.57059294 -0.89193994 176 146 138
-0.2509414 0.56979358 -0.89163065 182 153 145
-0.25050825 0.5690878 -0.89150757 177 150 143
-0.24951833 0.56901711 -0.89171404 163 138 133
-0.25181851 0.57049853 -0.89165092 192 161 151
-0.24896602 0.56980944 -0.89191771 151 124 122
-0.2481311 0.57141346 -0.89181596 127 94 102
-0.24872273 0.57002819 -0.89189118 146 118 118
-0.25000188 0.57097077 -0.89200443 163 132 128
-0.24944143 0.57136858 -0.89194465 150 118 119
-0.25075752 0.57108355 -0.89207691 175 145 137
-0.24682915 0.56872314 -0.89123505 160 133 127
-0.24727017 0.57019675 -0.89143616 145 114 114
-0.24705231 0.56904954 -0.8913421 155 127 123
-0.24749623 0.57119006 -0.89154577 136 102 107
-0.24735375 0.57111746 -0.89148724 139 104 109
-0.24878991 0.5669409 -0.89162898 167 145 130
-0.25025675 0.56825942 -0.89134276 177 151 145
-0.25019178 0.56773305 -0.8913393 181 155 145
-0.25082871 0.56751329 -0.89118767 192 166 153
-0.24949495 0.56737375 -0.8914845 174 150 138
-0.25007129 0.56638759 -0.89126009 189 166 145
-0.24823582 0.5646317 -0.89166838 179 159 127
-0.2477819 0.56728053 -0.89165646 148 126 118
-0.24879876 0.56313938 -0.89116514 182 161 134
-0.24855162 0.56329542 -0.89131141 180 160 132
-0.24751848 0.56394416 -0.89134681 170 147 122
-0.2475999 0.56126159 -0.89107406 178 146 135
0 0 0 1 0 0 0 1 0 0 0 1 0 0 0 0 0 692 1 0 0
