ply
format ascii 1.0
comment PCL generated
element vertex 995
property float x
property float y
property float z
property uchar red
property uchar green
property uchar blue
element camera 0
property float view_px
property float view_py
property float view_pz
property float x_axisx
property float x_axisy
property float x_axisz
property float y_axisx
property float y_axisy
property float y_axisz
property float z_axisx
property float z_axisy
property float z_axisz
property float focal
property float scalex
property float scaley
property float centerx
property float centery
property int viewportx
property int viewporty
property float k1
property float k2
end_header
-0.014860344 -0.4631058 -0.68905252 113 89 103
-0.010494682 -0.46605542 -0.69125807 125 105 120
-0.010120497 -0.46543908 -0.69111967 125 105 119
-0.010656375 -0.46395838 -0.69045806 116 95 110
-0.011606982 -0.46552914 -0.69081146 118 96 112
-0.011294295 -0.46642673 -0.69120967 123 101 117
-0.010515761 -0.46370372 -0.69039768 116 95 109
-0.013044195 -0.46432257 -0.68998653 114 90 106
-0.011676298 -0.46383011 -0.69014788 115 93 108
-0.012602122 -0.46356213 -0.68980157 115 91 106
-0.012734008 -0.4637019 -0.68982244 115 91 106
-0.011066477 -0.46341819 -0.69014394 116 94 108
-0.007575674 -0.46561965 -0.69176811 126 106 121
-0.0092631476 -0.46636483 -0.69165742 130 110 124
-0.0063622743 -0.46416947 -0.69154125 120 97 111
-0.0068604164 -0.46379161 -0.69130439 118 94 107
-0.0072937161 -0.46320277 -0.69098538 116 93 106
-0.0062753372 -0.46295062 -0.69113994 115 90 103
-0.0091391783 -0.46477357 -0.69111049 123 103 116
-0.0084918821 -0.4646101 -0.69120759 122 101 114
-0.0044827443 -0.46383414 -0.69179547 113 89 99
-0.0036095856 -0.46329233 -0.69177735 107 82 87
-0.027030405 -0.47003281 -0.68803573 107 83 92
-0.027613215 -0.47031361 -0.68797672 108 84 92
-0.026401872 -0.46913907 -0.68789804 105 81 91
-0.025173569 -0.47021845 -0.68859428 105 78 91
-0.024946256 -0.46976808 -0.68850398 104 78 91
-0.022262186 -0.46753931 -0.68850964 101 75 86
-0.022266852 -0.46751717 -0.68850058 101 75 86
-0.023268024 -0.46706188 -0.68805242 101 76 87
-0.021804912 -0.46747568 -0.68862993 101 76 86
-0.021793505 -0.46886247 -0.68915188 104 79 90
-0.022162488 -0.46998847 -0.68945575 105 81 93
-0.023464827 -0.46953282 -0.68887246 104 78 90
-0.021901004 -0.46872282 -0.68906564 103 78 90
-0.02156301 -0.46821627 -0.68898344 103 78 89
-0.019365961 -0.4687129 -0.68984646 109 86 99
-0.019651046 -0.46988985 -0.69020623 112 89 102
-0.019895781 -0.46983853 -0.69010931 111 88 101
-0.018119851 -0.47032705 -0.69085711 121 99 112
-0.019196413 -0.47031102 -0.69051087 116 94 107
-0.020057013 -0.46961948 -0.68997467 109 86 99
-0.020440346 -0.46822599 -0.68933302 105 81 93
-0.018534785 -0.4674857 -0.68964225 109 85 98
-0.019727014 -0.46874827 -0.68974763 108 84 97
-0.02135382 -0.46705639 -0.68861496 101 75 86
-0.01949943 -0.46782663 -0.68947303 107 83 95
-0.020753575 -0.46699744 -0.68877751 103 77 88
-0.01529786 -0.47047201 -0.69163233 126 105 118
-0.014164728 -0.46922448 -0.69148648 122 100 115
-0.015963072 -0.47025281 -0.69140333 125 103 117
-0.014418619 -0.46799824 -0.69102079 117 93 111
-0.014015155 -0.46967265 -0.69167006 124 102 117
-0.015727965 -0.46980074 -0.69130909 123 101 115
-0.017126497 -0.46958938 -0.69087583 121 99 113
-0.015279834 -0.46753818 -0.69062126 114 90 107
-0.014648802 -0.46753177 -0.69079977 115 90 109
-0.01726822 -0.46892825 -0.69058251 118 96 109
-0.017379038 -0.46920681 -0.6906572 119 97 110
-0.016973758 -0.46864787 -0.69055969 117 95 109
-0.013472473 -0.46955624 -0.69175786 125 103 118
-0.012675434 -0.46745288 -0.69124329 120 97 114
-0.013528744 -0.46721348 -0.69096953 115 91 110
-0.012088101 -0.4672966 -0.69132549 122 100 116
-0.012745724 -0.46810031 -0.6914416 123 100 116
-0.030030251 -0.47417152 -0.68875265 115 92 99
-0.029428484 -0.47330227 -0.68858141 114 92 98
-0.029358683 -0.4743723 -0.68899101 115 93 101
-0.030559508 -0.47335705 -0.68832415 114 91 96
-0.029341076 -0.47394067 -0.68883705 115 93 100
-0.030583445 -0.47227231 -0.68792468 113 90 94
-0.028870823 -0.4720054 -0.68825221 112 89 95
-0.028166985 -0.47116134 -0.6881302 110 86 93
-0.02590589 -0.47098887 -0.68866706 107 80 92
-0.028438196 -0.47303203 -0.68874335 112 89 98
-0.026443673 -0.47089931 -0.68849152 107 82 92
-0.028276142 -0.47343105 -0.68893248 113 89 99
-0.025783895 -0.47446257 -0.68996 116 88 98
-0.026017949 -0.47412589 -0.68977654 115 87 97
-0.026923442 -0.47362077 -0.68935615 113 88 98
-0.026273413 -0.47408807 -0.68969589 115 88 98
-0.02681075 -0.47434723 -0.68964922 115 89 99
-0.022543982 -0.47437876 -0.69093466 119 91 106
-0.023112239 -0.47452113 -0.69080621 119 90 105
-0.024537612 -0.4741661 -0.69022584 116 88 99
-0.02341445 -0.47274759 -0.69006753 112 86 97
-0.021767739 -0.47192156 -0.69028986 111 86 100
-0.022465749 -0.47295502 -0.69044334 114 87 101
-0.025281996 -0.47252449 -0.68939441 111 83 94
-0.025037581 -0.47422814 -0.69008994 116 87 97
-0.025217831 -0.47258174 -0.68943548 111 83 95
-0.025321618 -0.47187889 -0.68914759 109 81 93
-0.024966937 -0.47103527 -0.68895406 107 80 93
-0.022346091 -0.47110897 -0.68981189 107 83 96
-0.019277845 -0.47399411 -0.6917845 128 107 123
-0.017992968 -0.47274712 -0.69172639 129 110 124
-0.018451365 -0.47209612 -0.69138342 125 103 118
-0.018216003 -0.47140604 -0.69122308 124 102 116
-0.020466054 -0.47100684 -0.69036973 112 89 103
-0.020800559 -0.47096115 -0.69024754 111 88 101
-0.018972386 -0.4707641 -0.69075364 118 97 110
-0.017880151 -0.47098425 -0.6911785 124 103 116
-0.020240264 -0.47294331 -0.69114304 120 95 111
-0.02102791 -0.4720937 -0.69058627 114 89 104
-0.017060887 -0.47119653 -0.69145578 127 106 119
-0.016298389 -0.47143939 -0.691715 128 108 121
-0.037827317 -0.47789249 -0.68824297 126 107 119
-0.037767168 -0.47748551 -0.68811411 127 108 120
-0.034896154 -0.47531208 -0.68799633 123 99 105
-0.036714587 -0.47634026 -0.68794125 129 107 117
-0.033763204 -0.47505042 -0.68816149 117 93 97
-0.033818815 -0.47797483 -0.68924892 109 84 95
-0.033554491 -0.47503212 -0.68820459 116 92 95
-0.035536323 -0.47743195 -0.68860179 121 98 105
-0.033381995 -0.47605923 -0.6886372 112 87 93
-0.035362557 -0.47800916 -0.68886477 118 95 104
-0.033926625 -0.47617021 -0.68853903 115 91 97
-0.030328015 -0.47579271 -0.68928152 112 90 99
-0.029586229 -0.47605059 -0.68952107 115 94 106
-0.029451525 -0.47582912 -0.68947381 116 95 106
-0.029401578 -0.47569445 -0.68943852 116 95 105
-0.030065646 -0.47627363 -0.68949801 114 92 103
-0.032994054 -0.47542161 -0.68849343 113 88 93
-0.031625371 -0.47632134 -0.68916923 110 86 95
-0.031968828 -0.47526884 -0.68868715 113 89 96
-0.031231346 -0.47621307 -0.68922496 111 87 96
-0.032414146 -0.47637373 -0.68899566 110 86 94
-0.025968546 -0.47580495 -0.69038981 120 93 105
-0.025991755 -0.47590289 -0.69041938 121 94 106
-0.025419429 -0.47796384 -0.69135439 135 110 123
-0.025735302 -0.47795448 -0.6912576 134 109 122
-0.02607766 -0.47552747 -0.69025445 118 91 103
-0.027743906 -0.47701627 -0.69031549 118 95 111
-0.029290089 -0.47531971 -0.68933511 116 95 105
-0.028860863 -0.47529212 -0.68943822 116 94 104
-0.029275922 -0.47760275 -0.69011074 118 98 115
-0.028805604 -0.47570357 -0.68959177 116 94 106
-0.029232675 -0.47648227 -0.68974322 117 96 110
-0.026383376 -0.47516668 -0.69004464 117 90 101
-0.024087112 -0.47767937 -0.69164544 135 109 125
-0.02239722 -0.47640172 -0.69168431 129 101 120
-0.021513402 -0.47488967 -0.69143569 122 94 112
-0.024230089 -0.47678411 -0.69129223 130 103 118
-0.024994269 -0.47589517 -0.69071972 124 97 109
-0.023020092 -0.47601423 -0.6913895 127 100 116
-0.02358745 -0.47578949 -0.69112617 125 98 113
-0.024586044 -0.47627592 -0.69099057 127 100 113
-0.024796668 -0.47547209 -0.69062507 122 94 106
-0.020928241 -0.47529286 -0.69173449 126 100 118
-0.037615813 -0.47982472 -0.68895441 129 108 119
-0.037535518 -0.47924927 -0.68877536 129 109 117
-0.033584196 -0.47890088 -0.68964368 106 80 93
-0.034544971 -0.48145095 -0.69030082 118 91 106
-0.034698598 -0.48209375 -0.6904918 121 94 109
-0.033624377 -0.48109439 -0.69043356 116 91 102
-0.033516355 -0.47927365 -0.68979925 107 82 94
-0.035196938 -0.47884402 -0.68920946 115 91 103
-0.035766542 -0.47884572 -0.68906349 118 95 106
-0.02971274 -0.47990516 -0.69084108 122 101 119
-0.029965477 -0.48157468 -0.69140631 127 103 121
-0.031107999 -0.48206818 -0.69134873 126 102 116
-0.029568171 -0.47867051 -0.69041479 118 99 117
-0.030872365 -0.47925285 -0.69035971 116 95 110
-0.033083722 -0.48108754 -0.69057602 116 92 102
-0.032513127 -0.47874001 -0.68983543 107 83 96
-0.032330323 -0.47935271 -0.69009686 111 87 100
-0.027875366 -0.48052284 -0.691562 133 110 127
-0.027776195 -0.48027003 -0.69149661 133 110 127
-0.027699275 -0.47957304 -0.69126034 131 109 126
-0.028216461 -0.48011935 -0.69131547 130 107 125
-0.027454181 -0.48055536 -0.6916939 136 112 128
-0.027451422 -0.48078698 -0.69178051 137 112 129
-0.026644051 -0.47868788 -0.69125158 133 110 126
-0.030762395 -0.4829478 -0.69173342 128 103 120
-0.029881839 -0.48252779 -0.69177645 131 105 123
-0.0023366013 -0.48630819 -0.69990814 162 148 165
-0.0013700214 -0.48611143 -0.69997013 151 134 149
-0.00023859239 -0.48511204 -0.69974667 128 104 116
-0.0014740676 -0.48692378 -0.7002489 156 141 155
-0.017950224 -0.43028465 -0.68008649 122 109 103
-0.016871877 -0.4297336 -0.68018514 111 97 91
-0.017253267 -0.43148786 -0.68046981 126 112 112
-0.021561794 -0.43473443 -0.68008316 137 128 133
-0.020210493 -0.43303016 -0.68011683 133 121 126
-0.020980623 -0.43457845 -0.68017113 138 130 131
-0.018344857 -0.43225059 -0.68036878 132 120 120
-0.018473078 -0.43548641 -0.6809569 121 110 112
-0.020103788 -0.43459013 -0.68036628 135 127 127
-0.017809391 -0.43384513 -0.68080598 124 110 112
-0.018278081 -0.43371478 -0.68066102 127 115 116
-0.017887227 -0.43453529 -0.68092078 121 108 110
-0.015332465 -0.43533 -0.68160319 102 82 88
-0.01470785 -0.43495736 -0.68165791 98 75 82
-0.01597419 -0.43462449 -0.68134391 105 85 88
-0.017479476 -0.43254495 -0.68063176 126 112 113
-0.016395282 -0.43221483 -0.68079221 115 96 96
-0.015254923 -0.4329116 -0.68116462 99 75 75
-0.017208699 -0.43501252 -0.68116927 113 98 100
-0.016080732 -0.43246698 -0.68090665 110 90 90
-0.01168648 -0.43496737 -0.68220407 85 59 69
-0.012945265 -0.43510252 -0.68201041 90 65 74
-0.026129428 -0.4390102 -0.68011904 112 95 108
-0.023627857 -0.43714768 -0.68013632 125 111 120
-0.021918761 -0.43597013 -0.6802029 137 131 131
-0.022838879 -0.4378688 -0.68038279 119 107 110
-0.024021562 -0.43814903 -0.6802339 120 109 113
-0.024713203 -0.43880713 -0.6802339 115 103 108
-0.022505375 -0.4371075 -0.68030465 126 117 119
-0.022450011 -0.43750513 -0.68038398 122 110 113
-0.019233545 -0.43923888 -0.68147677 93 70 75
-0.018163554 -0.43668941 -0.68126303 109 92 96
-0.019004745 -0.43930393 -0.68155402 92 68 74
-0.017664364 -0.43664742 -0.68139452 108 91 94
-0.017743846 -0.43749267 -0.68154252 102 83 87
-0.020326074 -0.43782771 -0.68089801 108 90 94
-0.01883536 -0.43624902 -0.68100005 116 101 104
-0.019805646 -0.43688068 -0.68086386 115 100 103
-0.018948123 -0.436542 -0.68102288 113 98 101
-0.021120971 -0.43901861 -0.68090504 100 78 84
-0.01911046 -0.43656105 -0.68098485 114 99 102
-0.015873309 -0.43806297 -0.68204278 91 66 73
-0.013924294 -0.43804109 -0.6824246 98 76 84
-0.013939578 -0.43735376 -0.68228358 96 73 82
-0.014442008 -0.43694952 -0.68210292 94 69 78
-0.014041476 -0.43652889 -0.68209785 94 70 79
-0.014252278 -0.43805516 -0.68236244 97 74 82
-0.016278829 -0.43722898 -0.68179435 96 74 80
-0.015839892 -0.43571404 -0.68157637 105 85 91
-0.016789112 -0.43858415 -0.68196589 89 65 70
-0.016832523 -0.43818292 -0.68187642 92 69 75
-0.015146173 -0.43692747 -0.68195885 92 67 75
-0.014387515 -0.43556961 -0.68183625 97 74 83
-0.01344459 -0.439273 -0.68276155 100 80 87
-0.012815073 -0.43939292 -0.68289155 99 81 88
-0.011371261 -0.43722308 -0.68271458 88 64 73
-0.012390705 -0.43643948 -0.68237847 90 66 75
-0.012595165 -0.43729666 -0.68251455 93 69 78
-0.01282184 -0.43647835 -0.68231046 92 68 77
-0.011358695 -0.43695581 -0.68266362 87 63 72
-0.013030093 -0.43628049 -0.68223417 92 68 78
-0.029305793 -0.44185024 -0.68048167 107 88 92
-0.031783883 -0.44321626 -0.68029743 102 81 91
-0.030380361 -0.44111547 -0.680125 111 93 105
-0.030916406 -0.44146407 -0.68009615 110 91 104
-0.03062902 -0.44288522 -0.68044698 103 83 89
-0.028873673 -0.44027907 -0.68018234 114 97 106
-0.028793423 -0.44137973 -0.68041694 109 90 95
-0.028622627 -0.44168955 -0.6804924 107 88 91
-0.026911018 -0.43947014 -0.68013901 113 98 107
-0.027401252 -0.43972677 -0.68016094 113 97 107
-0.025484134 -0.44026598 -0.68044966 106 90 98
-0.025930136 -0.44130728 -0.68068123 102 82 91
-0.025745161 -0.43989399 -0.68030953 108 94 100
-0.028498594 -0.44300729 -0.68080819 100 79 80
-0.025906341 -0.4413012 -0.68068272 102 82 91
-0.0267212 -0.44224358 -0.6808362 100 78 85
-0.022179617 -0.44236657 -0.68152308 94 66 75
-0.024492681 -0.44278985 -0.68131173 93 64 79
-0.024704406 -0.44308239 -0.68135589 92 63 79
-0.023392344 -0.44332731 -0.68159723 93 63 75
-0.024148619 -0.4433074 -0.68148851 92 62 77
-0.022113398 -0.4423497 -0.68152791 94 66 75
-0.023487341 -0.44122419 -0.6810506 95 70 81
-0.024976149 -0.44141769 -0.68085533 99 77 89
-0.025015568 -0.44204834 -0.6810258 96 71 85
-0.025049595 -0.4396137 -0.68033636 108 93 100
-0.024161978 -0.44098541 -0.68087041 99 76 87
-0.019102378 -0.44308639 -0.68233192 93 66 73
-0.017790461 -0.44010413 -0.68205953 89 63 69
-0.01947136 -0.44330069 -0.68229198 93 66 73
-0.0193555 -0.44226593 -0.68212402 92 65 71
-0.018017806 -0.44193298 -0.68235159 91 66 72
-0.01927794 -0.4432703 -0.68232822 93 66 73
-0.019874997 -0.44077721 -0.68167168 92 66 72
-0.017788248 -0.43965715 -0.68197614 88 63 68
-0.017869653 -0.43950167 -0.68191439 88 63 68
-0.020807078 -0.44145405 -0.68157977 94 67 74
-0.018887717 -0.44009486 -0.6817776 90 65 70
-0.014599225 -0.44102064 -0.68286729 104 84 89
-0.01562177 -0.44267461 -0.68297386 106 85 90
-0.015358328 -0.44211197 -0.68292081 105 84 89
-0.015629699 -0.44249699 -0.68293899 105 84 88
-0.015418986 -0.442462 -0.6829744 107 86 90
-0.014306735 -0.44314054 -0.68332279 121 104 106
-0.015752893 -0.44024676 -0.68249381 95 73 79
-0.016705045 -0.4410758 -0.68245983 93 69 75
-0.01574596 -0.44110069 -0.6826545 97 74 80
-0.015089501 -0.44084683 -0.68273723 99 77 83
-0.016527541 -0.43986678 -0.68226939 92 68 74
-0.015840838 -0.44116017 -0.68264681 96 74 80
-0.011188126 -0.44291052 -0.68392342 114 90 100
-0.033988588 -0.44450605 -0.68014252 102 80 93
-0.034958694 -0.44673952 -0.68039656 99 77 86
-0.035771083 -0.44654053 -0.68022871 103 82 87
-0.033534419 -0.44597465 -0.68048602 96 73 88
-0.036060505 -0.44681692 -0.68023276 103 82 86
-0.033145975 -0.44488883 -0.68035066 98 75 91
-0.030053092 -0.44384918 -0.68074501 99 78 80
-0.030446069 -0.44368148 -0.68063974 100 79 82
-0.030563369 -0.44347557 -0.68057972 101 79 83
-0.032746207 -0.44577059 -0.68058848 95 72 86
-0.03312793 -0.44595245 -0.68054962 95 71 88
-0.031050023 -0.44715574 -0.68124878 89 65 71
-0.03001203 -0.44650501 -0.68134171 90 67 68
-0.031783152 -0.44606236 -0.6808334 94 70 80
-0.029487953 -0.44392395 -0.6808812 99 77 76
-0.030935137 -0.44678214 -0.68119115 90 66 72
-0.030554228 -0.44702622 -0.68133402 88 65 69
-0.028335642 -0.44669262 -0.68168992 87 63 64
-0.025661491 -0.44626912 -0.68201643 91 66 73
-0.025738101 -0.44472179 -0.68161631 91 63 76
-0.025439134 -0.44590572 -0.6819613 91 65 75
-0.025678109 -0.44632319 -0.68202728 91 66 73
-0.029244825 -0.44724131 -0.68168026 86 63 61
-0.026974732 -0.4442237 -0.68130964 92 65 75
-0.028776914 -0.4436301 -0.68093002 98 76 77
-0.0288202 -0.44509295 -0.68125361 93 70 70
-0.027765382 -0.44548059 -0.68148482 89 63 69
-0.02830442 -0.44537947 -0.68138856 90 66 69
-0.028772354 -0.44491383 -0.68121982 93 70 71
-0.021497888 -0.44370952 -0.68196797 94 64 72
-0.024507996 -0.44685766 -0.68234992 92 67 73
-0.022056684 -0.44403568 -0.68196261 93 64 72
-0.023380766 -0.44538733 -0.68212092 93 66 72
-0.02287375 -0.44488934 -0.68206608 93 65 72
-0.021633962 -0.44578758 -0.68255645 94 65 75
-0.024408288 -0.44437975 -0.68172163 92 64 76
-0.024492119 -0.44495481 -0.68185419 92 64 75
-0.024114385 -0.44490346 -0.68189317 92 65 74
-0.023636846 -0.44336075 -0.68157208 92 62 76
-0.023356002 -0.44501543 -0.68202525 93 65 72
-0.018794034 -0.44457591 -0.6828087 94 68 75
-0.019468969 -0.44639581 -0.6831252 99 72 82
-0.018737895 -0.44541436 -0.68301016 97 72 80
-0.018667815 -0.44484642 -0.68289006 95 70 77
-0.018726015 -0.4446784 -0.68284261 94 69 76
-0.019469712 -0.44586709 -0.68300343 97 70 79
-0.021417128 -0.44366106 -0.68197066 94 64 72
-0.020771017 -0.44605905 -0.68281823 94 66 76
-0.01925795 -0.44475976 -0.68276244 94 67 75
-0.018856181 -0.44454491 -0.68278617 94 68 75
-0.021149958 -0.44392428 -0.68210614 94 64 73
-0.021172876 -0.44694135 -0.68299156 94 67 77
-0.014841009 -0.44619864 -0.68393129 121 98 110
-0.01504668 -0.44628292 -0.68390822 120 97 109
-0.016364161 -0.44616649 -0.68360204 115 93 100
-0.017120026 -0.44704431 -0.68365538 111 87 96
-0.015824523 -0.44637665 -0.68376815 117 94 104
-0.014590902 -0.44350305 -0.68334031 121 104 105
-0.017468795 -0.44393927 -0.68286824 97 72 78
-0.01737391 -0.44482166 -0.68309009 101 77 84
-0.016334319 -0.44340211 -0.68297035 105 83 87
-0.016897645 -0.44656217 -0.68358535 113 89 97
-0.01681542 -0.44631019 -0.68354374 112 89 96
-0.011827458 -0.44363007 -0.6839577 119 95 104
-0.013569297 -0.44374445 -0.68360639 128 111 114
-0.046544567 -0.45082831 -0.68009716 135 117 126
-0.04324669 -0.4505842 -0.68033183 126 92 112
-0.04151639 -0.44943678 -0.68025035 113 84 99
-0.041335203 -0.44900805 -0.68018597 112 84 97
-0.042873237 -0.45103937 -0.6804415 124 88 111
-0.042207073 -0.44888994 -0.68010545 117 89 101
-0.041860163 -0.44883552 -0.68011761 115 88 100
-0.040666901 -0.44939342 -0.68030167 109 81 95
-0.039272726 -0.4480994 -0.68015766 107 84 91
-0.039651968 -0.44869664 -0.68024123 108 82 92
-0.038775124 -0.44882584 -0.68032092 107 82 91
-0.039907169 -0.44970399 -0.68040699 109 79 94
-0.040708862 -0.45096031 -0.68057859 110 76 98
-0.039181817 -0.44947255 -0.68040615 108 80 93
-0.037989285 -0.4510856 -0.68065941 102 81 93
-0.039530467 -0.4499166 -0.6804601 108 79 94
-0.040491514 -0.45085716 -0.68056917 110 77 97
-0.034583632 -0.45068505 -0.68114203 100 79 89
-0.033364687 -0.45114967 -0.68149477 102 81 89
-0.036435034 -0.45101228 -0.68080634 100 82 91
-0.034707211 -0.44984362 -0.68095231 98 77 88
-0.034871161 -0.44899467 -0.68075246 95 74 87
-0.034104735 -0.44830891 -0.68078476 94 71 86
-0.036062632 -0.44836938 -0.68046927 100 80 87
-0.034794882 -0.44793022 -0.68061268 96 74 85
-0.034998503 -0.44815448 -0.68061113 97 75 86
-0.036321219 -0.44834125 -0.68042356 101 81 87
-0.036595177 -0.44814208 -0.6803515 102 82 87
-0.031504966 -0.45028502 -0.68175191 98 75 79
-0.029981969 -0.4508543 -0.68220872 97 75 75
-0.031381857 -0.45103389 -0.68192339 100 78 81
-0.03170871 -0.45044068 -0.68173516 98 76 80
-0.030733105 -0.4510335 -0.68207151 99 77 79
-0.030624954 -0.44948325 -0.68179929 94 72 73
-0.032680959 -0.44794965 -0.68102992 93 68 81
-0.033146378 -0.44797346 -0.68092716 93 69 84
-0.032249056 -0.44848865 -0.681234 93 70 79
-0.030484922 -0.44734028 -0.68141836 88 64 68
-0.032069664 -0.44807935 -0.68119603 92 68 78
-0.031005755 -0.44782603 -0.68139237 90 66 71
-0.026114762 -0.44927135 -0.68263137 94 69 72
-0.027644604 -0.45013672 -0.68252134 96 72 73
-0.025480976 -0.45038873 -0.68302238 95 68 70
-0.026362792 -0.44849813 -0.68239975 93 70 73
-0.026805585 -0.45030075 -0.68273115 95 71 72
-0.027676381 -0.45112938 -0.68274713 97 73 72
-0.02801127 -0.44759819 -0.68194962 88 65 66
-0.027115911 -0.44749233 -0.68207419 90 66 68
-0.025686048 -0.44742045 -0.68229181 92 68 72
-0.028358845 -0.44996485 -0.68234664 95 73 72
-0.028911522 -0.44837204 -0.68195218 89 67 65
-0.025715234 -0.44730774 -0.68226552 91 67 72
-0.024578357 -0.45082375 -0.68329102 96 69 72
-0.022055982 -0.44815582 -0.68312484 95 68 77
-0.022097243 -0.44806045 -0.6830948 95 67 77
-0.022649165 -0.44986477 -0.68341899 98 71 78
-0.021531366 -0.44762808 -0.68309665 95 67 78
-0.024168422 -0.44876304 -0.68288249 94 68 73
-0.025005192 -0.45017073 -0.68305981 95 68 71
-0.023950137 -0.44817078 -0.6827836 94 67 74
-0.021768926 -0.44752294 -0.68302834 95 67 77
-0.021865353 -0.4475185 -0.68300974 94 67 77
-0.020765672 -0.45066538 -0.68393815 106 79 88
-0.018107234 -0.44874191 -0.68391418 112 87 95
-0.020943822 -0.44882435 -0.6834693 101 73 83
-0.020442488 -0.44855005 -0.68348062 102 75 84
-0.020204099 -0.44797817 -0.68338186 101 74 84
-0.020452 -0.44879737 -0.68353748 102 75 85
-0.020462375 -0.44755739 -0.68324357 99 72 82
-0.019260634 -0.4486756 -0.68368936 107 80 89
-0.016528653 -0.44740099 -0.68386656 114 89 100
-0.048028834 -0.45167691 -0.68009001 133 127 131
-0.04737493 -0.45207834 -0.68022192 132 116 127
-0.045147602 -0.45148131 -0.68034357 137 101 124
-0.045353007 -0.45215622 -0.68042761 135 102 125
-0.046352305 -0.45301399 -0.68047321 129 101 123
-0.042613655 -0.4545933 -0.68099403 130 106 121
-0.042856786 -0.45449388 -0.68096191 129 105 122
-0.042450611 -0.45422834 -0.6809516 128 103 119
-0.041540574 -0.45456016 -0.68106574 131 106 118
-0.043045815 -0.45328641 -0.68076938 122 93 116
-0.044393323 -0.45388031 -0.6807602 130 103 126
-0.042343087 -0.45154497 -0.68056005 119 85 108
-0.044469323 -0.45352674 -0.68070167 131 102 126
-0.044621613 -0.45279866 -0.68058151 133 102 125
-0.043129031 -0.4523423 -0.6806221 124 91 115
-0.039363649 -0.45468032 -0.68126869 125 103 111
-0.039715536 -0.45499593 -0.68130416 128 105 113
-0.037872843 -0.45425203 -0.68133241 117 95 104
-0.037904024 -0.45411885 -0.68129766 117 94 104
-0.039790545 -0.45491746 -0.68127739 128 105 113
-0.038319096 -0.4534032 -0.68108344 115 94 103
-0.038887389 -0.45173764 -0.68073446 108 85 98
-0.040116183 -0.45169622 -0.68069965 111 82 100
-0.040312573 -0.45275334 -0.68085182 118 91 105
-0.040529527 -0.45253399 -0.68081427 117 89 105
-0.039871089 -0.45211968 -0.68076813 113 86 101
-0.040384427 -0.45144346 -0.68065596 110 79 99
-0.036197104 -0.45422789 -0.68160665 114 91 100
-0.0352013 -0.45485556 -0.68194443 116 90 98
-0.034521129 -0.45265588 -0.68159652 108 85 94
-0.035276841 -0.4535906 -0.68165076 112 88 97
-0.033413667 -0.45221499 -0.68172139 106 83 90
-0.035056397 -0.45326737 -0.68162376 110 87 96
-0.035841659 -0.4523375 -0.68123943 106 85 94
-0.037086811 -0.45445964 -0.68147033 115 92 102
-0.03493689 -0.45160395 -0.6812619 103 83 91
-0.036301687 -0.45328495 -0.68136317 110 88 97
-0.034542914 -0.45148826 -0.68131953 103 82 91
-0.029592641 -0.45398921 -0.68302393 103 79 81
-0.032129087 -0.45469379 -0.682567 112 85 89
-0.029812338 -0.45381227 -0.68292773 103 79 81
-0.031182891 -0.45329347 -0.68246669 107 82 83
-0.02957971 -0.45227548 -0.68261909 100 77 77
-0.033078037 -0.4521513 -0.68177813 106 82 89
-0.032454222 -0.45163533 -0.68180704 103 80 86
-0.029760528 -0.45141515 -0.68237364 99 77 76
-0.031678516 -0.45150176 -0.68195474 102 79 83
-0.032136388 -0.45219928 -0.68200374 105 81 85
-0.032230929 -0.4517006 -0.68187237 103 80 85
-0.026220223 -0.45497769 -0.68398148 106 79 82
-0.026800716 -0.45347586 -0.68349069 101 75 77
-0.027147233 -0.45381001 -0.6834994 102 76 78
-0.026329236 -0.45332012 -0.68355215 101 75 77
-0.026628079 -0.45431611 -0.68373299 104 78 80
-0.027569737 -0.45197868 -0.68297094 98 73 74
-0.027974132 -0.45208207 -0.68291295 98 74 74
-0.028490253 -0.453374 -0.68311507 100 76 78
-0.027893672 -0.45197189 -0.68290311 98 74 74
-0.028425055 -0.4528386 -0.68300098 100 76 76
-0.023905035 -0.45284438 -0.68390667 104 76 82
-0.021848135 -0.45138216 -0.68392622 104 76 85
-0.024797503 -0.45356581 -0.68391949 104 77 80
-0.024719849 -0.451682 -0.68347222 98 71 74
-0.045247491 -0.45626336 -0.68110782 131 108 132
-0.045866564 -0.45866171 -0.68152905 131 107 133
-0.046504643 -0.45881775 -0.68151504 129 103 130
-0.046150997 -0.45584732 -0.68095839 127 104 128
-0.043136425 -0.4576281 -0.68151593 135 112 129
-0.042372804 -0.45657873 -0.68137151 135 112 125
-0.04250269 -0.45723397 -0.68148148 135 111 126
-0.041290782 -0.45838308 -0.68175662 134 108 123
-0.042168166 -0.45629492 -0.68133235 135 112 124
-0.043270592 -0.4554956 -0.68109977 133 110 127
-0.043828323 -0.45661709 -0.68127698 134 111 130
-0.044824407 -0.45698035 -0.68127614 134 111 134
-0.044836599 -0.456536 -0.6811893 133 110 133
-0.043595966 -0.45707959 -0.68138313 135 112 130
-0.03878434 -0.45677963 -0.68173254 124 100 112
-0.037139818 -0.45583463 -0.68178171 119 95 107
-0.038860306 -0.4583984 -0.68209606 128 103 120
-0.03715799 -0.45739636 -0.68214136 122 99 115
-0.038095552 -0.45768553 -0.68205535 125 101 117
-0.037945751 -0.45817578 -0.6821937 126 102 119
-0.038188867 -0.45533994 -0.68153882 122 98 108
-0.040147789 -0.45643157 -0.68151832 130 106 117
-0.038833681 -0.45520699 -0.68144387 125 101 110
-0.04043863 -0.45615643 -0.68143696 132 108 117
-0.040443666 -0.45585486 -0.68138236 132 108 117
-0.039984204 -0.45535916 -0.68134421 130 106 115
-0.034807757 -0.45675528 -0.68246609 120 94 106
-0.034193959 -0.45630577 -0.6824944 119 92 101
-0.034232974 -0.45642099 -0.68251783 120 93 102
-0.035901751 -0.45840991 -0.68266398 125 101 117
-0.034444522 -0.45772853 -0.68284357 125 99 109
-0.036711905 -0.45678055 -0.68208599 121 97 111
-0.0361664 -0.45652822 -0.68213671 120 95 108
-0.036963712 -0.45580143 -0.68180811 119 95 107
-0.036627471 -0.45833468 -0.68246377 124 100 119
-0.035764173 -0.45568857 -0.68202239 118 93 103
-0.036695801 -0.4577696 -0.68231887 123 99 116
-0.031375203 -0.45883524 -0.68386811 125 96 103
-0.031247351 -0.45799008 -0.68368012 121 94 100
-0.031419139 -0.45795557 -0.68363702 122 95 100
-0.030186318 -0.45707247 -0.6836679 114 87 93
-0.03144059 -0.45808145 -0.68366373 123 95 101
-0.031849049 -0.45607707 -0.68301827 116 89 94
-0.031962164 -0.45639127 -0.68308187 118 91 95
-0.031445652 -0.45569187 -0.68300545 113 87 91
-0.030355901 -0.45584962 -0.68331981 110 85 89
-0.03119581 -0.45583516 -0.68310875 113 87 91
-0.030243445 -0.45575964 -0.6833213 110 85 88
-0.027671751 -0.45621553 -0.68397945 109 81 87
-0.028335933 -0.45628127 -0.6838553 108 81 87
-0.029189177 -0.45723897 -0.68391073 110 82 90
-0.0494163 -0.46188706 -0.68186027 144 124 157
-0.048924502 -0.46063599 -0.68167323 135 113 143
-0.049109876 -0.45974272 -0.68150061 125 97 129
-0.045266151 -0.46112648 -0.68204653 141 115 143
-0.045082457 -0.46115521 -0.68206817 140 113 142
-0.045139465 -0.46129763 -0.68209106 141 114 142
-0.044939443 -0.46213874 -0.68227321 142 112 142
-0.046716686 -0.46140563 -0.68197495 146 128 155
-0.045248169 -0.46174502 -0.68216926 142 115 144
-0.047045965 -0.45921806 -0.68155134 129 104 131
-0.048003443 -0.46078345 -0.68176377 140 121 149
-0.047235999 -0.46100065 -0.68185574 145 129 155
-0.048098009 -0.46005952 -0.68162823 133 110 139
-0.04581045 -0.4598437 -0.68174851 140 120 146
-0.048358042 -0.46234405 -0.68201715 153 142 169
-0.042077061 -0.46044791 -0.68212587 138 111 130
-0.041683134 -0.46171749 -0.68247867 142 119 136
-0.042982426 -0.46096385 -0.68215603 139 110 133
-0.042517051 -0.46254355 -0.68259239 144 120 141
-0.04282954 -0.46161669 -0.68233216 141 114 136
-0.042932857 -0.46052167 -0.68207163 138 110 132
-0.042353235 -0.45990926 -0.68198484 136 109 129
-0.044419911 -0.46231595 -0.68233806 142 111 140
-0.044322401 -0.46076974 -0.68204087 139 111 137
-0.041997205 -0.45956773 -0.68193829 135 109 127
-0.044205174 -0.461173 -0.68212652 140 111 138
-0.037516955 -0.46000513 -0.68273181 128 106 125
-0.037173703 -0.46268895 -0.68359476 131 108 122
-0.037365768 -0.46184194 -0.68330461 130 108 123
-0.038192801 -0.46091643 -0.68285626 132 111 128
-0.038580462 -0.46172136 -0.68301076 135 114 130
-0.038039047 -0.46176729 -0.68313944 133 111 127
-0.040109161 -0.46050206 -0.68239993 137 114 131
-0.039769869 -0.46088114 -0.68254822 137 116 133
-0.039800346 -0.45981041 -0.68228096 134 110 127
-0.039344013 -0.46032301 -0.68248105 135 113 130
-0.04090894 -0.45900267 -0.68190205 133 107 123
-0.039391566 -0.46079007 -0.68258768 136 115 132
-0.036202125 -0.46260002 -0.68379694 132 109 121
-0.033730131 -0.46094844 -0.68393159 134 110 117
-0.034712367 -0.46058279 -0.68360764 132 107 115
-0.035008606 -0.46124297 -0.68371475 132 108 117
-0.036148131 -0.4617326 -0.68357623 131 107 119
-0.035153795 -0.45966786 -0.68322635 130 105 117
-0.036136638 -0.45954591 -0.6829356 128 104 120
-0.036637053 -0.46050042 -0.68308675 128 105 121
-0.036251429 -0.46129295 -0.68342006 130 106 119
-0.033086378 -0.45980981 -0.68377447 133 107 113
-0.031821586 -0.45909673 -0.68384475 127 99 106
-0.039830934 -0.4639402 -0.68341571 141 121 136
-0.040030099 -0.4642472 -0.68347228 141 122 136
-0.03880791 -0.46443194 -0.68378347 136 116 130
-0.039605029 -0.46489099 -0.68376499 139 119 133
-0.038291272 -0.46340796 -0.68356931 135 114 129
-0.036683183 -0.46306291 -0.68381375 131 109 122
-0.0071448749 -0.47755647 -0.6958555 146 128 144
-0.0059788292 -0.47748929 -0.6961388 142 122 138
-0.0052499333 -0.47599158 -0.69576985 136 116 131
-0.0056131762 -0.47762185 -0.6962676 142 121 136
-0.0041517597 -0.47600988 -0.69600296 134 113 126
-0.002512231 -0.47507894 -0.69602835 127 106 117
-0.0037054033 -0.47836143 -0.69692278 132 110 122
-0.0020941533 -0.47553244 -0.69627351 125 103 113
-0.0034468258 -0.47652686 -0.69633913 132 111 123
-0.0029857827 -0.47698504 -0.69659358 129 107 118
-0.0021759863 -0.47527835 -0.69616836 125 104 114
-0.0024443595 -0.47649747 -0.69653624 126 104 115
-0.00030361698 -0.47785947 -0.69737834 99 71 81
-0.00049715978 -0.47833446 -0.69751269 101 74 83
-0.000390684 -0.47828794 -0.69751376 99 72 81
-0.00085774041 -0.47764605 -0.69721365 107 81 92
-0.0014044393 -0.47515967 -0.69626158 116 94 104
-0.0010718873 -0.4757174 -0.69650888 112 87 98
-0.00039812585 -0.47616076 -0.69677138 102 76 87
-0.00064840645 -0.47471738 -0.69622976 106 82 93
-0.0011477392 -0.47532853 -0.6963616 113 89 100
-0.013131997 -0.48223534 -0.69597614 159 140 157
-0.010965251 -0.48177889 -0.69639504 159 145 161
-0.011389435 -0.48176044 -0.69627273 159 144 160
-0.011178702 -0.48148111 -0.69622552 159 144 160
-0.012929941 -0.4823091 -0.69605875 159 141 158
-0.011807037 -0.48069105 -0.69576025 157 141 157
-0.0096138325 -0.47937059 -0.6958608 156 143 159
-0.0074483138 -0.47994325 -0.69664592 151 134 149
-0.0067794509 -0.47852036 -0.69629043 147 129 144
-0.0096974382 -0.48234636 -0.69695181 160 148 164
-0.0081718182 -0.47987744 -0.69643092 153 137 153
-0.0073685637 -0.48239118 -0.69749951 156 140 155
-0.0074049802 -0.48210716 -0.69739491 155 139 154
-0.0069147544 -0.48038295 -0.69692254 150 133 148
-0.0078939525 -0.48072022 -0.69681299 153 137 153
-0.0062804502 -0.47909245 -0.69663006 147 127 143
-0.0074351286 -0.48095194 -0.69699645 153 136 152
-0.0039062079 -0.48154387 -0.69794619 143 124 132
-0.0030217092 -0.48048073 -0.69777131 136 115 122
-0.004938338 -0.48234674 -0.69800806 150 132 142
-0.0026896759 -0.47998461 -0.6976741 132 111 118
-0.0049944832 -0.48168027 -0.69778067 147 127 140
-0.0051664393 -0.48229122 -0.69794601 150 132 143
-0.0053021344 -0.48008969 -0.69717962 145 125 139
-0.0045365267 -0.48047587 -0.69746888 141 121 133
-0.0036444576 -0.47925061 -0.69723809 134 112 123
-0.0045821476 -0.48074913 -0.69755208 142 122 134
-0.0028941922 -0.4787325 -0.6972177 128 105 116
-0.0055614472 -0.48106137 -0.69745535 148 129 143
-0.0011738309 -0.47979814 -0.69788241 118 94 99
-0.0018598704 -0.48098931 -0.69815773 134 115 115
-0.0019013627 -0.4788866 -0.6974678 124 100 108
-0.017922748 -0.486036 -0.69618696 151 127 145
-0.01759403 -0.48567647 -0.69613886 151 128 146
-0.016856171 -0.48540792 -0.69622767 152 129 147
-0.016481044 -0.48424926 -0.69587171 155 133 151
-0.016984558 -0.4843058 -0.69576162 155 132 151
-0.014398832 -0.48297068 -0.69592094 157 138 155
-0.015638016 -0.48404309 -0.69601303 155 134 151
-0.014971753 -0.48578644 -0.69688147 147 125 141
-0.01419643 -0.48335704 -0.69612843 156 136 152
-0.015061251 -0.48556584 -0.69677037 148 126 142
-0.01592174 -0.485511 -0.69651872 150 127 144
-0.015014251 -0.48427474 -0.69627255 153 132 149
-0.015287058 -0.48484978 -0.69642699 151 130 147
-0.010434253 -0.4847964 -0.69768333 152 133 157
-0.010355755 -0.48343158 -0.69719183 156 142 159
-0.011322466 -0.48417723 -0.69722813 153 136 152
-0.0098589817 -0.4828648 -0.69710445 159 146 163
-0.010704776 -0.48589468 -0.69802666 148 126 154
-0.012540125 -0.48559529 -0.69745314 146 126 143
-0.010952217 -0.48273328 -0.69676226 159 144 160
-0.013387883 -0.48473236 -0.69688958 149 129 144
-0.011221447 -0.48272899 -0.69668728 158 144 160
-0.013653675 -0.48544058 -0.69709718 146 125 140
-0.012250415 -0.48452583 -0.69711751 151 133 148
-0.013422697 -0.48569381 -0.6972602 145 124 139
-0.0063951835 -0.48506257 -0.69876081 160 143 162
-0.0060286499 -0.48269686 -0.6979211 153 135 150
-0.0073296782 -0.48461303 -0.69835299 154 134 157
-0.007678532 -0.48431954 -0.69815129 151 130 154
-0.0065653487 -0.48271778 -0.69780433 153 135 151
-0.0077487137 -0.48315746 -0.69769853 154 137 155
-0.008549097 -0.48402563 -0.69784075 153 134 157
-0.0079396116 -0.48431385 -0.69808805 151 130 155
-0.0090563847 -0.48525521 -0.69818538 150 128 158
-0.0094157048 -0.4849067 -0.69797271 152 131 160
-0.0027656467 -0.48555523 -0.69958657 158 143 157
-0.0025280041 -0.48535755 -0.69955266 157 142 155
-0.0019548472 -0.48281711 -0.6987465 145 128 126
-0.0050102826 -0.48555878 -0.69924879 163 147 162
-0.0047803232 -0.48531431 -0.69919759 161 146 158
-0.002766384 -0.48278987 -0.69859582 147 130 129
-0.0050831437 -0.48421314 -0.69870889 158 141 154
-0.0055484748 -0.48516351 -0.69899297 162 146 162
-0.003093374 -0.48323625 -0.69870836 149 133 134
-0.0034323807 -0.48332611 -0.69867831 150 134 137
-0.0031540703 -0.48270744 -0.69848871 147 130 131
-0.00093991891 -0.48368531 -0.69916832 133 111 114
-0.0016445089 -0.48469961 -0.6994437 148 131 140
-0.00096500025 -0.4837037 -0.6991719 133 112 115
-0.022112608 -0.48935962 -0.69632977 140 114 129
-0.020985784 -0.48864859 -0.69637233 145 120 135
-0.021305345 -0.48789898 -0.6959812 148 125 141
-0.02037338 -0.4887659 -0.69659251 144 118 133
-0.01845183 -0.48712033 -0.69647169 148 123 140
-0.0207189 -0.48929295 -0.69670755 143 115 131
-0.019217823 -0.48683348 -0.6961394 150 126 143
-0.020684315 -0.48977581 -0.6968959 142 114 129
-0.018689999 -0.48877695 -0.69700909 145 122 136
-0.017784927 -0.4901804 -0.69772136 144 125 135
-0.020203244 -0.48989818 -0.69705248 142 116 130
-0.018046716 -0.48746538 -0.69669354 148 124 140
-0.018911224 -0.48983034 -0.69733202 144 121 133
-0.013994721 -0.48665169 -0.69747198 143 121 135
-0.015991565 -0.48876584 -0.69769412 144 123 135
-0.017104056 -0.48813781 -0.69716972 146 125 139
-0.016098917 -0.48687464 -0.69698888 146 124 139
-0.016327869 -0.48767537 -0.69721258 146 124 138
-0.015459409 -0.486588 -0.69705772 145 123 138
-0.01480047 -0.48652482 -0.69721144 144 122 137
-0.017197143 -0.48714918 -0.69679302 148 125 141
-0.0091895359 -0.48712721 -0.698865 150 128 159
-0.0084457807 -0.48688042 -0.69894993 154 133 163
-0.019076342 -0.4919652 -0.69810611 142 122 135
-0.018950306 -0.49237728 -0.69831198 140 119 134
-0.019816607 -0.49295208 -0.69831765 140 119 135
-0.019341074 -0.4932079 -0.69855279 139 116 132
-0.020648671 -0.49359617 -0.69836146 139 119 136
-0.021354025 -0.49145368 -0.69736731 140 114 130
-0.019605825 -0.49137422 -0.69774783 142 120 134
-0.020231908 -0.49073115 -0.69735509 142 117 131
-0.019503901 -0.49204686 -0.69802868 142 122 136
-0.020298613 -0.49190924 -0.69778937 141 119 134
-0.020118497 -0.49070087 -0.69737017 142 117 131
-0.017306307 -0.49094784 -0.6981675 142 121 132
-0.021138469 -0.49452314 -0.6986109 138 117 135
-0.021697948 -0.42235732 -0.67839313 106 83 94
-0.022744754 -0.42273685 -0.67836535 106 83 94
-0.022317229 -0.42122063 -0.67820245 108 89 99
-0.023554524 -0.42232591 -0.67825365 107 86 96
-0.024493042 -0.42332548 -0.6783132 106 83 93
-0.023236239 -0.42155892 -0.67817491 109 89 99
-0.024262255 -0.4217273 -0.67809284 113 93 104
-0.02294636 -0.42109615 -0.67813098 110 91 101
-0.024654642 -0.42279428 -0.67822343 108 86 97
-0.017695636 -0.42052528 -0.67868412 96 78 100
-0.019634221 -0.42308494 -0.67872947 96 66 86
-0.019238811 -0.42358974 -0.67882645 91 54 80
-0.018828442 -0.42293346 -0.67880499 92 58 84
-0.019808965 -0.4229666 -0.67869741 97 69 88
-0.020714568 -0.42035076 -0.67825788 107 90 101
-0.020262288 -0.42233655 -0.67857438 101 80 94
-0.019771228 -0.42085466 -0.67845231 103 85 100
-0.019702572 -0.42063814 -0.67843401 103 86 101
-0.017948726 -0.41996968 -0.67859 99 85 104
-0.020172285 -0.42196757 -0.67853951 102 82 96
-0.014584712 -0.4217822 -0.67922145 97 72 90
-0.016272131 -0.42341104 -0.67919785 85 47 72
-0.015937891 -0.4227545 -0.67914689 90 54 80
-0.015727792 -0.42207122 -0.67906976 94 59 88
-0.016040146 -0.4224779 -0.67908293 91 54 84
-0.015022124 -0.42378381 -0.67947853 84 58 65
-0.016414141 -0.42179987 -0.67895913 93 61 90
-0.016563134 -0.42206573 -0.67897004 92 57 87
-0.015984679 -0.42005756 -0.67882687 102 85 106
-0.016944395 -0.42066732 -0.67878282 96 75 99
-0.016704075 -0.42028069 -0.67876965 99 81 103
-0.012823399 -0.42113018 -0.67939556 91 72 81
-0.013633173 -0.42300156 -0.67958993 89 75 72
-0.01286505 -0.42221868 -0.67957091 85 67 68
-0.013187977 -0.42166051 -0.67943102 92 74 81
-0.013469289 -0.42165455 -0.67938918 96 79 86
-0.029650785 -0.42746401 -0.67818803 106 82 95
-0.025559323 -0.42762828 -0.67870736 103 74 87
-0.025407003 -0.42532298 -0.67847377 104 78 90
-0.027286794 -0.42691371 -0.6784128 104 79 90
-0.025956988 -0.42605606 -0.67848527 104 78 90
-0.026556753 -0.42549223 -0.67834848 105 80 91
-0.02754895 -0.42530686 -0.67821765 109 86 99
-0.026619831 -0.42488414 -0.67827737 106 83 94
-0.029025685 -0.42557511 -0.67808658 116 95 110
-0.02866463 -0.42640695 -0.67819887 109 86 99
-0.027588226 -0.4255012 -0.67823088 108 85 97
-0.022764752 -0.42716649 -0.67887789 118 99 108
-0.022686725 -0.42654112 -0.67881274 114 93 103
-0.02420924 -0.42712665 -0.67876202 107 81 93
-0.022147603 -0.42513055 -0.67869389 107 83 95
-0.022177275 -0.42650482 -0.67884791 117 98 108
-0.023705583 -0.42700607 -0.67878711 110 86 97
-0.025175879 -0.42688763 -0.67866296 103 75 88
-0.022159621 -0.42402378 -0.67856914 103 77 89
-0.023540024 -0.42566642 -0.67864847 103 75 88
-0.024732687 -0.42394668 -0.67837304 105 80 92
-0.024706921 -0.42578542 -0.67857641 103 77 89
-0.017674761 -0.4262383 -0.67939502 98 73 74
-0.018304802 -0.42465726 -0.67905515 91 51 80
-0.018722927 -0.42711213 -0.67936873 110 93 90
-0.019471761 -0.42697659 -0.67923307 114 96 100
-0.018626874 -0.42743483 -0.67943317 111 98 89
-0.021328297 -0.42551342 -0.67880625 114 94 105
-0.018775824 -0.42423472 -0.67894965 91 51 79
-0.02064966 -0.42501479 -0.67882633 107 80 96
-0.021188915 -0.426792 -0.6789673 123 107 117
-0.020116279 -0.42539337 -0.67892969 107 79 97
-0.019831782 -0.42473143 -0.67888665 100 68 89
-0.0171645 -0.42765337 -0.67970741 103 91 73
-0.014816113 -0.42522854 -0.67974317 90 77 65
-0.016281884 -0.42673689 -0.67971992 98 86 70
-0.017510649 -0.42664817 -0.67948472 100 79 74
-0.016383309 -0.42570904 -0.6795373 94 75 70
-0.015918721 -0.42558247 -0.67959911 94 78 69
-0.016554646 -0.42394054 -0.67923522 83 45 68
-0.01725309 -0.42500323 -0.67927665 89 55 71
-0.016325446 -0.42410877 -0.6793012 84 50 68
-0.033736121 -0.43133622 -0.67825508 100 75 94
-0.032526739 -0.43140128 -0.67836732 98 73 91
-0.029994054 -0.42994785 -0.67850399 100 77 89
-0.030012188 -0.42971069 -0.67846334 101 77 89
-0.030557735 -0.43119991 -0.67862231 98 74 88
-0.031741854 -0.43047795 -0.67833388 100 75 91
-0.032184817 -0.42843914 -0.67802137 103 70 95
-0.032284118 -0.42906845 -0.67808855 102 71 94
-0.031989548 -0.42999661 -0.67823613 100 74 92
-0.025653508 -0.43023148 -0.67899466 112 96 102
-0.025391759 -0.4308261 -0.67907947 116 104 108
-0.025394533 -0.43132374 -0.67913395 118 109 111
-0.026168102 -0.43082672 -0.67902148 111 97 102
-0.026746709 -0.43137839 -0.67903882 110 96 102
-0.028971275 -0.42897615 -0.67849082 102 78 89
-0.028759455 -0.42969286 -0.6786322 100 76 87
-0.027634455 -0.42898279 -0.67865926 101 76 87
-0.029265942 -0.43136913 -0.67883736 97 74 85
-0.028818406 -0.42915779 -0.67853904 101 78 88
-0.021711756 -0.42866078 -0.67916477 130 118 127
-0.023989763 -0.43086216 -0.67922664 123 114 118
-0.022374088 -0.42968166 -0.67924613 128 116 124
-0.023927143 -0.43123871 -0.67929763 123 113 118
-0.022114808 -0.43074489 -0.67945766 128 113 125
-0.025138164 -0.43103153 -0.67912155 119 109 112
-0.022854552 -0.42885453 -0.67905843 126 115 121
-0.024795251 -0.42838442 -0.67885739 110 87 97
-0.024962736 -0.43004534 -0.67902684 116 102 107
-0.022375017 -0.42840943 -0.67904657 128 117 123
-0.025046455 -0.43112811 -0.67913926 120 112 114
-0.01982357 -0.43100962 -0.67987812 125 109 116
-0.020767836 -0.43097642 -0.67969209 125 107 118
-0.019661177 -0.42982113 -0.67966789 118 103 103
-0.019675074 -0.43025354 -0.67975265 121 106 107
-0.020592606 -0.42789075 -0.67920375 126 115 116
-0.01942759 -0.42817438 -0.67942959 118 107 100
-0.018537074 -0.42816952 -0.67956537 112 101 88
-0.020930706 -0.42939121 -0.67940158 127 112 120
-0.019287419 -0.42790553 -0.6794064 117 107 98
-0.020517787 -0.42915305 -0.6794253 124 111 114
-0.016510082 -0.42860919 -0.68002772 101 86 77
-0.037274387 -0.43280321 -0.67830551 109 94 102
-0.034108985 -0.43524069 -0.67883003 108 86 99
-0.034852248 -0.43330687 -0.67841959 100 78 92
-0.03359209 -0.4335185 -0.67858857 103 80 95
-0.03339611 -0.43268469 -0.67846596 101 76 94
-0.033873495 -0.43221098 -0.67834228 99 75 92
-0.029988987 -0.43250251 -0.6789192 100 77 88
-0.031532198 -0.43524495 -0.67913109 110 86 98
-0.030292341 -0.43456668 -0.67917949 107 83 94
-0.029298386 -0.43258801 -0.6790126 100 76 87
-0.031855788 -0.43471709 -0.67901736 108 84 97
-0.030962233 -0.431692 -0.67864275 97 73 88
-0.031841855 -0.43343222 -0.67881334 104 80 94
-0.031375151 -0.43200603 -0.67863643 98 74 89
-0.032964319 -0.43339473 -0.67864311 104 79 96
-0.032750074 -0.43362236 -0.67871344 104 80 96
-0.032752741 -0.43175861 -0.67839295 98 73 91
-0.025509825 -0.43298507 -0.67932612 119 101 116
-0.026387678 -0.43351653 -0.67934424 117 98 111
-0.025634624 -0.43526006 -0.67959619 119 81 121
-0.027405122 -0.43540946 -0.67952049 114 83 108
-0.026443742 -0.43297961 -0.67927599 117 103 109
-0.028552486 -0.43217915 -0.6790098 103 83 91
-0.028638097 -0.43463382 -0.67935532 110 89 97
-0.028383445 -0.4326309 -0.67908716 105 86 94
-0.028984411 -0.43424824 -0.67927414 107 85 93
-0.027861433 -0.43397593 -0.67931908 113 95 101
-0.023041975 -0.43516046 -0.67992783 131 109 129
-0.023454744 -0.43471196 -0.67981076 127 100 127
-0.022681123 -0.4339509 -0.67982173 129 107 128
-0.021587804 -0.43250358 -0.67978871 131 114 128
-0.023630159 -0.43449143 -0.67975706 126 96 126
-0.024307245 -0.43417841 -0.67962235 122 89 124
-0.023855526 -0.43335405 -0.67958248 123 96 123
-0.022966534 -0.43311548 -0.67967224 125 97 125
-0.024695443 -0.43177599 -0.67927837 121 111 116
-0.023900462 -0.43344697 -0.67958778 123 95 123
-0.020089637 -0.43179211 -0.67997837 130 113 123
-0.020814933 -0.43346637 -0.68005741 134 123 129
-0.040399387 -0.43917498 -0.6788063 112 97 102
-0.038766153 -0.43844858 -0.67880028 113 98 104
-0.037165962 -0.43685731 -0.67870212 110 93 101
-0.038092423 -0.43889874 -0.67887652 118 103 111
-0.038598344 -0.43828925 -0.67879075 113 97 104
-0.035384849 -0.43827656 -0.67904717 119 101 112
-0.035220079 -0.43768361 -0.67899269 118 99 111
-0.034523044 -0.43840984 -0.67917395 118 98 108
-0.033907603 -0.43771026 -0.67916346 116 95 105
-0.033394784 -0.43797159 -0.6792621 115 94 104
-0.035080861 -0.43862879 -0.67913073 119 101 111
-0.036244068 -0.43627697 -0.67873466 109 90 100
-0.036066018 -0.43612495 -0.67873746 108 90 99
-0.035647839 -0.43743545 -0.67891896 117 98 109
-0.035659112 -0.43716863 -0.67888975 115 96 107
-0.036876436 -0.4386839 -0.67892075 121 105 115
-0.030208331 -0.43855593 -0.67973799 117 97 108
-0.029765408 -0.43850845 -0.67978877 117 98 109
-0.030444337 -0.43883738 -0.67974657 117 98 109
-0.029801738 -0.43746701 -0.67963898 114 93 103
-0.029947035 -0.43750048 -0.67962486 114 93 103
-0.031487897 -0.43571532 -0.67920095 111 87 99
-0.032269649 -0.43731132 -0.67931223 113 91 101
-0.031908218 -0.43712047 -0.67933041 113 90 100
-0.032551534 -0.43792865 -0.67935765 114 93 102
-0.033117183 -0.43771029 -0.67926335 114 92 102
-0.027595494 -0.4388406 -0.67999852 116 97 113
-0.027048461 -0.43824667 -0.67994428 117 93 115
-0.027533246 -0.43876445 -0.67999107 117 96 114
-0.027210392 -0.43784958 -0.67987388 118 91 117
-0.028232444 -0.43609709 -0.67957002 114 86 105
-0.027454602 -0.43606699 -0.67960703 116 84 111
-0.028492527 -0.43753129 -0.67975599 117 92 111
-0.028547924 -0.43730086 -0.67972094 116 92 109
-0.029226547 -0.43919128 -0.67994827 119 101 115
-0.023779916 -0.43604583 -0.67994827 127 104 126
-0.024686495 -0.43734607 -0.68001562 118 97 116
-0.025258634 -0.43599164 -0.67972988 119 82 122
-0.039900865 -0.43948799 -0.67886174 115 100 106
-0.040499926 -0.44028056 -0.67894346 109 92 101
-0.034182735 -0.4411144 -0.67956573 112 92 105
-0.033521947 -0.44113442 -0.67967474 111 91 102
-0.033923537 -0.44049105 -0.67951429 114 94 105
-0.036383744 -0.44043717 -0.67918384 118 102 115
-0.034125675 -0.43996349 -0.67941672 116 97 106
-0.034150284 -0.43975446 -0.6793893 117 98 107
-0.036084022 -0.44064105 -0.67924583 117 99 113
-0.035080258 -0.44040626 -0.67934644 116 97 109
-0.030872345 -0.44123849 -0.68005693 111 93 106
-0.031345006 -0.44030735 -0.67984325 115 96 108
-0.032637838 -0.44215333 -0.67995125 107 87 100
-0.032059416 -0.44030657 -0.6797505 114 95 105
-0.032636646 -0.44000635 -0.67963094 115 95 104
-0.033196833 -0.44010374 -0.67957294 114 94 102
-0.045394141 -0.44724059 -0.67962897 110 100 102
-0.046180047 -0.44681183 -0.67948461 107 93 98
-0.046269998 -0.44637305 -0.67940986 106 89 96
-0.047052495 -0.44665423 -0.67937195 105 87 97
-0.045236297 -0.44702733 -0.67961317 110 99 101
-0.047663748 -0.44571722 -0.67917919 103 81 93
-0.044681467 -0.44711465 -0.67967272 111 101 102
-0.04345499 -0.44696879 -0.67972022 109 95 99
-0.041182183 -0.44703782 -0.67985696 108 87 93
-0.043552272 -0.4469119 -0.67970663 109 95 99
-0.044329353 -0.44635481 -0.67958146 107 95 99
-0.037626389 -0.44610399 -0.67990136 106 86 95
-0.038786538 -0.44671842 -0.67994028 107 87 92
-0.037800465 -0.44679347 -0.6800167 106 86 90
-0.034831569 -0.44456774 -0.68001854 103 83 95
-0.036814954 -0.44656539 -0.68006611 105 85 90
-0.034465015 -0.44380713 -0.67993796 103 83 99
-0.047310472 -0.45106247 -0.68005931 136 125 130
-0.047146168 -0.45027018 -0.6799469 130 124 125
-0.04831893 -0.45097604 -0.67994541 134 135 132
-0.042730708 -0.44878432 -0.68005663 117 92 102
-0.044503573 -0.44792315 -0.67981195 115 100 104
-0.0447619 -0.44764298 -0.67975134 114 101 104
-0.043227401 -0.4479188 -0.67988741 112 95 100
-0.041550964 -0.44774622 -0.67995363 109 88 94
-0.039924584 -0.44748279 -0.68000585 108 86 91
-0.049489237 -0.45129922 -0.67991275 128 130 127
-0.0068867062 -0.46546328 -0.69186091 126 105 122
-0.0074109049 -0.46577802 -0.69185376 127 107 123
-0.0065847598 -0.46555147 -0.69195318 126 106 123
-0.0050686244 -0.46456876 -0.69192868 118 97 110
-0.0049352725 -0.46504945 -0.69211024 120 100 113
-0.0035013284 -0.46355045 -0.69188213 107 83 89
-0.0041166572 -0.46504781 -0.69226223 116 96 106
-0.0043878322 -0.46557373 -0.69239235 121 101 113
-0.0022050748 -0.46594933 -0.69300133 121 102 96
-0.0032748238 -0.46621335 -0.69286406 124 106 107
-0.0031475015 -0.46536043 -0.69258493 117 98 100
-0.0027715736 -0.46496716 -0.69252503 114 93 93
-0.0021980428 -0.46485031 -0.69260752 112 91 87
-0.010514919 -0.4688189 -0.69218844 133 114 127
-0.011643426 -0.46894532 -0.69197726 131 110 123
-0.013529478 -0.47067448 -0.69212455 129 108 120
-0.0098595778 -0.46804374 -0.69207978 134 114 128
-0.010330947 -0.46860838 -0.69216025 134 114 127
-0.012835922 -0.46970299 -0.69195682 129 108 120
-0.0097356448 -0.46919227 -0.69248575 136 117 130
-0.0096301204 -0.47021973 -0.69284666 138 120 132
-0.0082545727 -0.46720332 -0.69214344 133 114 131
