ply
format ascii 1.0
comment PCL generated
element vertex 853
property float x
property float y
property float z
property uchar red
property uchar green
property uchar blue
element camera 1
property float view_px
property float view_py
property float view_pz
property float x_axisx
property float x_axisy
property float x_axisz
property float y_axisx
property float y_axisy
property float y_axisz
property float z_axisx
property float z_axisy
property float z_axisz
property float focal
property float scalex
property float scaley
property float centerx
property float centery
property int viewportx
property int viewporty
property float k1
property float k2
end_header
0.14978366 0.070697255 -0.80797905 187 175 153
0.14989822 0.070540935 -0.80823797 184 173 153
0.14917511 0.068754651 -0.80694675 172 157 156
0.14930831 0.069226623 -0.80716693 176 162 156
0.14890254 0.068726443 -0.80638033 174 158 158
0.14876337 0.071077868 -0.80607188 191 178 152
0.14898869 0.070712134 -0.80646753 189 176 154
0.14949998 0.071249157 -0.80740654 192 180 153
0.14972244 0.071853429 -0.80782622 195 185 151
0.14872438 0.070759349 -0.80599189 189 175 153
0.14942139 0.071127251 -0.80726105 191 179 153
0.14897235 0.066998564 -0.80625927 181 173 178
0.14850177 0.067531087 -0.80539757 181 168 172
0.14846654 0.067576759 -0.80533445 180 167 171
0.14855783 0.067692518 -0.80555195 179 165 169
0.15407355 0.081068859 -0.81767648 98 63 61
0.15409216 0.080406152 -0.81728119 103 66 63
0.15462999 0.080538161 -0.81908941 106 74 66
0.15491559 0.080314629 -0.82012582 111 83 70
0.15406138 0.079844557 -0.81695241 109 69 66
0.15432303 0.078517362 -0.8169511 119 78 78
0.15493013 0.080035537 -0.82002747 113 84 71
0.1544349 0.077465184 -0.81694907 129 90 89
0.15457778 0.076971717 -0.8173089 135 98 96
0.15455399 0.078848831 -0.81802213 119 82 77
0.15470313 0.076513305 -0.81812632 125 93 90
0.15484455 0.077649638 -0.81909585 119 90 83
0.15504505 0.078818403 -0.82055128 107 83 71
0.15494286 0.07705076 -0.82002443 101 79 71
0.15492745 0.076459929 -0.82000428 97 76 70
0.1542524 0.073759407 -0.81718832 136 106 90
0.15405519 0.073167704 -0.81713098 134 107 89
0.1542974 0.073857874 -0.81722569 136 106 91
0.15448265 0.073768258 -0.81804907 152 127 113
0.15449315 0.073241457 -0.81840956 155 134 117
0.15448985 0.074335471 -0.81773269 149 120 110
0.15481655 0.073208526 -0.81968337 178 162 146
0.15493782 0.074364178 -0.82042497 138 124 111
0.15469944 0.075128414 -0.81832075 148 120 114
0.15483238 0.075008906 -0.81944638 135 114 105
0.15465264 0.075120017 -0.81793231 154 124 118
0.15486176 0.07459455 -0.81975561 142 123 112
0.15411134 0.070038177 -0.81728256 176 166 159
0.15426908 0.0693876 -0.81747061 190 185 182
0.15393065 0.069196612 -0.81683075 190 185 184
0.15511295 0.070130713 -0.82040924 190 186 181
0.15481164 0.068604879 -0.81891268 197 196 202
0.15489486 0.07168255 -0.82036406 193 186 168
0.15486792 0.069827877 -0.8195588 195 192 188
0.15485415 0.070245035 -0.81968069 195 191 184
0.15433072 0.070522673 -0.81794244 176 166 155
0.15439805 0.072027273 -0.81857407 158 142 120
0.15456027 0.070013739 -0.81870717 200 196 190
0.15444334 0.069278635 -0.81807286 203 201 199
0.15524442 0.066355273 -0.81994963 191 189 202
0.1553966 0.06806092 -0.82054853 187 186 197
0.15520804 0.066740334 -0.81990665 190 189 202
0.15513383 0.067163087 -0.8197732 190 189 201
0.15516706 0.067255624 -0.81986862 190 189 201
0.15505463 0.067748778 -0.8195495 192 192 202
0.15501666 0.068166703 -0.81943136 194 193 202
0.1547831 0.067155726 -0.81874496 196 195 206
0.15475504 0.066810809 -0.81866503 195 195 207
0.15803303 0.081781842 -0.83943325 84 69 70
0.15760696 0.082732037 -0.84021568 79 72 73
0.15806006 0.081697077 -0.83901143 85 67 66
0.15817489 0.081455655 -0.83902305 86 68 68
0.15865283 0.080277547 -0.83748573 93 60 56
0.15869588 0.080396809 -0.8395797 91 76 80
0.15840639 0.080884397 -0.83774096 90 60 55
0.15894583 0.079461001 -0.84008497 93 84 89
0.15928327 0.076286972 -0.83890074 111 109 99
0.15895955 0.076790027 -0.83729643 152 149 143
0.15941206 0.076224253 -0.83968723 92 90 79
0.15901259 0.078428045 -0.83941406 106 99 100
0.15879487 0.078798823 -0.83711261 120 97 92
0.15879647 0.079211704 -0.83766037 111 88 86
0.15882701 0.079803117 -0.83903515 98 81 84
0.15873788 0.079891063 -0.83728313 98 65 60
0.15879253 0.079432063 -0.83785272 107 83 81
0.15933716 0.073124096 -0.83722514 140 139 128
0.15959385 0.073244199 -0.83962655 118 116 118
0.15958931 0.072918825 -0.83942538 123 122 125
0.15946402 0.073395528 -0.83851594 125 124 119
0.15945479 0.074963443 -0.83920097 101 100 89
0.15928075 0.075029135 -0.83804029 127 125 115
0.15929042 0.074575029 -0.83781838 131 129 119
0.15913644 0.074820578 -0.83695191 153 151 142
0.1592177 0.074983664 -0.83759356 138 136 126
0.15903127 0.075257912 -0.83652997 165 163 154
0.15895168 0.076022163 -0.83648354 169 167 159
0.15974781 0.071801335 -0.83999377 130 128 137
0.15980236 0.070353456 -0.83896327 149 147 150
0.16024721 0.06894026 -0.84000504 163 159 153
0.16008396 0.068640925 -0.83887947 170 165 161
0.1599527 0.069248512 -0.83874524 163 159 158
0.15963341 0.071008757 -0.83845043 146 144 148
0.15944912 0.071740836 -0.83738416 151 150 147
0.15946855 0.072223216 -0.8379671 143 142 141
0.15958171 0.070328586 -0.83740669 159 157 157
0.15954427 0.072097309 -0.83855236 139 138 140
0.16026254 0.066113301 -0.83955199 168 165 166
0.16031013 0.067314789 -0.839261 171 168 164
0.16018336 0.065680541 -0.83777803 174 173 177
0.16030832 0.067041166 -0.83959991 169 166 163
0.1602086 0.0653385 -0.83903575 168 166 171
0.16019316 0.065238215 -0.83871311 169 168 173
0.1602184 0.066412047 -0.83820033 174 172 172
0.16024491 0.067152709 -0.83876723 173 170 167
0.16017516 0.066443339 -0.83799231 174 172 173
0.15983683 0.068008989 -0.83712864 177 174 172
0.15981378 0.068354949 -0.83720815 177 173 170
0.16068357 0.063525058 -0.84023315 157 149 161
0.16175164 0.060604885 -0.83744287 145 118 140
0.16112316 0.062307023 -0.83897376 152 136 152
0.16182938 0.060810558 -0.83845258 145 119 142
0.16144586 0.06138226 -0.83804131 148 126 145
0.1614271 0.061198771 -0.837412 148 125 144
0.16060269 0.063308157 -0.83895099 157 148 160
0.16058382 0.063197382 -0.83709359 164 155 168
0.16049197 0.063384198 -0.83648169 168 161 174
0.16125424 0.061423637 -0.83679545 151 130 147
0.16145822 0.060853366 -0.83634955 148 123 142
0.16043337 0.063732445 -0.83875108 162 156 166
0.15452957 0.056680247 -0.83784175 202 200 212
0.15485393 0.056934379 -0.83930552 208 206 216
0.16195494 0.060165592 -0.83665913 144 117 139
0.16215295 0.060381871 -0.8388387 144 116 140
0.16246469 0.060019448 -0.83850437 144 118 141
0.16415 0.058671366 -0.83889401 149 132 146
0.16288409 0.059850957 -0.83948231 145 121 142
0.1631206 0.059715305 -0.83981931 146 123 143
0.16214633 0.060068622 -0.83734679 144 116 140
0.16250423 0.060066875 -0.83893061 144 118 141
0.16270269 0.059717666 -0.83797169 145 121 141
0.16267595 0.059553519 -0.83672082 146 122 143
0.16552544 0.057973232 -0.8367337 169 157 173
0.16410515 0.058683202 -0.83750349 153 136 152
0.16367742 0.05890958 -0.83760971 149 130 147
0.16565526 0.057818901 -0.83755678 165 155 168
0.16563761 0.057878889 -0.83705509 168 157 172
0.16990486 0.057148643 -0.83719593 180 181 185
0.16965722 0.057165831 -0.83762282 178 178 182
0.16917925 0.057214916 -0.83930969 173 171 176
0.1680177 0.057273101 -0.84009486 166 161 166
0.16649272 0.057326723 -0.83989012 158 151 156
0.16758081 0.057275321 -0.83932322 164 160 164
0.1661253 0.057579774 -0.83777803 167 159 171
0.16662577 0.057597224 -0.83682299 173 166 178
0.16627587 0.057407029 -0.8392688 160 152 159
0.1670631 0.057546999 -0.83664244 175 169 180
0.16887993 0.057275649 -0.8365187 179 177 184
0.16735128 0.057501722 -0.83664519 175 170 181
0.17144479 0.056833163 -0.8367548 157 157 162
0.17086369 0.056967437 -0.83677959 167 167 172
0.17246708 0.056812465 -0.8387087 146 146 153
0.17006625 0.057155117 -0.83864403 177 176 181
0.17080513 0.057061918 -0.83902681 167 166 172
0.17192069 0.056927416 -0.8399418 152 151 158
0.1714668 0.056993835 -0.84020394 158 156 163
0.17208865 0.056893416 -0.83933365 151 150 157
0.17382956 0.056649208 -0.84004354 128 127 136
0.17256951 0.05652469 -0.83692712 141 139 146
0.17358701 0.055917431 -0.83693475 135 133 142
0.17349736 0.056456085 -0.83863467 132 131 139
0.17418708 0.0555261 -0.83669037 140 137 146
0.17415453 0.056127321 -0.83873808 135 134 142
0.17434101 0.056286678 -0.83961827 136 135 144
0.17529203 0.055932336 -0.8400228 149 149 157
0.17448877 0.056375798 -0.8401857 137 136 145
0.17538869 0.055867542 -0.8399632 150 151 159
0.17573206 0.054495957 -0.83676887 174 175 180
0.17566128 0.054513413 -0.83670372 173 174 179
0.17520769 0.055073626 -0.83721358 158 157 164
0.15886351 0.076279975 -0.84450072 100 99 70
0.15854485 0.076317742 -0.84702265 107 105 80
0.1584143 0.07747598 -0.84540737 96 92 77
0.1582703 0.077705249 -0.84587711 96 91 79
0.15924996 0.074405871 -0.84698862 110 105 96
0.16008873 0.072568171 -0.84543782 110 102 109
0.15927394 0.07432729 -0.84722209 111 105 96
0.15971312 0.073280454 -0.84731197 111 103 102
0.16002582 0.072670206 -0.84593582 110 102 108
0.16006738 0.072508879 -0.84660792 111 101 108
0.15915261 0.075115547 -0.84532928 105 102 85
0.15950477 0.074322164 -0.84465778 105 101 91
0.1587739 0.075955465 -0.84608853 105 104 78
0.15915629 0.075373016 -0.84458131 103 100 79
0.15869293 0.075757936 -0.84730244 109 107 85
0.15989092 0.07334166 -0.84422958 106 101 101
0.16055819 0.070220061 -0.84719127 131 123 118
0.1602806 0.071611814 -0.84801626 117 107 109
0.16055492 0.070083216 -0.846816 133 126 121
0.16086039 0.069100089 -0.84728563 138 133 120
0.16087866 0.06884294 -0.84681553 142 137 124
0.16067386 0.070022717 -0.8478083 129 122 115
0.16024281 0.072198264 -0.84497595 110 102 112
0.16049273 0.069947436 -0.84534168 139 132 128
0.16043197 0.070258521 -0.84595209 136 128 125
0.16053139 0.069945425 -0.84437352 138 132 129
0.16029455 0.07160341 -0.84543371 118 110 116
0.15995732 0.064588971 -0.84458053 136 126 129
0.160484 0.066474795 -0.84732664 128 122 114
0.16006 0.065235868 -0.84680772 120 112 112
0.16040878 0.066351488 -0.84781927 121 116 108
0.16047417 0.066270925 -0.84625345 136 129 123
0.16004066 0.065007538 -0.8457433 129 120 120
0.16020146 0.065507911 -0.84465373 142 133 132
0.16059156 0.067090102 -0.84531629 146 140 131
0.16042824 0.066225275 -0.84543437 142 134 129
0.16073765 0.067632243 -0.84566301 147 142 130
0.16066134 0.067107037 -0.84595472 143 138 127
0.16079377 0.067495868 -0.84646922 143 138 125
0.15825361 0.060804859 -0.84543878 118 101 101
0.15925767 0.061644629 -0.84620142 110 95 100
0.15873827 0.062322292 -0.84674776 96 83 85
0.16158748 0.060982663 -0.84576243 136 117 132
0.15823203 0.063353278 -0.84759367 76 65 66
0.15978526 0.062323894 -0.84680349 102 88 96
0.16044092 0.062926352 -0.84526616 130 116 124
0.1606158 0.062765785 -0.84516317 133 119 128
0.15927455 0.06355536 -0.84654617 99 88 92
0.16097338 0.062186841 -0.84528875 136 120 131
0.16107057 0.061838895 -0.84557861 133 116 128
0.16188526 0.060741842 -0.84556705 142 123 139
0.15986885 0.063901477 -0.84499961 127 115 120
0.15916631 0.064209275 -0.84611535 105 95 98
0.15951094 0.064363785 -0.84720486 103 94 98
0.16052064 0.063499212 -0.84430492 142 128 136
0.16135186 0.061911091 -0.84496748 144 127 140
0.1619013 0.059145387 -0.84581727 140 126 139
0.16058718 0.058362875 -0.84651476 173 162 174
0.15948756 0.05667619 -0.84732938 192 187 196
0.16019803 0.057083778 -0.84695572 174 167 177
0.16148129 0.059567694 -0.84588969 157 141 156
0.1614392 0.057224359 -0.84643078 137 130 139
0.15986681 0.060311291 -0.84546322 139 121 129
0.15898269 0.058064416 -0.84693009 196 186 195
0.15883283 0.060309269 -0.84541076 132 115 118
0.15869161 0.057154536 -0.84752756 219 213 223
0.16044486 0.059988286 -0.84571075 151 135 145
0.16002411 0.058711533 -0.8465485 184 172 184
0.1614297 0.059893481 -0.84582573 160 143 159
0.16538714 0.056913871 -0.84442621 185 169 176
0.16247149 0.058312017 -0.84572119 134 122 133
0.16453598 0.057471659 -0.84477079 172 156 165
0.16536537 0.056843374 -0.84445399 184 168 175
0.16292624 0.05846034 -0.84543723 146 131 143
0.16485111 0.057249688 -0.84464663 177 161 169
0.16332629 0.059425924 -0.84440202 160 139 154
0.16262805 0.060186904 -0.84422642 150 127 145
0.17360324 0.056866203 -0.84437227 110 106 110
0.16929731 0.055268489 -0.84644985 112 104 115
0.16713151 0.055380814 -0.84706426 85 77 87
0.16710123 0.055306084 -0.84725726 84 77 86
0.1691656 0.055421069 -0.84613496 111 103 113
0.16828725 0.055040225 -0.84741473 98 91 102
0.16983344 0.055489887 -0.84569544 120 112 121
0.16667089 0.055957094 -0.84571552 133 122 129
0.16688997 0.055522215 -0.84678817 94 86 95
0.16741499 0.056332182 -0.84446061 160 148 154
0.16642827 0.055585369 -0.84678435 103 94 102
0.16763994 0.056362227 -0.84430164 161 149 155
0.16602346 0.055505514 -0.84713858 99 90 99
0.17235486 0.056486726 -0.84533113 136 131 136
0.17209128 0.056574557 -0.84427166 113 108 113
0.17239539 0.056497961 -0.84531385 135 131 135
0.17054462 0.055865619 -0.84549618 133 126 133
0.17057423 0.055100005 -0.84738219 129 124 134
0.1701254 0.056001496 -0.84466606 127 119 126
0.15340412 0.076289132 -0.81473178 146 113 99
0.1538561 0.076943368 -0.81562418 136 99 92
0.15358275 0.077519856 -0.81541944 134 99 88
0.15256257 0.076899521 -0.81370032 150 123 97
0.15276711 0.07716722 -0.81409436 146 117 94
0.15324908 0.077616356 -0.8149603 137 104 88
0.15274033 0.078130245 -0.81427383 133 102 82
0.15219928 0.076760948 -0.81302786 151 126 96
0.15271477 0.077710584 -0.81414944 139 109 87
0.15224041 0.077950865 -0.81332308 133 104 80
0.152501 0.077943079 -0.81379998 134 105 82
0.15430012 0.076848291 -0.81625903 132 92 91
0.15354423 0.075251497 -0.81533891 142 111 93
0.15380251 0.075703003 -0.8155039 141 107 95
0.15361139 0.074612387 -0.81572509 139 109 90
0.15408158 0.073841363 -0.81677097 131 99 85
0.15319863 0.074677601 -0.81507397 144 116 93
0.15301847 0.07394959 -0.81511998 142 118 92
0.15347949 0.072366089 -0.81641763 129 105 84
0.15237148 0.074622996 -0.81357396 147 122 98
0.15253857 0.073108152 -0.81420588 135 107 91
0.15225782 0.075547025 -0.81316251 155 131 102
0.15308596 0.072701611 -0.81548828 132 106 87
0.15346554 0.072469443 -0.81636894 130 106 84
0.15434763 0.075421266 -0.81653535 136 98 93
0.15295808 0.070603825 -0.81522262 160 146 130
0.15274163 0.070019968 -0.81471545 172 161 147
0.15260369 0.069155715 -0.81431133 189 183 174
0.15383166 0.069433875 -0.81668997 185 178 176
0.15343051 0.069098756 -0.81587279 191 186 183
0.15380183 0.068573251 -0.81649184 202 201 203
0.15226476 0.069722183 -0.81367886 177 167 156
0.15191734 0.070981711 -0.81294245 152 131 124
0.15223189 0.06991896 -0.81361121 173 161 151
0.15233856 0.069347672 -0.81383252 184 178 166
0.15320806 0.072181419 -0.81583172 130 105 87
0.15201381 0.068774678 -0.81309849 195 192 182
0.15249033 0.067567743 -0.81377953 205 204 203
0.1567761 0.084267378 -0.83212805 146 125 113
0.15640162 0.085663885 -0.83210754 127 102 91
0.15593012 0.087290049 -0.83190924 105 74 64
0.15653016 0.084307902 -0.83097106 141 114 101
0.15612711 0.086880922 -0.83234465 112 84 74
0.15689167 0.080413617 -0.82982677 98 77 75
0.15717915 0.080328017 -0.83116168 87 66 65
0.15716529 0.0809993 -0.83156466 98 77 74
0.15697883 0.080422834 -0.8302561 95 75 72
0.15736461 0.080575898 -0.83223528 85 64 62
0.1566422 0.082918786 -0.83035785 133 109 99
0.15669285 0.083544336 -0.83104259 141 118 106
0.15655699 0.08170753 -0.82909501 117 92 85
0.1566532 0.081141435 -0.82917404 113 90 85
0.15668499 0.082310073 -0.83014435 127 104 96
0.15628043 0.083357997 -0.82888395 131 98 84
0.15747352 0.079049289 -0.83161628 90 70 65
0.15745825 0.077116452 -0.83005553 121 102 87
0.15739837 0.078386657 -0.83081865 96 76 69
0.157571 0.078328937 -0.83142221 108 90 78
0.15759866 0.07646431 -0.8300758 141 124 101
0.15702958 0.078458518 -0.82910597 106 85 78
0.15715949 0.07846076 -0.82973796 101 81 74
0.15711108 0.079868801 -0.8305071 88 67 65
0.15714669 0.079593733 -0.83048368 90 69 66
0.15706432 0.078098886 -0.82901812 108 88 80
0.15727596 0.077917904 -0.82991606 103 83 75
0.15794687 0.073453546 -0.8309437 162 152 153
0.15807125 0.074556075 -0.83149737 172 163 146
0.15792973 0.075986482 -0.83107775 166 154 122
0.15815237 0.073160484 -0.83169281 174 168 166
0.15810196 0.074973226 -0.83164543 175 166 142
0.15764748 0.073351465 -0.83008236 162 153 156
0.15756954 0.074571222 -0.82967699 145 131 126
0.15737505 0.074124485 -0.82919699 152 140 139
0.15784207 0.072457477 -0.83076674 175 169 177
0.15733378 0.074754901 -0.82898468 143 129 123
0.15834028 0.072956271 -0.83231992 177 171 171
0.15820359 0.075406514 -0.83206213 183 174 142
0.15770704 0.070519306 -0.82972157 180 174 179
0.15782148 0.071568727 -0.83046085 178 173 181
0.1580009 0.070059709 -0.83036709 179 172 176
0.15800577 0.0697648 -0.83026367 180 172 176
0.15721098 0.071763061 -0.82881778 181 177 185
0.1574505 0.070660636 -0.82902861 181 175 180
0.15751213 0.0703215 -0.82905108 181 174 179
0.15742324 0.070008084 -0.82860053 181 174 176
0.15845132 0.068958141 -0.83147854 179 171 174
0.15829983 0.068840228 -0.83082289 179 171 173
0.15850861 0.069640182 -0.83195072 177 171 175
0.15830174 0.070808731 -0.83154404 176 170 176
0.15799716 0.068115309 -0.82941103 182 173 172
0.15820719 0.067025177 -0.82926643 188 180 181
0.1582644 0.067701057 -0.83001095 184 176 177
0.15862392 0.067302085 -0.83114463 185 178 182
0.15832581 0.065937549 -0.82889825 194 187 190
0.15867668 0.067140527 -0.83122236 185 180 183
0.15879869 0.065499797 -0.83042669 192 187 193
0.15889052 0.065676123 -0.83093828 189 185 190
0.15891978 0.065034777 -0.8305524 192 188 194
0.1586159 0.065412402 -0.82961571 195 191 196
0.15913668 0.065066345 -0.83145791 189 185 191
0.159951 0.060868394 -0.82991296 183 176 186
0.15986833 0.060652059 -0.82939011 187 182 192
0.16041522 0.061167147 -0.83181375 161 147 158
0.15994869 0.062620938 -0.83188587 175 167 175
0.16046794 0.061118633 -0.83193648 159 144 155
0.16058002 0.061006594 -0.83218724 154 138 149
0.15943705 0.06426663 -0.83197922 188 185 191
0.15954709 0.062312189 -0.83016479 193 190 199
0.15900151 0.063316807 -0.82911187 197 195 202
0.15956761 0.062183067 -0.83009875 193 191 199
0.15883541 0.063638344 -0.8288095 199 196 203
0.15950042 0.062737651 -0.83046752 192 190 197
0.1619648 0.059384342 -0.83096474 171 163 179
0.16107433 0.060313135 -0.83232236 149 132 145
0.16033038 0.060524903 -0.83071649 169 157 168
0.16119409 0.05953797 -0.82867801 199 198 210
0.1598324 0.060515698 -0.82899356 191 187 198
0.16012312 0.060282201 -0.82880211 195 192 203
0.16572817 0.057699323 -0.83202338 183 177 189
0.16572388 0.057426784 -0.82962376 191 183 195
0.16552229 0.057582233 -0.83013183 188 180 192
0.16509521 0.057755966 -0.82984841 186 176 190
0.16577931 0.057662021 -0.83191317 184 178 190
0.16449004 0.058315784 -0.83218753 173 164 179
0.16280651 0.058919825 -0.83071291 174 166 182
0.16497476 0.05776703 -0.82946777 187 177 191
0.1635012 0.058401208 -0.82934386 191 185 199
0.16431521 0.058154039 -0.83008277 180 170 185
0.1627562 0.058763634 -0.82955295 189 185 199
0.16431883 0.058087144 -0.82965845 185 177 191
0.16667815 0.057034694 -0.82904202 194 187 198
0.16618 0.057370003 -0.83073318 190 184 196
0.16676387 0.057147946 -0.83012199 195 189 200
0.16649964 0.057269067 -0.83057886 192 186 197
0.16892242 0.055883482 -0.82934946 170 168 173
0.16854224 0.056052875 -0.82902324 168 165 171
0.16985536 0.055172432 -0.82951617 167 166 170
0.16923934 0.056459971 -0.8311615 187 188 194
0.16849662 0.056416098 -0.82971996 176 173 180
0.17023097 0.05501369 -0.82955867 172 172 176
0.17026006 0.054625895 -0.82877052 164 163 167
0.14795326 0.069384731 -0.80456364 186 170 160
0.14806615 0.070297271 -0.80479264 189 174 156
0.148194 0.06901335 -0.80498308 180 163 159
0.14809112 0.070144385 -0.80483276 188 173 156
0.1481842 0.067908257 -0.80477774 179 163 166
0.15562657 0.082224324 -0.82394862 114 79 71
0.15574864 0.080145054 -0.82380956 134 114 101
0.1555189 0.081995197 -0.82336545 113 78 69
0.15559724 0.081909634 -0.82370347 116 82 73
0.15567519 0.080145106 -0.82346523 132 111 98
0.15574504 0.079100132 -0.82384062 128 109 98
0.15571821 0.077568851 -0.82367605 113 90 79
0.15573199 0.077256396 -0.82372135 110 87 76
0.15583047 0.078241549 -0.82416016 121 99 88
0.15552898 0.076612666 -0.82286632 100 78 68
0.15559718 0.078312777 -0.82320654 117 98 88
0.15569237 0.079871655 -0.82354409 132 111 99
0.15531777 0.078054368 -0.82197523 107 89 79
0.15510528 0.076824546 -0.8211059 92 75 67
0.15519652 0.076991446 -0.82151645 96 80 72
0.15522306 0.078471497 -0.82148814 107 87 75
0.15553795 0.073880732 -0.82303786 158 144 129
0.15591504 0.0726818 -0.82458037 194 197 192
0.15556325 0.074354298 -0.82311898 146 128 113
0.15583184 0.075234205 -0.82414728 127 105 93
0.15592319 0.073255025 -0.82458937 179 177 171
0.155852 0.075673215 -0.82420933 116 90 77
0.15512182 0.075256392 -0.82125199 112 96 85
0.1553605 0.076108649 -0.82216495 94 73 64
0.15507916 0.073608413 -0.82120341 157 145 127
0.15528281 0.075342722 -0.8219052 113 95 83
0.15542519 0.07488741 -0.82252359 129 110 95
0.15500581 0.07582438 -0.82073301 94 79 70
0.15583515 0.069324754 -0.82264674 189 189 192
0.1562393 0.069056861 -0.8239339 185 183 181
0.15597287 0.069235265 -0.82308638 188 187 189
0.15606961 0.07081978 -0.82432896 196 199 196
0.15609397 0.069303557 -0.8235563 187 186 186
0.15512155 0.072064392 -0.82134944 193 188 171
0.15542042 0.069239259 -0.82106966 189 188 192
0.15554322 0.071538009 -0.82274717 197 199 192
0.15536274 0.070327163 -0.82140481 191 190 187
0.15506777 0.071403898 -0.82079422 191 185 170
0.15567416 0.071781181 -0.8233918 200 203 197
0.15619776 0.066871628 -0.82312429 184 180 183
0.156563 0.066265494 -0.82411164 185 182 185
0.15651636 0.067185514 -0.82421494 183 179 179
0.15630352 0.064982451 -0.82294375 189 186 196
0.15634754 0.067401014 -0.82374096 182 178 178
0.15654787 0.066016011 -0.82399607 185 182 187
0.15553473 0.067448325 -0.82086694 187 186 196
0.15585399 0.067643978 -0.82203865 185 182 188
0.15607607 0.067619346 -0.82282501 184 180 183
0.15560789 0.067931458 -0.82121378 186 184 193
0.15601812 0.067369238 -0.82257402 184 181 186
0.15712638 0.063614123 -0.82407242 186 179 188
0.15639775 0.064217441 -0.8227343 189 186 198
0.15682121 0.064321861 -0.82423103 188 186 196
0.15581702 0.088078372 -0.83245742 96 67 59
0.15694444 0.084096693 -0.83371764 120 103 92
0.15681173 0.084634893 -0.83359438 127 108 98
0.15598008 0.087628514 -0.83289182 100 71 63
0.15795036 0.080865584 -0.83481044 79 48 43
0.15747456 0.081131354 -0.83377331 71 49 46
0.15701145 0.083407693 -0.83279407 130 112 102
0.15732224 0.081596412 -0.8338567 69 51 47
0.15720832 0.082174413 -0.83319956 96 78 72
0.15700325 0.083474956 -0.83282667 131 113 103
0.15821195 0.080551907 -0.835311 87 49 42
0.15802076 0.078413948 -0.83302468 126 106 87
0.15819895 0.080017492 -0.83448368 86 52 47
0.1581721 0.077389807 -0.83286095 156 140 110
0.15825927 0.07968165 -0.83450949 96 63 55
0.15825719 0.0793304 -0.83429515 106 75 63
0.15820315 0.076672412 -0.83252925 176 164 127
0.15852463 0.078797959 -0.83498371 126 94 75
0.15859209 0.076954424 -0.83468419 165 151 129
0.15876748 0.077685714 -0.83599216 145 126 115
0.1587292 0.078453839 -0.83603722 129 102 91
0.15851982 0.077842325 -0.8345688 147 124 100
0.15853564 0.077689908 -0.83460903 150 129 105
0.15878481 0.072671577 -0.8342973 167 164 165
0.15897258 0.073630534 -0.8355239 166 164 159
0.15888044 0.07568641 -0.83597755 173 171 164
0.15906951 0.074012361 -0.83610976 166 164 156
0.15878063 0.074734263 -0.83514071 172 170 167
0.15882228 0.076051012 -0.83575499 175 172 161
0.15862969 0.074429169 -0.83426487 175 171 168
0.15839778 0.073140033 -0.83260971 176 171 171
0.15884945 0.076099977 -0.83592743 175 172 162
0.15829623 0.075360909 -0.83246839 186 178 146
0.15929185 0.0716113 -0.83609825 161 159 151
0.15914898 0.069793366 -0.83476454 171 167 164
0.15925081 0.070081756 -0.8353163 170 166 162
0.15905088 0.068446115 -0.83380955 178 172 174
0.15930025 0.071548969 -0.8361097 161 160 152
0.15876694 0.070065446 -0.8332094 173 168 170
0.15893102 0.070451863 -0.83407861 169 165 163
0.15881343 0.071153514 -0.83382916 169 165 166
0.15895841 0.070973635 -0.83439821 167 163 161
0.15876943 0.069809027 -0.83312249 174 168 170
0.15966655 0.064947017 -0.83394825 183 181 187
0.15966214 0.065776184 -0.83453214 182 180 184
0.15965478 0.065860808 -0.83454543 182 180 184
0.15971954 0.066368818 -0.83535439 181 178 182
0.15966749 0.066479661 -0.83508819 181 179 182
0.15952063 0.065378539 -0.8333115 185 182 186
0.159476 0.067353517 -0.83476448 181 177 178
0.15924677 0.066451885 -0.83302861 183 178 182
0.15952085 0.06571117 -0.83358949 184 181 185
0.15941747 0.064933769 -0.83249778 186 182 188
0.15914804 0.068041064 -0.83392775 180 174 176
0.16101629 0.06087571 -0.83413619 149 129 143
0.16078813 0.060738128 -0.83271295 148 130 142
0.16080353 0.060833905 -0.832977 149 131 143
0.1605403 0.063138753 -0.83612168 167 159 172
0.16045704 0.062936544 -0.835307 165 158 169
0.16094102 0.060976353 -0.83395034 150 131 145
0.16009499 0.063220955 -0.8336826 171 164 173
0.16015145 0.063268438 -0.83416677 170 164 174
0.16023175 0.06252028 -0.83302432 165 155 165
0.16000485 0.064395875 -0.83571726 178 178 188
0.16012149 0.063612297 -0.83473825 173 168 178
0.16210897 0.059522454 -0.83270824 153 139 158
0.16123882 0.060331777 -0.83327609 148 128 143
0.16131067 0.060184378 -0.83271646 149 131 146
0.16491282 0.058296222 -0.83468843 170 157 173
0.16466345 0.058463275 -0.83551759 166 151 169
0.16545661 0.058036678 -0.83588868 171 160 176
0.16427261 0.058656275 -0.83484042 164 149 166
0.16455843 0.05854442 -0.83617669 163 148 166
0.16441299 0.058555141 -0.83416992 167 153 169
0.16430533 0.058533903 -0.8333832 168 156 172
0.16438638 0.058511868 -0.83354396 168 156 172
0.16267051 0.059388343 -0.83399755 154 136 156
0.1627288 0.059242055 -0.8328855 157 144 162
0.16219005 0.059650917 -0.83428597 149 130 151
0.16223723 0.059510086 -0.83317488 153 137 157
0.16913722 0.057078354 -0.83447349 187 187 193
0.16859573 0.057234932 -0.83458495 184 183 190
0.16736978 0.057332914 -0.83299404 187 184 193
0.16638042 0.057577442 -0.83323634 182 177 189
0.1691462 0.057233453 -0.83576208 181 181 187
0.16659927 0.057596296 -0.83475947 179 173 186
0.167789 0.057391673 -0.83421892 183 180 189
0.16644344 0.057615496 -0.83461201 179 173 186
0.1704073 0.056783449 -0.83461326 181 183 187
0.17047834 0.056809492 -0.834916 179 180 185
0.17058796 0.056559473 -0.8336485 182 183 188
0.17246421 0.055977374 -0.83512717 156 154 162
0.17156374 0.056363199 -0.83470774 165 165 171
0.17144525 0.056547772 -0.83501816 162 162 168
0.17360587 0.054989286 -0.83440912 159 157 166
0.17187952 0.055646267 -0.83333534 179 179 186
0.1728545 0.055593934 -0.83475804 158 157 165
0.17287295 0.05514152 -0.83362877 171 171 179
0.17207298 0.055550937 -0.83340007 178 177 185
0.17353372 0.054885708 -0.8340286 164 162 171
0.17480792 0.054761954 -0.83591777 163 162 169
0.17404597 0.055273641 -0.83587831 146 143 152
0.17386882 0.054910034 -0.83463311 156 154 163
0.17416672 0.054797031 -0.83487153 160 159 167
0.1754525 0.05435336 -0.83601326 176 176 182
0.15879458 0.074117169 -0.85039121 81 75 68
0.15852731 0.075089119 -0.84950513 92 88 73
0.15861984 0.074893281 -0.8496123 91 86 73
0.15899526 0.07475581 -0.84839612 107 101 88
0.15870667 0.075275585 -0.84876704 102 98 81
0.15906546 0.073706895 -0.85041076 82 76 71
0.15897542 0.074232042 -0.84969831 91 85 76
0.15916541 0.073346183 -0.8506946 79 72 70
0.15887217 0.07477349 -0.84901983 99 94 81
0.15906855 0.070306398 -0.85048711 69 64 61
0.15936346 0.068459965 -0.84904331 80 77 67
0.15953681 0.06845063 -0.84894609 86 82 72
0.1582326 0.070843279 -0.85129946 41 35 38
0.15866165 0.068636045 -0.8495335 56 53 48
0.15972497 0.070384569 -0.85025352 88 82 77
0.15938298 0.072053201 -0.85177666 65 57 62
0.15977888 0.071196511 -0.85091531 82 75 75
0.15965076 0.072074898 -0.85081011 79 70 75
0.16007045 0.071633019 -0.84916806 103 93 96
0.16005279 0.070877865 -0.85032701 93 86 84
0.16105697 0.068608508 -0.84810585 137 134 116
0.16032745 0.070995115 -0.84868008 113 105 103
0.16029595 0.070768058 -0.84916979 109 101 98
0.15868673 0.066363908 -0.84903336 65 59 60
0.15838963 0.064926937 -0.84918571 71 62 64
0.15888974 0.065548316 -0.84880543 76 69 70
0.16020596 0.066791549 -0.84823054 112 107 99
0.16025667 0.066828497 -0.84821111 113 108 100
0.15836085 0.068173923 -0.84946179 46 43 40
0.15974848 0.068188839 -0.84873867 93 90 79
0.15956907 0.064405337 -0.84804803 97 89 92
0.16893305 0.054318182 -0.8494162 98 93 103
0.1686383 0.054258801 -0.84983695 93 88 97
0.16637109 0.0542804 -0.85175294 58 55 56
0.1698357 0.053976566 -0.84957266 107 103 116
0.16946995 0.054393183 -0.84874129 107 102 113
0.16806783 0.053979814 -0.85110414 80 77 84
0.16834904 0.0546601 -0.84854782 95 89 99
0.16637766 0.054580212 -0.85046375 64 59 63
0.16640721 0.054537535 -0.85063833 63 59 62
0.16897 0.054529142 -0.84866774 102 96 107
0.16638958 0.054850042 -0.84920418 69 63 70
0.17293893 0.054773185 -0.85188699 127 125 129
0.17257693 0.05461156 -0.85176152 125 123 129
0.17146179 0.054280922 -0.8508271 127 125 135
0.17284219 0.054892812 -0.85131991 134 132 137
0.17175516 0.054344945 -0.85114819 125 124 133
0.17193377 0.055201534 -0.84886569 149 147 155
0.16999714 0.054294258 -0.84872317 113 108 122
0.17119546 0.054949742 -0.84855163 137 133 143
0.1712148 0.054371651 -0.85017383 129 127 138
0.170855 0.054494139 -0.84934396 127 123 134
0.17046294 0.05471408 -0.84820092 125 120 131
0.15197414 0.077602766 -0.81274801 136 109 81
0.15196349 0.07816302 -0.8128472 128 99 74
0.15171346 0.074383371 -0.81203741 160 138 111
0.15159936 0.07284984 -0.81205195 147 122 105
0.15182626 0.074022524 -0.81240112 151 126 104
0.15180884 0.074262798 -0.81230778 155 130 107
0.15119803 0.072888583 -0.81100869 166 147 122
0.15141468 0.072397292 -0.81166661 150 126 110
0.1518402 0.075427502 -0.81215483 167 146 113
0.15032904 0.071326278 -0.80903327 189 180 152
0.15123424 0.070467569 -0.81140023 145 123 123
0.15188469 0.070708968 -0.81286269 157 138 131
0.15096058 0.069821328 -0.81077063 151 132 133
0.15157776 0.070030406 -0.81215775 162 146 142
0.15098612 0.070911847 -0.81072778 158 139 129
0.15041135 0.071552709 -0.80917847 190 180 150
0.15078259 0.071147181 -0.81017828 169 153 137
0.15061553 0.069848813 -0.80988187 167 152 146
0.15126136 0.071724765 -0.81135356 151 129 116
0.15143387 0.067994222 -0.8116414 194 190 186
0.1517552 0.068168119 -0.81243342 201 199 192
0.15191828 0.066943139 -0.81242889 205 204 204
0.15583885 0.08480861 -0.82749486 116 78 67
0.15580505 0.084788539 -0.82718819 114 75 65
0.15608367 0.08404392 -0.82833457 133 95 79
0.15612653 0.082805954 -0.82769233 133 101 86
0.15612106 0.082215324 -0.8272258 133 103 90
0.15625949 0.082126737 -0.82788515 125 96 84
0.15631568 0.080806047 -0.82720011 120 97 89
0.15617277 0.080495365 -0.82622129 128 106 97
0.15609643 0.083793774 -0.82823431 135 98 81
0.15577747 0.082259834 -0.82471246 119 85 77
0.155949 0.08157976 -0.82570881 135 108 95
0.15610085 0.083734006 -0.82823491 136 99 82
0.156316 0.076430142 -0.82581192 109 82 70
0.15674967 0.078484677 -0.82804668 107 86 79
0.15609546 0.076269314 -0.82507008 106 78 66
0.15661584 0.077642605 -0.82726419 108 85 76
0.15667689 0.076557517 -0.82696515 113 90 77
0.15643919 0.078893289 -0.82725322 103 79 74
0.15597875 0.07821843 -0.82481098 121 97 86
0.15650859 0.079259299 -0.82763332 102 79 75
0.1564656 0.07930439 -0.82741034 105 82 77
0.15605582 0.076766849 -0.8251484 104 77 66
0.1564597 0.073058479 -0.82635713 182 181 178
0.15712537 0.07523109 -0.82827842 138 123 114
0.15647539 0.07260184 -0.82649857 188 189 189
0.1562067 0.072866596 -0.82550693 190 192 188
0.15678366 0.072412103 -0.82761461 185 183 188
0.15655412 0.075667143 -0.8264358 126 106 94
0.15654726 0.074485503 -0.82645178 156 147 137
0.15655096 0.074296229 -0.82646883 161 154 145
0.15610673 0.074109741 -0.82512498 160 151 143
0.15656862 0.075048864 -0.82649904 142 128 117
0.1565764 0.068411715 -0.82476515 180 174 171
0.15725745 0.070272207 -0.82817835 181 174 178
0.15756448 0.068823539 -0.82843381 181 171 170
0.15688285 0.070876829 -0.8272143 181 176 181
0.15734413 0.069798909 -0.82821447 181 173 175
0.1562776 0.071797825 -0.82560784 196 198 198
0.1567253 0.070741177 -0.8265872 183 180 183
0.15634184 0.071190879 -0.82549435 192 194 193
0.15676285 0.070669115 -0.82667863 182 178 182
0.15640631 0.070793293 -0.82549852 190 190 189
0.1579468 0.067065097 -0.82846522 188 179 179
0.1577197 0.064678378 -0.82660413 195 192 199
0.15800875 0.065296367 -0.82758784 195 190 195
0.15744822 0.065303542 -0.82634771 190 187 192
0.15717985 0.065876707 -0.82606936 186 181 186
0.15759306 0.067040376 -0.8276307 185 178 178
0.15707643 0.067613445 -0.82625151 182 175 174
0.15697041 0.065028496 -0.82510668 187 185 192
0.15743423 0.067226678 -0.82738018 183 175 176
0.15695918 0.066139936 -0.82540125 185 181 185
0.15733036 0.067750476 -0.82717609 182 174 173
0.15735027 0.067399964 -0.82714009 182 175 175
0.15835482 0.065303423 -0.82850897 197 192 196
0.15787221 0.064037353 -0.82641238 193 188 196
0.15852849 0.063877545 -0.82788908 197 190 197
0.15903266 0.061700359 -0.82735705 192 183 192
0.15895773 0.062894791 -0.8284452 199 196 203
0.15932031 0.061414357 -0.82820225 197 192 201
0.15886104 0.062330529 -0.82738954 193 184 192
0.15867575 0.06321077 -0.82765824 195 187 194
0.15885232 0.062677227 -0.82775891 195 188 196
0.16062835 0.059813712 -0.8281095 201 200 211
0.16070075 0.059331276 -0.82559294 200 194 203
0.15994574 0.060217798 -0.82778841 198 196 206
0.16548994 0.057147287 -0.82691163 201 196 206
0.16574474 0.057122201 -0.82747018 200 193 204
0.16696182 0.056758616 -0.82791549 180 175 184
0.16696748 0.056603353 -0.82701433 182 178 186
0.16844617 0.055707317 -0.82799184 167 164 170
0.16866222 0.055635519 -0.82829708 164 161 166
0.17153323 0.05394372 -0.8272109 185 186 191
0.15806146 0.080456942 -0.8423577 81 73 85
0.15737787 0.082618028 -0.84092778 76 68 71
0.15773056 0.081226446 -0.84167856 78 69 77
0.15768421 0.081995033 -0.8409009 79 71 76
0.15748562 0.082376577 -0.84094417 77 69 73
0.15705551 0.080923513 -0.84373927 69 60 70
0.15829343 0.080503151 -0.84171945 84 76 87
0.15734258 0.080018401 -0.84409809 71 61 74
0.15824676 0.079782523 -0.84302193 84 76 87
0.15880843 0.079231068 -0.84137934 92 84 85
0.15869868 0.079253413 -0.84179324 91 83 85
0.15837631 0.079638548 -0.84266657 86 78 86
0.15870738 0.079808109 -0.84116405 90 81 88
0.15900987 0.076950498 -0.84276879 95 92 72
0.15919308 0.077132575 -0.84129715 87 84 72
0.15907526 0.076593839 -0.84271771 93 91 70
0.15919435 0.077851489 -0.84048021 85 80 76
0.15905114 0.078245543 -0.84102756 90 84 79
0.15893564 0.07754796 -0.8426106 96 92 76
0.15956026 0.073313028 -0.84166849 116 114 114
0.16001922 0.07253769 -0.84304094 112 107 115
0.15945721 0.073965482 -0.842507 111 109 102
0.15988325 0.073361844 -0.84405923 106 101 101
0.1596415 0.073101401 -0.84173304 116 114 116
0.15930833 0.074549831 -0.84285969 108 107 94
0.15911253 0.075741544 -0.84309423 99 98 75
0.15948202 0.074536182 -0.84098727 101 100 94
0.15955545 0.074369833 -0.8405413 101 99 97
0.15955755 0.074555866 -0.84045768 98 97 93
0.15936884 0.074861407 -0.84164894 101 100 89
0.16049121 0.069915608 -0.84352392 140 135 132
0.16041224 0.069284111 -0.84173763 153 148 143
0.16059108 0.068709336 -0.84303594 157 152 143
0.16057058 0.069004491 -0.84320116 152 148 140
0.16051525 0.069589645 -0.8433575 144 139 135
0.16041605 0.070190161 -0.84302348 138 132 132
0.16012166 0.07034111 -0.84075588 144 140 142
0.16032268 0.070461467 -0.8423183 137 131 132
0.16010451 0.070944279 -0.84137309 135 131 135
0.1601125 0.072259098 -0.84303784 113 108 118
0.16028096 0.070512988 -0.84208751 137 131 133
0.16033125 0.066027507 -0.8430264 153 147 146
0.16057269 0.067345403 -0.84340149 157 153 146
0.16011336 0.06482897 -0.84266096 150 143 147
0.16032629 0.065752432 -0.84229559 156 151 152
0.16031983 0.065837346 -0.84263581 154 149 149
0.1606023 0.067461185 -0.84331393 158 154 147
0.16038375 0.06776686 -0.84046644 168 163 156
0.1604107 0.067415535 -0.840976 165 161 156
0.1605882 0.067380533 -0.84306562 159 155 148
0.16044961 0.066495843 -0.84194046 160 157 155
0.16047974 0.066540532 -0.84226704 160 156 154
0.16168183 0.061688595 -0.84263128 145 124 142
0.16032593 0.063826174 -0.84374774 141 127 135
0.16090757 0.062846482 -0.84277362 142 125 137
0.16124535 0.062228579 -0.84182143 142 122 139
0.16124353 0.062268276 -0.84211355 142 123 139
0.16135572 0.0620685 -0.84135002 144 124 141
0.16101907 0.062726028 -0.84132379 147 131 146
0.16037281 0.063900016 -0.84192669 149 140 149
0.16039164 0.064015828 -0.84079975 156 150 159
0.16072993 0.06312909 -0.84249693 142 127 138
0.16221781 0.060591199 -0.84106976 144 117 141
0.16223474 0.060704496 -0.84352422 146 122 142
0.16311011 0.059716105 -0.84071022 151 127 147
0.16534701 0.057534017 -0.84233046 175 159 168
0.16568775 0.057301786 -0.84202665 173 159 166
0.16464533 0.05848942 -0.8403331 152 136 148
0.16439213 0.058402169 -0.84198689 169 148 162
0.16517954 0.057685055 -0.84227687 174 157 167
0.16586947 0.057458688 -0.84032154 155 146 152
0.16230273 0.06049756 -0.84177947 145 119 141
0.16512346 0.057564571 -0.84343439 184 165 175
0.16261919 0.06019051 -0.84313375 150 125 145
0.1630888 0.059671558 -0.84178102 156 131 151
0.16404052 0.058679305 -0.84219873 169 146 162
0.16317046 0.0596091 -0.84302157 157 134 151
0.16474658 0.05795848 -0.84332132 179 159 170
0.1666965 0.056674965 -0.84370798 190 175 181
0.16895309 0.056714199 -0.84256816 163 155 161
0.16757746 0.056849904 -0.8426404 188 177 182
0.16694334 0.057145547 -0.8411718 170 161 166
0.16630504 0.056727815 -0.84360087 192 177 183
0.16699778 0.056882199 -0.84260863 186 174 179
0.16878936 0.057049621 -0.84131724 182 176 181
0.16716646 0.057135411 -0.8411814 171 163 168
0.1680008 0.057161734 -0.840864 172 166 171
0.17163347 0.056690574 -0.84347373 123 117 123
0.17085133 0.056971367 -0.84182411 150 147 152
0.17098774 0.056846533 -0.84241122 142 137 143
0.17109443 0.056836125 -0.84253019 140 135 141
0.17266974 0.056953423 -0.84204334 131 129 134
0.17287645 0.056930993 -0.84212649 128 126 131
0.17330323 0.056799643 -0.84103966 130 128 136
0.17111371 0.057087135 -0.84089756 158 156 161
0.17060673 0.057146396 -0.84075648 165 163 168
0.17438711 0.056665357 -0.84094316 137 136 144
0.17461717 0.056740124 -0.84236383 133 133 138
0.17487076 0.056708824 -0.84227055 140 140 145
0.17518665 0.056731839 -0.84307194 142 142 147
0.15834281 0.05283976 -0.84405595 53 41 59
0.16773681 0.056468599 -0.84394956 167 154 161
0.16861953 0.056331821 -0.84401101 150 139 145
0.16816442 0.056396924 -0.84399706 159 146 153
0.17015485 0.056390028 -0.8434177 133 125 132
0.17129982 0.056473792 -0.84396303 118 111 117
0.1766195 0.055339973 -0.84024298 167 169 176
0.17490932 0.056306314 -0.84057814 143 143 151
0.17589061 0.055813652 -0.84055668 157 158 165
0.17553437 0.056088999 -0.84083116 152 153 160
0.17669491 0.055750079 -0.84147936 170 172 177
0.17637141 0.056041699 -0.84184349 165 167 172
0.15886015 0.072791778 -0.85197836 55 46 52
0.16553713 0.053443648 -0.85219127 47 44 44
0.16588624 0.05468126 -0.85524321 38 36 42
0.16593501 0.054439448 -0.85343528 46 44 46
0.16525872 0.053761154 -0.8547411 31 29 34
0.1648709 0.053131282 -0.85424989 27 25 30
0.16467598 0.05309337 -0.85482419 21 20 26
0.16482574 0.053295638 -0.85489315 23 22 28
0.16765569 0.053670008 -0.85576624 38 50 57
0.16703343 0.054234985 -0.85568064 40 45 53
0.16823193 0.053675752 -0.85436594 59 64 74
0.16870274 0.053677376 -0.85323048 76 76 88
0.16915508 0.05318822 -0.85351211 72 78 90
0.16645811 0.054527048 -0.85382038 51 48 53
0.16876784 0.053538233 -0.85242122 81 80 91
0.16835126 0.053637285 -0.8522464 77 76 85
0.16606814 0.05450654 -0.85304672 50 47 48
0.16701351 0.054181565 -0.85290366 60 58 63
0.16677216 0.054507397 -0.85424864 52 50 57
0 0 0 1 0 0 0 1 0 0 0 1 0 0 0 0 0 853 1 0 0
