ply
format ascii 1.0
comment PCL generated
element vertex 1050
property float x
property float y
property float z
property uchar red
property uchar green
property uchar blue
element camera 0
property float view_px
property float view_py
property float view_pz
property float x_axisx
property float x_axisy
property float x_axisz
property float y_axisx
property float y_axisy
property float y_axisz
property float z_axisx
property float z_axisy
property float z_axisz
property float focal
property float scalex
property float scaley
property float centerx
property float centery
property int viewportx
property int viewporty
property float k1
property float k2
end_header
-0.27461272 0.025374571 -0.86856574 133 102 100
-0.27231878 0.023680212 -0.86835843 101 68 56
-0.27344188 0.024493851 -0.86837137 117 86 78
-0.2733646 0.024568709 -0.86909902 112 77 70
-0.27032328 0.021656469 -0.87018389 89 61 48
-0.27061033 0.021910183 -0.87030488 90 61 48
-0.27028465 0.02165143 -0.8698138 89 60 47
-0.27135304 0.022402149 -0.87018478 94 65 49
-0.27129483 0.022695238 -0.8682853 93 62 46
-0.26807189 0.020290501 -0.86869282 89 56 51
-0.26902682 0.020934084 -0.87083882 90 60 55
-0.26759675 0.020273043 -0.86993939 92 58 62
-0.26825011 0.020673616 -0.87110364 92 60 63
-0.26991913 0.021399766 -0.86919999 89 60 47
-0.26991439 0.021333929 -0.87026548 89 60 48
-0.26973435 0.021363098 -0.86776078 89 59 46
-0.31853539 0.053050321 -0.87912327 119 80 69
-0.31624362 0.05276563 -0.87874925 116 78 66
-0.31584638 0.053306986 -0.87895936 116 76 64
-0.31569633 0.053743035 -0.8791523 116 76 63
-0.31327939 0.05356653 -0.87914199 114 74 60
-0.31389663 0.053182211 -0.87887567 114 75 61
-0.32256162 0.049024265 -0.87917542 123 90 77
-0.32090053 0.05121161 -0.87924653 121 85 73
-0.32072109 0.0505642 -0.87891591 121 86 73
-0.32187754 0.049735233 -0.87900758 123 88 75
-0.31964433 0.05047109 -0.87849319 121 85 73
-0.31886029 0.050733421 -0.87831265 120 84 73
-0.31883481 0.050218828 -0.87810338 121 84 73
-0.31988049 0.049222335 -0.87809265 122 87 75
-0.31916589 0.049287036 -0.87786031 122 86 75
-0.321648 0.049059253 -0.87866622 123 89 76
-0.31575462 0.050944969 -0.87800592 117 80 68
-0.31513739 0.049545854 -0.87743729 119 83 72
-0.3168906 0.050117142 -0.87777364 119 82 71
-0.31519231 0.051773019 -0.87827814 116 78 66
-0.31662339 0.049162734 -0.8773964 120 84 74
-0.31773362 0.052555427 -0.87878901 118 80 69
-0.31581405 0.051505134 -0.87822235 117 79 67
-0.31710789 0.052156243 -0.87858218 118 80 68
-0.31768045 0.050079085 -0.87782162 120 83 72
-0.31673798 0.052464638 -0.87867165 117 79 67
-0.31642544 0.051604662 -0.87831146 117 79 68
-0.31182709 0.05042062 -0.87811279 116 79 67
-0.31176949 0.049815729 -0.87791049 117 81 69
-0.31164661 0.050952341 -0.87832886 115 78 65
-0.31146303 0.049249779 -0.87776297 117 82 71
-0.31348091 0.049210723 -0.87741512 118 83 72
-0.31205082 0.050888259 -0.87823951 115 79 65
-0.31301323 0.051973809 -0.87850392 114 77 63
-0.31345901 0.051835522 -0.87838954 115 77 64
-0.31121397 0.052636143 -0.87900484 112 74 59
-0.31279212 0.05164123 -0.87840992 115 77 63
-0.31194258 0.052309249 -0.87877989 113 75 60
-0.31348163 0.051857859 -0.87839478 115 77 64
-0.31051084 0.05238786 -0.87902707 112 74 59
-0.30842876 0.049703036 -0.87885004 117 79 67
-0.30959022 0.05015843 -0.87858373 116 79 66
-0.30713871 0.049127463 -0.87912142 118 79 68
-0.31009498 0.051771812 -0.87896371 113 75 61
-0.30793315 0.049846984 -0.8790822 117 78 66
-0.29199097 0.04939077 -0.87846351 95 58 45
-0.29110968 0.049119897 -0.87756175 94 57 45
-0.29216811 0.049911398 -0.87920976 95 58 45
-0.29055312 0.050204191 -0.87858272 93 55 45
-0.29030755 0.049817644 -0.87799108 93 56 45
-0.29039717 0.049392939 -0.87752128 93 56 45
-0.28906482 0.049782079 -0.87732577 92 54 45
-0.28854913 0.050033711 -0.87745476 92 54 46
-0.28824493 0.050876122 -0.87850142 92 54 45
-0.28889009 0.050482906 -0.87822682 92 54 45
-0.28958523 0.050837062 -0.87901682 92 55 45
-0.29005477 0.050831705 -0.87920898 92 55 45
-0.2873719 0.050228756 -0.87722653 92 54 46
-0.28738481 0.05048487 -0.87758958 92 54 46
-0.2833294 0.051581703 -0.87827933 88 50 42
-0.28529471 0.05147431 -0.87853497 90 52 44
-0.2867825 0.051787909 -0.87922686 92 53 45
-0.28476936 0.052046996 -0.87915319 90 52 43
-0.28489128 0.051154643 -0.87805128 90 51 44
-0.28462592 0.050959382 -0.87775201 90 50 43
-0.28328592 0.050952654 -0.87747681 88 49 42
-0.28688428 0.049506817 -0.87608129 91 53 46
-0.28628659 0.051201437 -0.87837881 91 52 45
-0.28445801 0.04942416 -0.87568927 89 49 44
-0.28617769 0.050884109 -0.87792343 91 52 45
-0.28564128 0.050460562 -0.877271 90 51 45
-0.28610823 0.049838759 -0.8764562 91 52 45
-0.27962503 0.048852507 -0.87550336 82 46 40
-0.2793771 0.049979553 -0.87711078 98 63 60
-0.28174064 0.049554225 -0.87602979 91 53 49
-0.27934948 0.051436175 -0.87911093 119 85 85
-0.27947915 0.051332567 -0.87894171 117 84 83
-0.28077388 0.050313346 -0.87727308 102 66 63
-0.28018799 0.050604891 -0.87779588 107 72 69
-0.28073278 0.051612362 -0.87896651 109 74 71
-0.28229076 0.051153265 -0.87796223 96 58 53
-0.28079218 0.051710084 -0.87907368 108 73 70
-0.28129464 0.050979119 -0.87801415 104 68 64
-0.28109324 0.051181253 -0.87832415 106 70 67
-0.28314778 0.049923714 -0.87617683 88 49 43
-0.28276679 0.050696865 -0.87725645 92 53 47
-0.27754158 0.050229974 -0.87840933 119 89 92
-0.27753639 0.049178056 -0.8769719 105 73 74
-0.27658087 0.049023248 -0.877271 112 83 87
-0.27901047 0.048988372 -0.87592381 87 52 47
-0.27667052 0.049288899 -0.87758672 115 86 90
-0.278386 0.050269023 -0.87801123 111 79 79
-0.27845424 0.050010845 -0.87762123 107 74 74
-0.27644783 0.050116535 -0.87888384 114 84 91
-0.27582449 0.05000047 -0.87908459 109 81 89
-0.27513915 0.048933454 -0.87786949 118 91 100
-0.27394161 0.049190145 -0.87860548 103 76 89
-0.27507332 0.049641855 -0.87891728 107 79 89
-0.27413234 0.049666312 -0.87924993 97 70 83
-0.32296693 0.04718902 -0.87909043 122 92 82
-0.32233632 0.045426808 -0.87802172 122 96 89
-0.3227976 0.047171995 -0.87891555 122 92 82
-0.32314727 0.045226175 -0.87877887 121 95 88
-0.32154167 0.045030355 -0.87752384 123 97 89
-0.31975701 0.045665029 -0.87691164 125 94 85
-0.31908381 0.047164615 -0.87713403 123 90 81
-0.31945869 0.046735417 -0.8771562 123 91 82
-0.32031369 0.045502778 -0.87711549 124 95 87
-0.32107317 0.045574792 -0.87749898 122 95 87
-0.31996709 0.048716541 -0.87794274 122 88 76
-0.32118186 0.048646718 -0.87836313 123 89 77
-0.32154 0.047247171 -0.87814355 122 92 82
-0.32020307 0.047797598 -0.87779891 122 90 80
-0.32027787 0.047579955 -0.87777162 122 90 80
-0.32100222 0.048313402 -0.87821537 123 90 78
-0.31619188 0.045501534 -0.87604898 125 93 82
-0.31599528 0.044931509 -0.87583268 125 94 83
-0.31725174 0.045553196 -0.87613767 126 93 83
-0.31572291 0.0463222 -0.87631059 124 91 80
-0.31562313 0.046714101 -0.87644374 123 90 79
-0.31456035 0.045333728 -0.87588096 123 93 81
-0.31602412 0.048592668 -0.87714434 121 85 75
-0.31508848 0.048282638 -0.87696797 121 86 75
-0.31550801 0.048793621 -0.87718081 120 85 74
-0.31813788 0.046510972 -0.87654221 126 91 81
-0.31577042 0.047555514 -0.87675369 122 88 77
-0.31689274 0.047908772 -0.87695861 122 87 77
-0.31206545 0.046334796 -0.87656116 121 89 78
-0.31291601 0.046362452 -0.87648886 121 90 78
-0.31194845 0.045784462 -0.87633967 122 91 79
-0.31125197 0.04802613 -0.87735778 119 85 74
-0.31267813 0.045152988 -0.87600023 123 93 81
-0.31196848 0.047229011 -0.87694943 120 87 76
-0.31413358 0.045667443 -0.87604576 123 92 80
-0.31196731 0.048587792 -0.87744612 118 84 73
-0.31160009 0.047794055 -0.87722385 119 86 75
-0.31247064 0.048304565 -0.8772617 119 85 74
-0.31315085 0.046666645 -0.87656492 121 89 78
-0.31323713 0.048334844 -0.87714553 119 85 74
-0.30906561 0.046078824 -0.8771522 121 88 77
-0.30875915 0.046338379 -0.8773753 121 87 76
-0.30895764 0.046083294 -0.87719566 121 87 76
-0.30756521 0.047668088 -0.87837356 120 83 72
-0.30792838 0.046275146 -0.87767035 121 86 75
-0.3074919 0.046799101 -0.87805051 120 84 74
-0.30715787 0.048321534 -0.87879509 119 81 70
-0.31016794 0.047853891 -0.8774935 119 84 74
-0.3101595 0.046617489 -0.87697303 120 87 77
-0.31037438 0.04701503 -0.87706256 120 87 76
-0.30889615 0.048722401 -0.87832749 118 81 71
-0.31004977 0.04798216 -0.87759113 119 84 74
-0.30554581 0.047973391 -0.87919611 118 80 69
-0.3055149 0.045920476 -0.87832713 120 83 72
-0.305004 0.046061832 -0.87852198 119 82 71
-0.30341426 0.04512164 -0.87857038 119 81 70
-0.30434632 0.045196112 -0.87834924 120 82 72
-0.30519748 0.045152605 -0.87810224 120 84 73
-0.30495524 0.045781218 -0.87842166 120 82 72
-0.29992613 0.045099713 -0.87763566 113 76 64
-0.3007701 0.045323405 -0.87811786 114 77 65
-0.3014476 0.045807797 -0.87883598 115 77 66
-0.30099711 0.045852516 -0.87879282 114 76 65
-0.2990272 0.046048265 -0.87860453 110 73 59
-0.29938164 0.046253055 -0.87895411 111 74 60
-0.29757664 0.045136526 -0.87629825 108 72 57
-0.29852343 0.045171406 -0.87714756 110 74 60
-0.29824799 0.046426624 -0.878645 109 72 57
-0.29549146 0.045785625 -0.87590146 105 69 52
-0.29655221 0.045450218 -0.87604117 106 71 54
-0.29524013 0.045758765 -0.87570101 105 69 51
-0.2955218 0.046193872 -0.876508 105 69 51
-0.29562378 0.047644444 -0.87863916 103 67 50
-0.29509309 0.047132175 -0.87755758 103 67 49
-0.29492334 0.046867937 -0.87706888 103 67 49
-0.29728889 0.0464039 -0.87798184 107 71 55
-0.29682094 0.047405958 -0.87909603 106 69 53
-0.29684824 0.046673648 -0.8780725 106 70 53
-0.2931399 0.048588652 -0.87828523 98 61 46
-0.29277551 0.047877859 -0.8771857 99 62 46
-0.29104814 0.048698716 -0.87701309 95 58 45
-0.29433447 0.046439249 -0.87609893 103 66 49
-0.29480046 0.048017733 -0.87862915 102 65 48
-0.29422757 0.047553312 -0.87761825 101 65 48
-0.29407376 0.048143562 -0.87836385 100 64 47
-0.29475892 0.047431637 -0.87777007 102 66 48
-0.29245695 0.047320716 -0.87620479 99 62 47
-0.29441148 0.047429908 -0.87755519 102 65 48
-0.28912643 0.0485074 -0.87581366 93 56 45
-0.29032013 0.048438326 -0.8763293 94 57 45
-0.28870964 0.048789408 -0.87594378 93 55 45
-0.27886778 0.048545837 -0.87557656 85 51 46
-0.27589175 0.04691042 -0.87593102 113 86 87
-0.27840763 0.048234552 -0.8755874 89 56 52
-0.27761477 0.048262782 -0.8760308 97 66 65
-0.27579746 0.048406366 -0.87710649 117 89 94
-0.27372652 0.045286104 -0.87628466 117 100 98
-0.27308184 0.045602009 -0.87701613 119 107 104
-0.27343199 0.046490617 -0.87741119 120 106 105
-0.27365297 0.04573426 -0.87666976 119 103 101
-0.27443454 0.046116196 -0.87634695 118 98 97
-0.2745719 0.047498774 -0.87727958 120 99 102
-0.27316353 0.046395652 -0.87754935 121 107 106
-0.27208325 0.047159985 -0.87818545 106 89 97
-0.27305675 0.046589192 -0.87773299 120 107 107
-0.27431089 0.048009459 -0.87774283 119 97 103
-0.27491888 0.04838974 -0.87766284 121 97 103
-0.27201262 0.047448505 -0.87828624 102 84 94
-0.27150139 0.046859019 -0.87827933 103 88 96
-0.27091348 0.047653172 -0.87900132 86 67 78
-0.27054593 0.045823321 -0.87863749 98 86 86
-0.27107239 0.047800031 -0.87894881 87 68 80
-0.27072829 0.047344718 -0.87901777 87 67 77
-0.27122283 0.048265588 -0.87895548 85 63 79
-0.32351971 0.043533634 -0.87854064 123 99 95
-0.3249478 0.041451018 -0.87916231 126 103 101
-0.32329583 0.044165064 -0.8785603 122 98 92
-0.32453889 0.041576635 -0.87883937 125 101 99
-0.32393113 0.042308904 -0.87852168 124 100 97
-0.32295027 0.042745404 -0.87779486 123 95 92
-0.32308838 0.041422728 -0.87753463 123 92 91
-0.32248408 0.043057885 -0.87747955 122 93 90
-0.32327926 0.041894075 -0.87783599 123 95 93
-0.31853983 0.042849548 -0.87540585 132 107 94
-0.31976622 0.042793475 -0.8760339 128 97 89
-0.31964236 0.042288676 -0.87582803 129 102 92
-0.32031211 0.042487841 -0.87620407 126 94 88
-0.32058212 0.041603502 -0.87607461 127 98 91
-0.32090271 0.044466123 -0.87705284 124 95 88
-0.32192382 0.044764139 -0.87761939 122 97 90
-0.32017058 0.044521663 -0.87672406 125 95 87
-0.32150409 0.043557595 -0.8770749 123 93 88
-0.32009354 0.04387822 -0.87650281 125 93 87
-0.31718051 0.043607213 -0.87545401 129 103 90
-0.316609 0.044339463 -0.87567532 127 98 86
-0.31512707 0.044725481 -0.87570608 125 96 83
-0.31691334 0.044448759 -0.87573206 127 98 86
-0.31205678 0.044658922 -0.87582338 123 93 82
-0.31057486 0.043828748 -0.87559104 123 92 83
-0.31316084 0.04476431 -0.87576962 123 94 82
-0.30759001 0.043870427 -0.87654704 122 89 79
-0.3075414 0.043776017 -0.87648648 122 89 80
-0.30808964 0.042919841 -0.87567294 123 91 82
-0.30720094 0.044694558 -0.87729311 122 87 78
-0.30815548 0.044264399 -0.87670285 122 89 79
-0.30971023 0.044597037 -0.87628156 122 91 80
-0.30733159 0.044802718 -0.87729692 122 87 77
-0.30321971 0.042555958 -0.87594908 123 83 75
-0.30453873 0.042917348 -0.87637007 122 86 76
-0.30277023 0.043672316 -0.87723351 121 81 72
-0.30414397 0.043494027 -0.877033 121 84 75
-0.30361718 0.043178566 -0.87666774 122 84 75
-0.30626073 0.042290814 -0.8756544 123 90 80
-0.30350277 0.044887956 -0.87843931 119 82 71
-0.3054283 0.043137677 -0.87655669 122 87 77
-0.30460963 0.044450771 -0.87780041 120 84 74
-0.3058255 0.04419725 -0.87727517 121 86 76
-0.30557248 0.044461153 -0.87754893 121 86 75
-0.29945177 0.043710817 -0.87559825 114 76 64
-0.29975981 0.04423748 -0.87666774 115 76 65
-0.30006766 0.043951951 -0.87643719 116 77 66
-0.30127993 0.043381833 -0.87630498 119 79 70
-0.30241716 0.044084303 -0.87757862 120 81 71
-0.30008376 0.044822436 -0.8774761 114 76 64
-0.30058444 0.044655811 -0.87748855 115 77 66
-0.30173558 0.044203065 -0.87743711 118 79 69
-0.30179906 0.04464997 -0.87797785 117 79 68
-0.29841825 0.044464312 -0.87599772 110 74 60
-0.29798442 0.044655524 -0.87593561 109 73 59
-0.27207753 0.042923115 -0.87680036 78 61 73
-0.27165991 0.041643467 -0.87680286 52 32 54
-0.27275226 0.044584304 -0.87669528 111 97 96
-0.27232563 0.043433778 -0.87673688 88 72 80
-0.27267069 0.042797364 -0.87631416 74 52 67
-0.27249774 0.041325796 -0.87550801 41 19 51
-0.27223 0.041609392 -0.87614977 49 27 53
-0.26961344 0.043350715 -0.87876552 70 52 56
-0.26944098 0.041777845 -0.8791185 64 41 45
-0.26921079 0.042916618 -0.87928164 72 52 52
-0.269465 0.041320313 -0.8791337 61 38 43
-0.26976395 0.041826308 -0.87873304 61 39 46
-0.27080598 0.042102382 -0.87747967 52 32 50
-0.27145463 0.043441907 -0.87740296 89 79 85
-0.27106565 0.041975997 -0.87728447 53 34 53
-0.27096707 0.044849101 -0.87806016 111 105 100
-0.32344708 0.040732831 -0.87761956 125 95 94
-0.3253524 0.040692344 -0.87925518 128 106 104
-0.32007828 0.040895645 -0.87561798 130 108 97
-0.2715961 0.039483912 -0.87680578 42 22 41
-0.27170742 0.040728141 -0.87648052 39 17 45
-0.27162579 0.039100237 -0.87680936 43 23 40
-0.27180794 0.037244268 -0.8764497 52 31 37
-0.27180666 0.03799127 -0.8765505 47 27 38
-0.27043852 0.038524993 -0.87839091 50 30 35
-0.2706055 0.037860256 -0.87832236 47 28 33
-0.27061448 0.037434559 -0.87841618 44 26 31
-0.2706342 0.037555281 -0.8783583 45 27 31
-0.27075681 0.039662581 -0.87781018 49 28 39
-0.27134368 0.038453788 -0.87727076 46 27 37
-0.27075976 0.040757068 -0.87766862 47 25 42
-0.27143425 0.039125245 -0.87707925 44 24 39
-0.27043697 0.039140623 -0.87825316 54 33 37
-0.26416969 0.04091255 -0.87906355 69 53 47
-0.26395366 0.038896363 -0.87877029 59 50 46
-0.26423633 0.038893715 -0.87890512 57 47 44
-0.27166203 0.036303658 -0.87700409 44 26 30
-0.27183187 0.036640346 -0.87648165 50 29 34
-0.27164885 0.035779934 -0.87716347 39 22 27
-0.27196589 0.035260979 -0.87654757 40 21 26
-0.27223983 0.035697054 -0.87589443 48 26 30
-0.27260932 0.035209514 -0.87543941 49 25 27
-0.27191356 0.035327457 -0.87661308 40 21 26
-0.2701129 0.036636576 -0.87929624 37 20 27
-0.27030605 0.035864286 -0.87919247 34 19 25
-0.27059212 0.035966184 -0.87880206 32 16 22
-0.27065313 0.035867721 -0.87873977 31 16 22
-0.27031866 0.036918633 -0.87895912 38 21 27
-0.27080971 0.035292331 -0.87865704 27 13 19
-0.27208695 0.032931272 -0.8773005 28 11 15
-0.2719298 0.032181602 -0.87799037 40 19 25
-0.27250716 0.03316465 -0.8764345 30 11 13
-0.27233452 0.031567372 -0.87763518 55 28 33
-0.27257517 0.031636126 -0.87717998 56 28 32
-0.2723738 0.030716136 -0.87805593 68 36 43
-0.27329299 0.030666029 -0.87584966 52 23 25
-0.27316332 0.030805202 -0.87612182 54 25 27
-0.27347609 0.02950513 -0.87583321 57 26 29
-0.27249479 0.029812863 -0.87817758 76 41 48
-0.27298486 0.032404397 -0.8759594 46 20 21
-0.27325946 0.031781368 -0.87550819 45 19 19
-0.270859 0.032978944 -0.87909657 31 18 25
-0.27267322 0.028248291 -0.87861657 93 57 61
-0.27399692 0.025573727 -0.87572747 107 76 62
-0.27346572 0.026764471 -0.8779797 100 68 63
-0.27366546 0.026288856 -0.87687331 103 71 62
-0.2739858 0.025673537 -0.87647152 107 76 63
-0.2737169 0.026331726 -0.87812769 103 71 64
-0.27368787 0.026373748 -0.87612289 101 69 59
-0.2729176 0.028747376 -0.87745309 80 45 49
-0.27361709 0.027204176 -0.87608981 89 57 51
-0.272654 0.029089691 -0.87802756 80 44 50
-0.27373332 0.027131028 -0.87581676 88 56 49
-0.27557102 0.021623751 -0.8786419 106 73 71
-0.27455208 0.024566608 -0.8784827 107 77 67
-0.27425617 0.025145724 -0.87691629 108 78 64
-0.27450979 0.024785232 -0.87904578 107 78 68
-0.27474037 0.024118463 -0.87901866 107 77 69
-0.2747387 0.02392548 -0.87787431 108 76 67
-0.27526745 0.022298668 -0.87710148 100 71 65
-0.27520663 0.022307431 -0.87607306 96 69 62
-0.27504891 0.022680782 -0.87561345 96 70 61
-0.27514261 0.022488093 -0.87606996 97 70 62
-0.27507409 0.02279794 -0.87679899 101 72 64
-0.27308887 0.020443803 -0.87860096 101 68 64
-0.27198154 0.02007138 -0.87652814 88 61 50
-0.27306113 0.020463567 -0.87733978 95 65 57
-0.27277416 0.020345561 -0.87769556 96 65 58
-0.27359948 0.020625157 -0.87915659 105 71 68
-0.27446899 0.021013925 -0.87714696 97 68 62
-0.27462676 0.021104224 -0.87621844 93 66 60
-0.27382278 0.020800278 -0.87594891 90 63 56
-0.27315342 0.02051726 -0.87668341 92 64 55
-0.27388012 0.020792391 -0.8769145 94 66 59
-0.2737304 0.020740286 -0.87672037 93 65 58
-0.26082385 0.10001116 -0.89868915 0 0 0
-0.26078632 0.099905603 -0.89836919 0 0 0
-0.26058915 0.098056197 -0.89746779 0 0 0
-0.26112172 0.099119611 -0.89801353 0 0 0
-0.26141214 0.099221393 -0.89834321 0 0 0
-0.26172298 0.097386584 -0.89882636 0 0 0
-0.26041818 0.09691719 -0.89771086 0 0 0
-0.26004899 0.095983781 -0.89781684 0 0 0
-0.26037374 0.095897406 -0.89803475 0 0 0
-0.32232761 0.069258116 -0.89764148 115 69 56
-0.32270551 0.069128975 -0.89773208 115 69 56
-0.32278091 0.068975985 -0.89702338 116 70 56
-0.32327685 0.068512924 -0.89565456 117 72 57
-0.32393014 0.068555526 -0.89780724 116 70 56
-0.31968284 0.069356687 -0.8967315 115 69 57
-0.31899166 0.069277048 -0.89591157 115 70 57
-0.31894889 0.069331639 -0.89628971 115 70 57
-0.32161421 0.069202855 -0.89690101 116 70 56
-0.32211354 0.069251269 -0.89741904 116 69 56
-0.32217377 0.068903811 -0.89574128 117 71 56
-0.32167852 0.069114387 -0.8965013 116 70 56
-0.32072449 0.069040775 -0.89560467 116 71 57
-0.31982812 0.069044404 -0.89512086 116 71 57
-0.31453055 0.069160551 -0.89644647 110 68 53
-0.31727779 0.069291905 -0.89637786 114 70 56
-0.31776908 0.069156684 -0.89513779 115 70 57
-0.31810477 0.069171667 -0.89506429 115 70 57
-0.31741893 0.069276728 -0.89619213 114 70 56
-0.3133837 0.068512931 -0.89502496 108 66 51
-0.31153023 0.068373308 -0.89825732 100 60 45
-0.31417042 0.068923615 -0.89576054 110 67 53
-0.31358424 0.068935513 -0.89704996 107 65 51
-0.31314567 0.068986401 -0.89824307 104 64 49
-0.3137956 0.069022752 -0.89708298 107 66 51
-0.34353325 0.064462364 -0.89576942 66 57 51
-0.34229901 0.064689882 -0.89734256 19 16 14
-0.34227225 0.065491907 -0.89645362 18 15 13
-0.34181184 0.065662988 -0.89694059 0 0 0
-0.34222308 0.065477431 -0.8965435 16 14 12
-0.34177402 0.067026809 -0.89547658 0 0 0
-0.34148443 0.067973621 -0.89553356 0 0 0
-0.34125534 0.067439385 -0.89732343 2 1 0
-0.34129736 0.068196364 -0.89640558 0 0 0
-0.34148636 0.066468552 -0.89686865 4 2 1
-0.34143165 0.067814805 -0.8959778 1 0 0
-0.3317003 0.065019988 -0.89614582 116 73 61
-0.33084983 0.065374054 -0.89577979 119 78 68
-0.33059746 0.065550566 -0.89686918 118 76 67
-0.33080071 0.0654907 -0.89737135 117 74 64
-0.33113852 0.065362327 -0.89762181 117 73 62
-0.33209419 0.065045044 -0.89861006 120 77 64
-0.33303887 0.064537466 -0.8971408 120 75 61
-0.33173424 0.06502448 -0.89647114 116 72 59
-0.33229226 0.064855777 -0.89725715 118 74 61
-0.3321653 0.065026827 -0.89875156 121 77 65
-0.32628804 0.067252405 -0.89516652 118 73 61
-0.32632744 0.067241281 -0.89523488 118 73 61
-0.32815346 0.066580154 -0.89691615 117 73 64
-0.32684004 0.067104697 -0.89620936 118 73 61
-0.32757899 0.066893391 -0.89746618 117 73 61
-0.3277666 0.066764571 -0.89701456 118 73 62
-0.32956499 0.065987542 -0.8967855 119 77 69
-0.32834774 0.066496931 -0.89687741 118 74 64
-0.32944372 0.066103071 -0.89788061 117 74 66
-0.3270103 0.066968784 -0.89550573 118 74 63
-0.32955426 0.065957099 -0.89620084 119 79 71
-0.32910922 0.066180333 -0.8968544 118 76 67
-0.32368365 0.068289876 -0.89547575 117 72 57
-0.32550049 0.067978226 -0.8988266 117 71 56
-0.32492065 0.068041913 -0.89753705 117 71 57
-0.32515481 0.067859069 -0.89687049 118 72 58
-0.32540616 0.067673385 -0.89594972 118 73 59
-0.32511875 0.067696825 -0.89506608 118 73 60
-0.32576123 0.06755612 -0.89613622 118 73 59
-0.31060922 0.067867346 -0.89810526 99 59 44
-0.3112354 0.067662925 -0.89592499 103 62 47
-0.31142876 0.067525364 -0.89492536 104 64 48
-0.31215188 0.068159088 -0.89596307 104 63 48
-0.31147301 0.067925021 -0.89648998 102 62 47
-0.30745077 0.06609524 -0.89726549 97 58 43
-0.30811894 0.066381313 -0.89660054 96 57 43
-0.30876774 0.066801846 -0.8970744 97 57 43
-0.30792561 0.066278592 -0.89663643 96 57 43
-0.30981132 0.067526907 -0.89821815 97 57 43
-0.30698162 0.065876342 -0.89759099 97 59 44
-0.30900487 0.06687218 -0.89692569 97 58 43
-0.30909407 0.066980973 -0.89721048 97 57 43
-0.30987811 0.06727092 -0.8969937 99 59 44
-0.3100512 0.067656316 -0.89825761 97 57 43
-0.30810389 0.066284478 -0.89613593 97 57 43
-0.30833229 0.066249549 -0.89558548 98 58 44
-0.30464134 0.064511754 -0.89805257 99 62 48
-0.30516949 0.064577788 -0.89565724 98 59 45
-0.30466965 0.064514205 -0.89791322 99 61 47
-0.30633414 0.065620378 -0.8985647 98 61 45
-0.30581868 0.065059878 -0.8966853 97 59 45
-0.30559123 0.065149657 -0.89850014 98 61 46
-0.35375997 0.060621329 -0.89572811 138 115 113
-0.34230235 0.062858447 -0.89550507 66 47 39
-0.34273499 0.063321494 -0.89547312 69 52 44
-0.34228662 0.063946664 -0.8969664 33 26 22
-0.34212351 0.062243696 -0.89495897 78 53 43
-0.34185654 0.06364385 -0.89720625 26 17 14
-0.3416492 0.064341143 -0.89841908 7 4 3
-0.34123039 0.063331924 -0.89734852 45 28 22
-0.34162623 0.063063718 -0.89675194 46 29 23
-0.34110114 0.062661588 -0.89645982 67 41 34
-0.34144062 0.06303668 -0.89681321 50 31 25
-0.34104615 0.062277477 -0.8959403 79 49 40
-0.34148002 0.063781977 -0.89785743 27 17 13
-0.33886752 0.061380886 -0.89561635 100 62 53
-0.33925158 0.062017865 -0.89643615 98 60 51
-0.33958718 0.062537275 -0.89709365 97 59 49
-0.33996549 0.06186777 -0.89584941 92 57 48
-0.33814499 0.061511867 -0.89617705 106 65 56
-0.33861509 0.062036306 -0.89677674 103 63 54
-0.33840173 0.062242396 -0.8972072 105 64 55
-0.33495313 0.063766405 -0.8973276 118 73 58
-0.3351402 0.063899957 -0.89852482 119 75 61
-0.33496976 0.063995488 -0.89879817 120 76 62
-0.33555159 0.06375771 -0.89841962 118 73 60
-0.33423609 0.063776836 -0.89601934 118 72 56
-0.33605129 0.062704645 -0.89592445 112 68 55
-0.33575958 0.063009389 -0.89604765 113 68 55
-0.33737758 0.06297335 -0.89798164 112 66 56
-0.33618066 0.062923551 -0.89643002 113 68 55
-0.33711359 0.062135793 -0.89633173 110 67 56
-0.33715457 0.061617319 -0.89556193 109 67 57
-0.33785582 0.062197968 -0.8973434 109 66 57
-0.33387756 0.064035147 -0.89671493 120 75 59
-0.33381504 0.063889988 -0.89554268 117 72 56
-0.30328697 0.063299939 -0.89734864 98 60 49
-0.30315784 0.063358389 -0.89820027 97 60 49
-0.30348697 0.063478909 -0.89746767 98 61 49
-0.30440021 0.064334042 -0.898063 99 62 48
-0.30354741 0.063283838 -0.89601225 98 60 48
-0.30449533 0.064210072 -0.89668453 98 60 47
-0.30430141 0.064155132 -0.89744371 99 61 48
-0.30183131 0.061799537 -0.89614838 92 56 45
-0.30210939 0.06198398 -0.89570421 94 57 46
-0.3012847 0.061374411 -0.89603877 92 55 45
-0.30026427 0.060722496 -0.8980608 84 49 39
-0.30201647 0.06223369 -0.8975693 93 56 45
-0.30223742 0.062342476 -0.89704162 94 57 46
-0.30203092 0.062273912 -0.89771152 93 56 45
-0.30245772 0.062814437 -0.89845502 95 58 47
-0.3026416 0.062998258 -0.89851362 96 59 48
-0.35364065 0.059809353 -0.89770484 139 116 112
-0.35424453 0.059408188 -0.89652061 132 112 110
-0.35465533 0.058162842 -0.89774793 130 113 109
-0.35386631 0.059615403 -0.8973195 136 114 111
-0.35404831 0.060169071 -0.89559346 132 111 110
-0.35436317 0.058806561 -0.89737189 132 113 110
-0.3542645 0.056812063 -0.89628339 127 112 106
-0.35403576 0.059229348 -0.89523554 130 110 108
-0.35517946 0.056682039 -0.8985557 127 113 108
-0.35430303 0.059119016 -0.89591396 130 111 109
-0.35491362 0.056642454 -0.89791113 127 113 108
-0.35285527 0.060222402 -0.89866173 146 120 114
-0.29921895 0.059576262 -0.89659202 84 47 39
-0.2995584 0.060068015 -0.89805746 82 47 37
-0.29952618 0.059909385 -0.89684558 84 48 40
-0.29996184 0.060366634 -0.89686507 87 50 41
-0.29992592 0.060191296 -0.89528155 91 53 45
-0.29571554 0.057894628 -0.89742821 86 51 47
-0.29643819 0.058440141 -0.89878279 84 51 44
-0.29507023 0.057646617 -0.8975901 87 52 49
-0.29659224 0.058130823 -0.89663047 84 50 45
-0.29729393 0.058760598 -0.89851987 82 49 41
-0.29551181 0.057876032 -0.89782178 86 51 47
-0.29696918 0.058280233 -0.89636505 84 49 44
-0.29701006 0.058308475 -0.89643657 84 49 44
-0.29798022 0.058689628 -0.89567691 85 48 43
-0.29670089 0.05813954 -0.89627481 84 50 45
-0.29727787 0.058361296 -0.89578098 85 49 44
-0.2976822 0.058471918 -0.8950541 86 48 44
-0.29348373 0.057539504 -0.89846116 87 52 47
-0.29195243 0.057265278 -0.89646995 85 51 46
-0.29188702 0.057251181 -0.89823961 86 51 46
-0.2944971 0.057722375 -0.89869332 87 52 48
-0.29109067 0.057106815 -0.89857644 85 51 45
-0.29273969 0.057407066 -0.89686286 86 51 46
-0.29197291 0.057137348 -0.89511961 85 51 46
-0.2920137 0.05719848 -0.89546907 85 51 46
-0.29346228 0.057267394 -0.89582175 86 51 48
-0.29323721 0.057248816 -0.89572179 86 51 48
-0.29370019 0.057300754 -0.89600611 87 51 48
-0.28726429 0.057018641 -0.89741623 79 46 38
-0.2881422 0.056968585 -0.89858311 80 47 39
-0.28955519 0.057104837 -0.89777249 83 49 43
-0.28978482 0.057066318 -0.89839298 83 49 43
-0.2900089 0.05709216 -0.89821196 84 49 44
-0.28892836 0.057071593 -0.89779478 82 48 42
-0.28843313 0.057173133 -0.89510226 81 47 42
-0.28865075 0.057165202 -0.89633679 82 47 42
-0.29085287 0.057100277 -0.89686143 85 50 45
-0.29079279 0.057102006 -0.89688164 85 50 45
-0.2898387 0.057130542 -0.89633554 83 49 44
-0.28866991 0.057165351 -0.89578372 82 47 42
-0.2836881 0.057607476 -0.89845771 66 35 33
-0.28359935 0.057622157 -0.8988238 65 34 33
-0.28325379 0.057717081 -0.89646721 72 39 36
-0.28434047 0.057494085 -0.8963154 76 43 37
-0.28558165 0.057225514 -0.89753085 76 44 37
-0.28464463 0.057517428 -0.895289 77 44 38
-0.28692749 0.057192124 -0.89547443 79 45 40
-0.2837252 0.057646621 -0.89523685 77 43 38
-0.286787 0.057014614 -0.89791244 78 45 37
-0.28562483 0.057298146 -0.89635569 78 44 38
-0.28270006 0.05783201 -0.89873046 66 36 37
-0.28104746 0.058286998 -0.89859211 72 44 52
-0.27969784 0.058669776 -0.89853853 77 50 63
-0.28128868 0.058089018 -0.89791405 81 52 57
-0.28174743 0.058087643 -0.89861542 70 41 46
-0.28056151 0.057985123 -0.89519125 111 80 84
-0.28276199 0.057781108 -0.89519912 81 48 45
-0.28221694 0.057808053 -0.89755952 81 50 52
-0.28175065 0.057857852 -0.89690006 89 59 61
-0.28296962 0.057742607 -0.89712799 72 40 39
-0.28225085 0.057823557 -0.89569229 87 54 53
-0.27570903 0.056698956 -0.89666539 63 35 41
-0.27724946 0.057178929 -0.89552349 90 63 69
-0.27804404 0.057881273 -0.89594555 105 76 84
-0.2779046 0.057833329 -0.89602691 103 73 82
-0.27689531 0.057411104 -0.89651024 84 55 63
-0.27615076 0.057682563 -0.89768851 70 40 52
-0.2775296 0.058291834 -0.89813727 75 46 60
-0.27618393 0.057997737 -0.89826953 66 36 50
-0.27875775 0.058152694 -0.89585358 113 84 93
-0.27845815 0.058223303 -0.89660525 101 72 83
-0.27845433 0.058513362 -0.89814949 79 51 65
-0.27917653 0.058342896 -0.89633608 108 80 90
-0.27528122 0.057429094 -0.89823776 55 26 38
-0.27482155 0.057264835 -0.89840269 54 26 37
-0.26406828 0.057255529 -0.8986727 0 0 0
-0.35671186 0.053296268 -0.8976894 140 120 107
-0.35492587 0.052952413 -0.89602059 141 116 104
-0.35643134 0.052788094 -0.89695817 140 119 107
-0.35709777 0.053981021 -0.89861 139 121 108
-0.3567138 0.054696299 -0.89875638 136 120 108
-0.35546181 0.055001851 -0.89789176 134 116 107
-0.35541788 0.0547475 -0.89768589 135 116 106
-0.35590193 0.053434689 -0.89722919 141 118 106
-0.35517922 0.054304659 -0.89718932 137 115 106
-0.35489061 0.056050826 -0.89783895 129 113 107
-0.35390401 0.053431537 -0.89534605 140 113 102
-0.3548854 0.056377623 -0.89783502 128 113 107
-0.35372725 0.05472479 -0.89494699 135 112 103
-0.35385567 0.053881016 -0.89523953 138 112 103
-0.35429567 0.054597083 -0.896339 135 113 104
-0.27560997 0.056614883 -0.89656794 61 33 39
-0.27525824 0.05644298 -0.89650375 57 30 35
-0.27482918 0.056304336 -0.89642382 56 30 35
-0.27331349 0.055762138 -0.8974545 53 30 35
-0.27320132 0.055729534 -0.89755976 53 30 35
-0.2721296 0.055262163 -0.8983227 51 30 35
-0.27313513 0.05554549 -0.89736545 53 30 35
-0.27203968 0.053195078 -0.89535052 63 41 46
-0.27312326 0.055122405 -0.89674187 55 32 36
-0.27265987 0.053940233 -0.8956117 61 38 43
-0.27313721 0.054928549 -0.89643288 56 33 37
-0.27309957 0.054496497 -0.89583868 59 36 40
-0.27194279 0.054900769 -0.8980338 52 31 36
-0.27188405 0.053941309 -0.89668018 58 37 41
-0.27151337 0.053976156 -0.89753878 56 35 40
-0.26997003 0.05388293 -0.89856416 49 29 37
-0.27022392 0.05302608 -0.8974095 55 34 41
-0.26839942 0.052878369 -0.89847916 47 29 38
-0.27065548 0.054105345 -0.89835364 51 31 37
-0.27070317 0.052986231 -0.8970384 57 36 43
-0.26981059 0.053466566 -0.89819515 50 31 38
-0.26449412 0.055916701 -0.89877355 0 0 0
-0.26214451 0.054170139 -0.89862192 0 0 0
-0.26343623 0.055261105 -0.89856762 0 0 0
-0.26086983 0.053629547 -0.89834666 0 0 0
-0.26097068 0.053103514 -0.89861351 0 0 0
-0.25979871 0.05460535 -0.89833891 0 0 0
-0.26125318 0.056443956 -0.89833057 0 0 0
-0.26245862 0.055656102 -0.89824152 0 0 0
-0.26149088 0.055682942 -0.89829147 0 0 0
-0.26216602 0.056378163 -0.89828199 0 0 0
-0.26024455 0.05603832 -0.89836735 0 0 0
-0.35779303 0.051903475 -0.89848804 125 110 96
-0.35777465 0.052360527 -0.89847314 127 111 98
-0.35779732 0.050146692 -0.89836049 120 107 91
-0.35743165 0.051250171 -0.89727354 108 96 84
-0.35770625 0.049339369 -0.89780247 94 85 71
-0.35693592 0.050790824 -0.8968637 107 94 83
-0.35443923 0.049053866 -0.89511144 120 102 90
-0.35708466 0.051131476 -0.89703107 112 98 87
-0.35551608 0.049670748 -0.89583206 112 96 84
-0.35560322 0.049355768 -0.8957935 104 89 78
-0.35420635 0.049940132 -0.89502901 127 105 93
-0.35463211 0.051501177 -0.89547449 135 111 99
-0.35392359 0.052545201 -0.89504176 141 112 101
-0.35483035 0.052716706 -0.89572328 141 115 104
-0.35464221 0.052533258 -0.89556938 140 114 103
-0.35505679 0.050180603 -0.89567494 127 108 96
-0.35419863 0.050107241 -0.89503747 128 105 94
-0.27078998 0.052620642 -0.89636785 60 39 45
-0.26930171 0.052571479 -0.89723867 54 34 42
-0.26774886 0.052444324 -0.8981154 46 27 37
-0.26812148 0.051556733 -0.8959766 51 29 34
-0.26782832 0.052120619 -0.89737844 47 27 36
-0.26871896 0.051699955 -0.89582068 53 32 37
-0.26821694 0.051195681 -0.89514935 52 30 33
-0.27018157 0.051845681 -0.89501083 61 38 43
-0.27083984 0.05216207 -0.89517051 63 41 47
-0.2671999 0.050449494 -0.89499664 45 25 26
-0.2655811 0.049041945 -0.89602733 25 15 13
-0.26679054 0.050044037 -0.89514858 40 23 23
-0.26584113 0.049433071 -0.89622396 28 16 15
-0.26738539 0.052146863 -0.89810169 43 25 34
-0.26732278 0.051560193 -0.89703089 44 25 31
-0.26665214 0.050295491 -0.89605117 38 21 22
-0.26686311 0.05187171 -0.89882207 36 21 30
-0.26731217 0.051734746 -0.89742202 43 24 32
-0.2666133 0.051040042 -0.89770353 35 20 25
-0.26507694 0.049427293 -0.89814359 17 9 9
-0.35746562 0.045439251 -0.89503932 3 3 2
-0.35778996 0.048140675 -0.89763063 80 73 59
-0.35773084 0.047048457 -0.8968482 56 51 41
-0.35749465 0.047846165 -0.89636534 47 43 35
-0.35788214 0.046391647 -0.89826447 42 38 31
-0.35784963 0.046820853 -0.89779377 54 50 40
-0.3578895 0.046567511 -0.898283 47 43 35
-0.3578513 0.047245543 -0.89767414 67 61 49
-0.35787165 0.047587257 -0.89777201 77 70 57
-0.35386181 0.045094289 -0.89500493 123 103 93
-0.35619631 0.045365017 -0.89495617 42 35 32
-0.35607666 0.047176443 -0.89587295 77 67 58
-0.35453057 0.045174576 -0.89499241 100 84 76
-0.35676757 0.045794927 -0.8951264 29 24 21
-0.35385957 0.046286315 -0.89499372 126 106 95
-0.3540659 0.046420686 -0.89508766 122 103 92
-0.35506898 0.048766196 -0.89538294 103 88 76
-0.35477656 0.046664242 -0.89543194 108 92 81
-0.35568529 0.048380338 -0.89573848 91 78 67
-0.35664025 0.041927975 -0.89633971 137 117 109
-0.35554853 0.044387344 -0.89508605 84 71 64
-0.35729948 0.043362439 -0.89551699 62 54 50
-0.35536277 0.043858368 -0.89538544 109 92 85
-0.35644469 0.0437169 -0.89538556 78 67 62
-0.3561745 0.041148074 -0.89581186 148 127 121
-0.35530376 0.041571975 -0.89525026 148 128 121
-0.35563087 0.042779103 -0.89592582 139 118 109
-0.3561852 0.042022184 -0.89611769 142 121 113
-0.35730988 0.039910484 -0.89644504 151 130 121
-0.35677063 0.037867103 -0.89559782 159 138 128
-0.35619557 0.040532328 -0.89569157 150 129 122
-0.3562167 0.039702527 -0.89555019 151 131 123
-0.35600168 0.038084485 -0.8950668 156 136 126
-0.35599297 0.037456848 -0.89493984 157 137 126
-0.35648894 0.034136619 -0.89520216 156 123 125
-0.35714751 0.035354711 -0.89568329 163 136 131
-0.35624772 0.034833722 -0.89503723 155 125 125
-0.35612869 0.033969637 -0.89494628 153 119 123
-0.3569985 0.032349128 -0.89601249 153 121 121
-0.35537514 0.030848812 -0.89548379 147 106 111
-0.35421851 0.029299902 -0.89537114 141 95 102
-0.35564649 0.031328972 -0.89544606 149 109 114
-0.35620141 0.030824922 -0.89618599 147 112 112
-0.35427514 0.030229019 -0.89493549 144 97 106
-0.35541198 0.031572487 -0.89515901 149 108 114
-0.35590425 0.031647056 -0.89548856 150 112 115
-0.35359132 0.028801864 -0.89498538 147 102 110
-0.35412365 0.028440561 -0.89552772 151 113 116
-0.35348257 0.028184012 -0.89506042 154 114 120
-0.34711939 0.068667926 -0.91340262 7 4 4
-0.34680504 0.068608023 -0.91183066 18 12 10
-0.3463591 0.067657046 -0.91215676 0 0 0
-0.34664151 0.067761198 -0.91424471 0 0 0
-0.34671175 0.067893274 -0.91315675 0 0 0
-0.34685716 0.068199649 -0.91258138 9 6 5
-0.34613287 0.067682572 -0.91090316 9 5 5
-0.34378836 0.064514309 -0.91416711 66 65 40
-0.34469435 0.066019334 -0.9105525 0 0 0
-0.34391358 0.065026306 -0.91119397 11 11 7
-0.34345749 0.06447275 -0.91135299 14 14 9
-0.34379816 0.064761631 -0.91224808 31 30 19
-0.34506398 0.066233106 -0.91276401 23 23 14
-0.34527582 0.0665529 -0.912045 15 15 9
-0.34550691 0.066769116 -0.91326922 7 7 4
-0.34569409 0.067075551 -0.91227299 0 0 0
-0.32655963 0.06534972 -0.91125327 95 52 42
-0.32706881 0.065334149 -0.9109695 96 53 42
-0.32633755 0.065051086 -0.91174269 95 54 43
-0.32846457 0.064494617 -0.91114545 98 57 47
-0.32552379 0.064920962 -0.91230047 94 55 43
-0.32533553 0.065082841 -0.91220087 94 55 42
-0.32336378 0.065919988 -0.91198754 92 49 36
-0.32256806 0.067429595 -0.91076845 91 49 32
-0.32285842 0.065647289 -0.91240406 92 47 35
-0.32338357 0.064852163 -0.91301411 92 48 37
-0.3229301 0.065194309 -0.9128204 92 47 35
-0.32440424 0.066248238 -0.91128612 93 51 37
-0.32468104 0.06590651 -0.91155767 93 53 39
-0.3258459 0.065534912 -0.9114238 94 52 41
-0.32586288 0.065784 -0.9111172 94 51 40
-0.31966603 0.066090502 -0.91435081 90 49 37
-0.32036579 0.065118581 -0.91440618 87 45 33
-0.31979522 0.066599116 -0.91392314 91 50 38
-0.32151949 0.066577584 -0.91236657 91 48 34
-0.32057378 0.067504741 -0.91233522 91 51 35
-0.32129914 0.067588016 -0.91159111 91 50 33
-0.32064009 0.066524677 -0.91322225 91 49 36
-0.32118037 0.066687249 -0.91257077 91 48 34
-0.32118601 0.066114865 -0.91311908 91 48 35
-0.31876457 0.067446627 -0.91360337 90 52 38
-0.31951195 0.067514673 -0.91180128 88 47 31
-0.31942001 0.067508399 -0.91111374 86 45 28
-0.32088166 0.067632839 -0.91133857 89 48 32
-0.31867531 0.06744545 -0.91080254 84 43 26
-0.31890464 0.067460865 -0.91262275 88 49 34
-0.31573617 0.067760147 -0.9132992 93 53 41
-0.315754 0.067607962 -0.91245896 92 52 38
-0.31556946 0.067896411 -0.91387123 94 53 42
-0.3157182 0.067879647 -0.9139542 94 53 42
-0.31667951 0.067470685 -0.91162878 89 49 33
-0.315763 0.067500286 -0.91161186 91 51 36
-0.31736755 0.067444481 -0.91336745 91 53 39
-0.31613678 0.067486964 -0.91215909 91 52 37
-0.31809679 0.067426257 -0.91107011 84 44 27
-0.31815517 0.067420989 -0.91253549 88 48 33
-0.31073272 0.067280352 -0.91106319 86 49 42
-0.31251642 0.06787885 -0.91296184 91 51 44
-0.31342685 0.067624152 -0.91172534 91 51 40
-0.31144628 0.067248702 -0.91100925 87 49 41
-0.31120133 0.067217536 -0.91100717 87 49 42
-0.31306627 0.067455143 -0.91102511 90 51 38
-0.31434304 0.067535497 -0.91057146 91 51 35
-0.31267071 0.067645535 -0.91238439 91 51 43
-0.30980325 0.067111641 -0.91075313 86 49 43
-0.30765676 0.067337789 -0.91140866 88 51 47
-0.30972815 0.066897109 -0.91055077 86 50 42
-0.30708629 0.066412762 -0.91058493 88 53 45
-0.31049818 0.067323729 -0.91106534 86 49 42
-0.30596477 0.065934129 -0.91061789 89 53 45
-0.30660829 0.066311643 -0.91059172 88 53 46
-0.30475336 0.065833412 -0.91128224 89 53 46
-0.305922 0.066454038 -0.91117066 89 53 47
-0.30380762 0.064977668 -0.91101438 89 53 45
-0.30374756 0.066304758 -0.91183341 87 51 49
-0.3050822 0.067031294 -0.91213232 88 51 49
-0.30290532 0.065163612 -0.91141188 88 51 46
-0.30086493 0.065569229 -0.91144544 88 50 46
-0.29985771 0.064699054 -0.91144735 87 48 47
-0.3013325 0.065046631 -0.91134989 88 51 46
-0.30152941 0.066217251 -0.91158545 87 51 47
-0.29686069 0.065066054 -0.91123152 87 47 52
-0.36138493 0.061572351 -0.91373575 108 90 86
-0.36198181 0.061228186 -0.91440403 99 83 79
-0.36128944 0.060861949 -0.91166532 135 112 108
-0.36032438 0.063017108 -0.91418064 92 78 73
-0.36052734 0.062369853 -0.91329902 106 88 84
-0.35978663 0.063429765 -0.91362149 94 79 74
-0.36118296 0.061553635 -0.91328472 112 94 89
-0.36095795 0.060976505 -0.91138369 135 111 107
-0.35895392 0.063377991 -0.91059721 119 86 80
-0.35939822 0.063330501 -0.91204673 108 84 79
-0.35937163 0.064132906 -0.91401982 84 71 65
-0.3593896 0.063094944 -0.9114095 115 88 83
-0.3595174 0.063370056 -0.91257036 103 83 77
-0.35909986 0.064354725 -0.91362971 85 69 63
-0.3584522 0.064160652 -0.91083825 109 76 70
-0.3420395 0.061038487 -0.91309595 38 24 19
-0.34203914 0.061894998 -0.91222072 38 24 19
-0.34181297 0.063291505 -0.91055852 39 24 19
-0.3422752 0.063348845 -0.91087526 29 18 15
-0.34205368 0.062700868 -0.91140717 38 24 19
-0.34269476 0.0618187 -0.91290611 31 21 17
-0.34339967 0.063919656 -0.91212606 24 22 14
-0.34334749 0.063512579 -0.9125163 27 24 16
-0.34306976 0.061454117 -0.91435897 43 33 25
-0.34321553 0.062846608 -0.91271126 25 20 14
-0.34316304 0.062203132 -0.91361457 36 29 21
-0.34047055 0.061067566 -0.91172796 71 36 35
-0.34093168 0.060784288 -0.91239595 59 32 29
-0.34075713 0.061994318 -0.91101658 65 34 32
-0.34176505 0.063162997 -0.91065055 40 25 20
-0.34113771 0.061996583 -0.91132683 55 30 27
-0.34121215 0.06166153 -0.91173023 53 29 26
-0.33110085 0.062052649 -0.91094756 88 57 45
-0.33057421 0.060958415 -0.91178161 67 43 33
-0.33217666 0.061403561 -0.91064686 95 65 51
-0.33145377 0.061604924 -0.91096312 88 58 45
-0.33031899 0.06072389 -0.91204184 60 38 29
-0.32987261 0.063180745 -0.9110561 86 51 41
-0.32713616 0.064187974 -0.91212201 93 55 45
-0.32895541 0.063892156 -0.9111951 92 54 44
-0.32884905 0.062212035 -0.91213101 72 43 34
-0.32798526 0.064015649 -0.91170716 92 54 44
-0.32778656 0.064250596 -0.91170311 95 56 45
-0.32627153 0.062622458 -0.91284519 86 48 37
-0.32904759 0.061000645 -0.91244125 63 37 28
-0.32621881 0.064139977 -0.91259897 93 55 44
-0.32898185 0.060781393 -0.91249484 62 36 27
-0.32769358 0.062055372 -0.91259325 75 44 34
-0.32352242 0.061426546 -0.91444027 81 39 32
-0.32333884 0.062147666 -0.91425204 85 41 34
-0.32420442 0.061125334 -0.91415805 80 39 31
-0.32387447 0.062363926 -0.9138028 86 41 33
-0.32261938 0.063072942 -0.91428214 89 43 36
-0.32295096 0.062820822 -0.91419274 88 43 35
-0.32513389 0.063952379 -0.91295642 92 51 40
-0.32532364 0.064191513 -0.91285819 93 52 42
-0.32560179 0.061474688 -0.91323799 82 41 31
-0.32516718 0.063251518 -0.91306597 89 48 37
-0.32511389 0.063377209 -0.91306067 89 48 38
-0.32401347 0.06280648 -0.91349083 86 42 32
-0.32198417 0.063727073 -0.91429561 90 43 35
-0.30289596 0.064117342 -0.91066325 89 53 45
-0.30079618 0.063863754 -0.91087079 88 50 47
-0.30156162 0.064044677 -0.91081572 88 51 46
-0.30042413 0.064037077 -0.91102213 87 49 47
-0.29963085 0.063988999 -0.91114563 87 48 48
-0.30166018 0.064422734 -0.91122377 88 51 46
-0.29825485 0.063544154 -0.91124028 87 47 48
-0.29630095 0.061429299 -0.91077238 86 50 47
-0.2955637 0.06090007 -0.91072387 86 50 46
-0.29518372 0.062987342 -0.91092539 84 49 50
-0.29520351 0.061607298 -0.91083938 85 50 47
-0.29751134 0.063845724 -0.91129696 86 47 49
-0.295654 0.063031718 -0.91099215 84 49 49
-0.29605597 0.063503072 -0.91107708 84 48 50
-0.29404783 0.062315203 -0.91076118 83 48 48
-0.2934235 0.060606934 -0.91059029 83 48 44
-0.29315206 0.062321186 -0.91060233 81 46 46
-0.29395834 0.063063271 -0.91077238 82 48 49
-0.2933526 0.062823623 -0.9106499 81 46 47
-0.36138043 0.060115512 -0.91075903 143 117 114
-0.36207241 0.058362305 -0.91149569 111 92 91
-0.36210024 0.056862403 -0.91064674 104 86 86
-0.36219826 0.05946523 -0.91250724 111 92 90
-0.36175293 0.059358146 -0.91126251 127 104 102
-0.3620815 0.056912258 -0.91062778 105 86 87
-0.3619774 0.057529043 -0.91073161 111 92 91
-0.36326423 0.058362104 -0.91411144 113 97 93
-0.36304012 0.057006467 -0.91270047 114 98 95
-0.36279428 0.059023049 -0.9136129 105 88 85
-0.36290643 0.059320319 -0.91405141 105 89 85
-0.36340833 0.057878613 -0.91406709 116 101 96
-0.36338782 0.057342075 -0.91364837 118 102 98
-0.34247318 0.060099039 -0.91438591 39 26 22
-0.33939421 0.060179163 -0.91154182 91 44 45
-0.33963981 0.058530152 -0.91283447 59 54 34
-0.33863491 0.058748208 -0.91180831 86 58 46
-0.34010482 0.059408806 -0.91264379 61 44 33
-0.33933002 0.059193406 -0.91211319 76 50 40
-0.33921272 0.058981624 -0.91215461 76 53 41
-0.33916873 0.05792769 -0.9128322 61 62 37
-0.33886006 0.059812192 -0.91128218 97 47 48
-0.3409338 0.059046954 -0.91366822 48 39 28
-0.34169364 0.059166163 -0.91430563 44 29 25
-0.33990934 0.058072001 -0.91343123 57 54 34
-0.34013736 0.058032285 -0.91368985 56 52 34
-0.33930874 0.057196807 -0.91365558 67 72 43
-0.33943847 0.057419293 -0.91355532 64 66 40
-0.33514169 0.057549395 -0.9113816 79 63 39
-0.33498377 0.057531402 -0.91133541 78 61 38
-0.33431521 0.057427596 -0.91114902 76 53 34
-0.33650902 0.058556411 -0.91111273 96 66 50
-0.33535349 0.058985904 -0.91067386 98 63 49
-0.3358039 0.058700293 -0.91092521 95 65 49
-0.33733344 0.059527226 -0.9105581 114 56 57
-0.33727661 0.057662282 -0.91181797 85 73 48
-0.33389443 0.058631707 -0.91069448 87 61 42
-0.33371654 0.057554469 -0.91115576 74 48 31
-0.33314031 0.059254952 -0.91093212 84 58 42
-0.33203208 0.059264392 -0.91156405 68 44 31
-0.33194774 0.059474785 -0.91154385 69 46 33
-0.33355522 0.057080984 -0.9114024 66 41 25
-0.33253828 0.05791162 -0.91170126 61 38 24
-0.33284217 0.057515662 -0.91164911 62 38 24
-0.33282891 0.057589054 -0.91163737 62 38 24
-0.33174968 0.05799051 -0.91207349 53 32 22
-0.330722 0.059179645 -0.91228729 51 31 23
-0.33380547 0.056766998 -0.91135728 66 41 24
-0.36469027 0.053835478 -0.91439366 44 38 36
-0.36421877 0.055702761 -0.91435874 103 90 86
-0.3647193 0.053487182 -0.9142319 38 33 31
-0.36416522 0.054323379 -0.91323709 98 86 80
-0.36392775 0.053956382 -0.91230136 119 104 96
-0.3641715 0.053464323 -0.91265178 91 80 74
-0.36287719 0.055379193 -0.91111803 119 101 97
-0.3634738 0.055135339 -0.91214824 128 111 105
-0.36234754 0.05649237 -0.91090852 106 89 89
-0.36378455 0.056199256 -0.91362131 127 112 106
-0.36355144 0.053531464 -0.91104603 136 119 110
-0.36332655 0.0554193 -0.91206986 125 108 103
-0.33906347 0.056460176 -0.91428781 72 87 48
-0.33806071 0.055974133 -0.91385162 66 84 41
-0.36532974 0.051745936 -0.91241479 40 36 34
-0.36582997 0.050655738 -0.91150469 32 28 27
-0.36571589 0.051060777 -0.91224492 22 19 18
-0.3654733 0.051760286 -0.91326803 12 11 11
-0.36656085 0.049335562 -0.91115612 0 0 0
-0.36599368 0.050705653 -0.91274065 0 0 0
-0.3666645 0.049362037 -0.91378969 0 0 0
-0.36670488 0.049208298 -0.91308284 0 0 0
-0.36645567 0.049712609 -0.91274804 0 0 0
-0.3656294 0.051572654 -0.91362149 0 0 0
-0.36456725 0.052119944 -0.91121918 94 83 77
-0.36412996 0.052450553 -0.91107744 112 98 90
-0.36476147 0.051789284 -0.91065621 100 89 83
-0.3665522 0.045938987 -0.91192508 6 5 5
-0.36695457 0.045121301 -0.91344458 51 43 40
-0.36710519 0.045708235 -0.91426963 55 47 44
-0.36675039 0.046675563 -0.9130004 13 11 10
-0.36691153 0.046024825 -0.91351622 35 30 28
-0.36716655 0.044945151 -0.9143182 71 60 56
-0.36655113 0.04687731 -0.91087312 0 0 0
-0.36673391 0.048133891 -0.91161209 0 0 0
-0.36653471 0.046796948 -0.91071808 0 0 0
-0.36679265 0.047921721 -0.91352254 0 0 0
-0.36671919 0.047900785 -0.91191059 0 0 0
-0.36698702 0.04157754 -0.91195738 88 76 73
-0.36715037 0.043189183 -0.91353583 78 67 64
-0.36712405 0.042223778 -0.91302967 80 70 66
-0.36708474 0.042359516 -0.91283667 82 71 68
-0.36717883 0.041319106 -0.91304308 79 69 65
-0.36694041 0.042277176 -0.91192091 89 77 74
-0.36711711 0.044604439 -0.91392338 71 61 57
-0.36685807 0.0438543 -0.91238642 61 52 50
-0.36710852 0.044350412 -0.91374791 74 64 60
-0.36687565 0.042447999 -0.91169876 83 72 69
-0.36693978 0.043258823 -0.91241902 77 66 63
-0.36917159 0.037946019 -0.91255188 53 43 41
-0.36960909 0.037601061 -0.9133451 80 64 62
-0.36948216 0.037395902 -0.91206801 43 34 33
-0.36948457 0.037587918 -0.91273475 61 49 48
-0.3684195 0.039439715 -0.9138276 95 79 76
-0.3683379 0.039404489 -0.91317594 101 83 81
-0.36819193 0.039818414 -0.91404587 88 74 70
-0.36793798 0.040127758 -0.91380656 85 73 69
-0.36880404 0.038671229 -0.91311502 82 67 65
-0.36867419 0.038641054 -0.91233718 67 55 53
-0.36865869 0.03863262 -0.91222799 64 53 51
-0.36764592 0.039858241 -0.91109377 76 65 64
-0.3685911 0.038453102 -0.9112702 42 35 34
-0.36753491 0.039878279 -0.91058362 67 58 57
-0.37299067 0.033654504 -0.91411495 0 0 0
-0.37131712 0.034295071 -0.91298729 23 19 18
-0.37024012 0.035197832 -0.91270262 59 48 46
-0.37173599 0.035195667 -0.91425616 48 39 38
-0.37208509 0.034779556 -0.91423416 33 26 25
-0.37114707 0.03570288 -0.91411299 68 55 53
-0.37157431 0.034626231 -0.91356117 32 25 25
-0.37031037 0.034814686 -0.91242117 47 38 36
-0.37185618 0.034833167 -0.91404575 36 29 28
-0.37004146 0.03513531 -0.91229969 53 43 41
-0.37015581 0.036973353 -0.91405654 106 86 83
-0.36993432 0.033501901 -0.91071349 5 4 3
-0.36982435 0.034856621 -0.91112602 17 14 13
-0.3699294 0.035757739 -0.91220987 50 40 39
-0.36966929 0.03649183 -0.91152269 29 23 23
-0.37339139 0.029935028 -0.91099256 0 0 0
-0.37315005 0.032510329 -0.91317171 0 0 0
-0.37387264 0.0323417 -0.91402775 0 0 0
-0.37377658 0.032228708 -0.91364324 0 0 0
-0.37389213 0.029704228 -0.91191471 0 0 0
-0.37399587 0.031182334 -0.91344696 0 0 0
-0.37386146 0.032782707 -0.91435713 0 0 0
-0.37377849 0.030345283 -0.91209787 0 0 0
-0.37131977 0.032986727 -0.91175359 0 0 0
-0.37208888 0.032553993 -0.9121359 0 0 0
-0.37161154 0.031892601 -0.91103077 0 0 0
-0.37253645 0.032483462 -0.91252762 0 0 0
-0.37230963 0.030792508 -0.91071767 0 0 0
-0.37236086 0.030573525 -0.91056567 0 0 0
-0.37100521 0.032225706 -0.91072178 0 0 0
