ply
format ascii 1.0
comment PCL generated
element vertex 1060
property float x
property float y
property float z
property uchar red
property uchar green
property uchar blue
element camera 0
property float view_px
property float view_py
property float view_pz
property float x_axisx
property float x_axisy
property float x_axisz
property float y_axisx
property float y_axisy
property float y_axisz
property float z_axisx
property float z_axisy
property float z_axisz
property float focal
property float scalex
property float scaley
property float centerx
property float centery
property int viewportx
property int viewporty
property float k1
property float k2
end_header
-0.023978934 0.22359817 -0.8676343 75 59 60
-0.02360153 0.21789244 -0.87135535 33 19 21
-0.02358377 0.21748506 -0.87148255 30 17 19
-0.023505913 0.2170153 -0.86982185 33 22 20
-0.0235627 0.21745665 -0.87086678 32 20 20
-0.02353256 0.21803537 -0.86894196 43 29 27
-0.023590988 0.21842682 -0.87012261 41 26 26
-0.023748385 0.21991012 -0.86919886 51 32 35
-0.023738915 0.21977571 -0.86901498 50 32 35
-0.023640472 0.21869229 -0.86808276 47 32 32
-0.023708751 0.21983398 -0.86994731 49 31 33
-0.023748809 0.21970324 -0.86854261 51 33 35
-0.024194805 0.21357569 -0.86894912 43 32 27
-0.023914585 0.21426564 -0.87011015 37 25 23
-0.023685711 0.21300037 -0.87122619 35 22 20
-0.023803147 0.2137955 -0.87064016 36 24 21
-0.023622716 0.21447092 -0.8713665 31 19 18
-0.024031108 0.21482106 -0.869205 39 28 25
-0.023602694 0.2163552 -0.86931926 34 24 21
-0.023556123 0.21675582 -0.87140608 26 15 16
-0.023578681 0.21632032 -0.86825347 38 28 24
-0.023598006 0.21656325 -0.87101722 28 17 17
-0.024663663 0.21049266 -0.87034822 38 22 23
-0.025085919 0.20962934 -0.87073606 41 23 26
-0.024668185 0.21042486 -0.86992043 36 21 21
-0.023737114 0.21263435 -0.87132072 35 21 20
-0.024090976 0.21176471 -0.87056804 35 21 20
-0.024681194 0.21133204 -0.86804271 41 29 25
-0.024060637 0.21234646 -0.87000185 38 25 22
-0.024164172 0.21179207 -0.86996055 36 22 21
-0.024600601 0.21096615 -0.86866605 37 24 22
-0.023850448 0.21255523 -0.87076539 36 23 21
-0.025557263 0.2085508 -0.87019658 41 22 26
-0.025522865 0.20866162 -0.87053114 42 23 27
-0.025934275 0.20766088 -0.86943513 39 20 24
-0.026189556 0.20711958 -0.86943477 39 20 24
-0.026319493 0.20669419 -0.87000942 38 20 24
-0.02626848 0.20673993 -0.87050265 38 20 24
-0.017728779 0.27348992 -0.8776952 87 68 72
-0.017831083 0.27294922 -0.87635863 86 68 72
-0.01762658 0.27407828 -0.8784228 88 69 72
-0.017771265 0.27338299 -0.87565804 88 71 74
-0.01789465 0.2725153 -0.87676275 84 65 70
-0.017956823 0.27219501 -0.87835616 79 57 68
-0.017921705 0.27238995 -0.87835091 80 58 69
-0.018047895 0.27164966 -0.87621117 81 61 69
-0.017956991 0.27217245 -0.87718415 82 61 69
-0.018681189 0.26766399 -0.87602907 78 58 67
-0.018418752 0.26879802 -0.87877423 78 58 66
-0.018194092 0.27075446 -0.87882084 74 50 66
-0.018422162 0.26890889 -0.87844503 77 57 66
-0.018542117 0.26844871 -0.87705433 77 56 67
-0.018210575 0.27072108 -0.8781566 75 51 67
-0.018430846 0.26936874 -0.87703443 76 54 67
-0.018344248 0.26986948 -0.87593639 79 59 68
-0.018549193 0.2686328 -0.87596625 78 57 68
-0.018300265 0.27015507 -0.87693453 77 55 68
-0.018205514 0.27075142 -0.87814623 75 51 67
-0.018730374 0.26565948 -0.87894464 80 61 64
-0.018808326 0.26512384 -0.87845963 81 62 65
-0.018839734 0.2643986 -0.87907302 78 59 63
-0.018911567 0.26395151 -0.87855232 80 59 64
-0.01901122 0.26419541 -0.87645781 88 67 69
-0.01907265 0.26377353 -0.87607527 89 67 70
-0.018792724 0.26635939 -0.87650257 83 63 68
-0.018830165 0.26564491 -0.87723708 86 66 68
-0.018793305 0.26656815 -0.87605107 82 62 68
-0.018847208 0.26605895 -0.87601501 83 63 69
-0.018746441 0.26725054 -0.87557793 79 59 68
-0.019067161 0.26247773 -0.87883544 80 59 65
-0.019466642 0.25978431 -0.87595391 87 69 72
-0.019368621 0.26045406 -0.87640005 85 67 70
-0.019413555 0.26015398 -0.87599105 86 69 71
-0.019365765 0.26042685 -0.87778753 87 65 72
-0.019057922 0.26262313 -0.87809891 80 61 65
-0.019174509 0.26283741 -0.87577266 89 68 71
-0.019097982 0.26286453 -0.877042 84 64 67
-0.019101124 0.26295647 -0.87684703 85 65 68
-0.019057104 0.26361421 -0.8765915 87 66 68
-0.019864498 0.25756863 -0.87715852 92 68 75
-0.020184349 0.25586236 -0.87551075 93 72 74
-0.019999012 0.25685522 -0.87650013 92 70 74
-0.019939845 0.25739068 -0.87862688 83 58 68
-0.019705579 0.25855419 -0.87911934 86 60 71
-0.019561272 0.25922662 -0.8771894 90 68 74
-0.019467924 0.25974262 -0.87710345 89 67 73
-0.019861698 0.25760469 -0.87602186 91 70 74
-0.019821517 0.25782356 -0.87610537 91 70 74
-0.01990081 0.25740302 -0.87551457 91 71 73
-0.02082542 0.25232407 -0.87620932 77 53 64
-0.020635067 0.25262517 -0.87807095 69 44 56
-0.020632653 0.25213617 -0.87850481 66 40 52
-0.020497931 0.25412804 -0.87834173 71 48 59
-0.020670384 0.25344247 -0.87699878 76 52 64
-0.020381922 0.2550177 -0.87693238 81 59 67
-0.020290395 0.25561169 -0.87778258 79 57 65
-0.020230288 0.25582674 -0.87703681 84 62 68
-0.020370854 0.25524178 -0.87816948 75 53 63
-0.020608092 0.25364485 -0.87553859 85 62 70
-0.02085622 0.24946968 -0.87825173 63 42 41
-0.020805072 0.2490374 -0.87859666 61 38 37
-0.020888088 0.2517719 -0.87609035 76 52 63
-0.02086688 0.25128722 -0.87704164 71 49 56
-0.021778451 0.24565697 -0.87787819 63 43 47
-0.022069648 0.24444237 -0.87852812 64 43 55
-0.022162456 0.24464028 -0.87746108 71 53 58
-0.021771749 0.24511823 -0.87903899 57 33 46
-0.022266189 0.24080011 -0.87872529 64 46 44
-0.022466836 0.24056908 -0.87774324 66 51 44
-0.022704093 0.24104546 -0.87647021 68 54 48
-0.022684781 0.24103346 -0.87656987 68 54 48
-0.022364685 0.24067394 -0.87824512 65 49 44
-0.0223883 0.24033189 -0.87817645 65 50 43
-0.022536099 0.24320363 -0.87654525 76 61 62
-0.022803977 0.24164546 -0.87556505 76 65 56
-0.022128986 0.24413782 -0.87879872 63 42 57
-0.022791015 0.24110146 -0.87594247 70 58 51
-0.022558387 0.24387364 -0.87603766 83 70 69
-0.022351703 0.23808831 -0.87800324 63 42 43
-0.022537554 0.23701881 -0.87655628 64 41 46
-0.022459313 0.23678574 -0.87724054 62 40 45
-0.022347549 0.23655881 -0.87820637 59 38 44
-0.022240801 0.23690549 -0.87906688 58 37 42
-0.022596894 0.23755376 -0.87624437 66 44 46
-0.022637071 0.23836601 -0.87631053 66 48 46
-0.022506936 0.23996982 -0.87750232 66 51 44
-0.022383653 0.24020773 -0.8782059 65 50 42
-0.022686481 0.23707512 -0.87563151 66 44 47
-0.022381419 0.23376456 -0.87801552 55 33 40
-0.022197267 0.23280683 -0.87894505 51 25 34
-0.022345498 0.23467498 -0.87834918 56 34 41
-0.022183854 0.23247439 -0.87897629 50 23 33
-0.022365505 0.23350978 -0.87807196 55 31 39
-0.022373086 0.23607199 -0.87808239 59 37 44
-0.022753233 0.23287648 -0.87570179 59 40 45
-0.022628183 0.23541726 -0.87610286 62 40 46
-0.022480901 0.23520099 -0.87739819 59 38 44
-0.022593647 0.23615262 -0.87620497 63 40 46
-0.022532405 0.23499651 -0.87701702 60 39 45
-0.022625348 0.22954151 -0.87754112 44 22 27
-0.022324095 0.2311409 -0.87806386 48 22 30
-0.022582214 0.22991641 -0.87816995 45 22 27
-0.022676105 0.22973162 -0.87919813 44 20 25
-0.022759683 0.22922063 -0.87879777 43 20 25
-0.02228838 0.23173016 -0.8782801 49 24 32
-0.022623081 0.23160781 -0.87633383 54 33 38
-0.022218363 0.23198268 -0.87871534 49 23 31
-0.022390651 0.23168255 -0.87768412 51 26 34
-0.022246892 0.23200873 -0.87855405 50 23 32
-0.022503104 0.23067331 -0.87691009 48 26 32
-0.023093648 0.22741656 -0.87828594 46 25 26
-0.023608685 0.22466938 -0.87730974 62 43 38
-0.023390254 0.22619756 -0.8788023 56 35 33
-0.023629105 0.2246681 -0.87759078 63 44 38
-0.023077492 0.2277988 -0.87919605 46 25 26
-0.023366468 0.22586989 -0.87749714 55 35 32
-0.023089381 0.226891 -0.87634206 49 29 29
-0.022869609 0.22840609 -0.87775159 43 22 24
-0.022801301 0.22819611 -0.87573647 44 25 27
-0.023198543 0.22619432 -0.87584335 52 32 31
-0.022825394 0.22846138 -0.87713605 43 22 25
-0.023597388 0.22201371 -0.87846744 73 53 52
-0.02378512 0.22158118 -0.8764376 71 50 50
-0.023808654 0.22098652 -0.87570584 71 49 52
-0.023807099 0.22087952 -0.87562501 71 50 52
-0.023527678 0.22082722 -0.87803149 76 55 57
-0.023792082 0.22139056 -0.87587255 70 49 50
-0.023505157 0.22458906 -0.87566245 58 39 35
-0.023698127 0.22220889 -0.87553221 66 46 46
-0.023762757 0.2215542 -0.87565756 69 48 49
-0.023639593 0.22415218 -0.87701988 63 44 40
-0.021576392 0.21735887 -0.87803471 52 39 28
-0.022004656 0.21875265 -0.8792221 68 51 42
-0.022609131 0.21895128 -0.87827492 62 46 42
-0.022652514 0.21920918 -0.87856138 65 49 45
-0.022903286 0.21939075 -0.87832761 64 47 46
-0.02232475 0.21693252 -0.87592328 31 21 18
-0.023644831 0.22031456 -0.87574035 68 47 49
-0.022733269 0.2175303 -0.87547636 34 23 23
-0.023405513 0.21988349 -0.87656134 64 45 47
-0.023050066 0.21862575 -0.87594759 48 33 34
-0.022991864 0.21844605 -0.875925 46 32 32
-0.022806609 0.21779184 -0.8756091 38 25 25
-0.02095985 0.21734616 -0.8778947 49 37 26
-0.021303348 0.21699965 -0.87758386 46 34 24
-0.020988649 0.21702363 -0.87743205 44 32 23
-0.020407975 0.22053625 -0.87919092 38 27 21
-0.020609464 0.21876293 -0.87868601 49 36 27
-0.020281577 0.21870928 -0.87833297 44 32 24
-0.021202208 0.2181689 -0.87904799 61 46 33
-0.020285876 0.22037277 -0.87900209 36 26 21
-0.019838559 0.2179157 -0.87756783 40 29 21
-0.019504219 0.21951157 -0.87555832 18 10 8
-0.01981272 0.22013344 -0.87552333 18 9 7
-0.01941683 0.21903589 -0.87719274 27 18 14
-0.019450966 0.21940055 -0.87558424 18 10 8
-0.019880183 0.22003433 -0.87679088 24 15 12
-0.019926306 0.22035132 -0.87557065 18 9 7
-0.021985253 0.21615197 -0.87615186 29 20 16
-0.02237135 0.2167114 -0.87560272 27 18 16
-0.021845354 0.21585628 -0.87631524 30 20 16
-0.022195481 0.21309151 -0.87550038 16 8 10
-0.025691852 0.20657109 -0.87643188 40 22 25
-0.02540862 0.20642631 -0.87700367 42 23 26
-0.025811754 0.20473734 -0.87751186 42 21 27
-0.012676957 0.29145333 -0.85701376 89 76 75
-0.013870952 0.28064939 -0.85603893 85 70 70
-0.013983074 0.28012028 -0.85616362 85 70 72
-0.013888177 0.2808156 -0.85617799 86 71 71
-0.015036418 0.27695 -0.85799217 82 72 73
-0.014473114 0.27811804 -0.85676783 81 69 72
-0.014467809 0.27851233 -0.85699022 82 70 72
-0.014617156 0.27827746 -0.85738266 82 70 72
-0.01410404 0.27896029 -0.85595816 82 68 72
-0.014259391 0.27920073 -0.85666329 83 70 73
-0.015561461 0.27239829 -0.85792154 83 72 71
-0.015258334 0.27159852 -0.8566063 79 66 66
-0.015041984 0.27317744 -0.85628372 78 66 67
-0.014848676 0.27404612 -0.85595018 75 63 66
-0.015028346 0.27452973 -0.85666531 78 68 69
-0.016255656 0.26797074 -0.85892004 79 66 68
-0.015704025 0.26867375 -0.85732639 74 61 66
-0.015979229 0.27059746 -0.85913616 80 70 70
-0.016283397 0.26768458 -0.85888833 79 65 68
-0.015978742 0.26839039 -0.85814983 77 64 67
-0.016191037 0.26984328 -0.85953206 81 71 70
-0.015385778 0.26857579 -0.85607183 72 57 63
-0.01548255 0.26834884 -0.85638058 72 58 64
-0.015444892 0.27122337 -0.85725063 79 66 67
-0.015728777 0.271328 -0.85843009 80 70 69
-0.01539885 0.26857325 -0.85612357 72 57 63
-0.016632171 0.26525229 -0.85883236 76 59 63
-0.016924132 0.26498166 -0.85951102 75 58 62
-0.016571941 0.26378679 -0.8579337 72 53 59
-0.016177053 0.26441965 -0.85714883 73 55 61
-0.016566405 0.26551437 -0.85877979 76 60 64
-0.01678616 0.26621991 -0.85974407 78 63 66
-0.015847987 0.26562631 -0.85659766 73 56 62
-0.016033487 0.26733574 -0.85788512 76 62 66
-0.015924836 0.2667636 -0.85729319 74 59 64
-0.016302768 0.26704794 -0.85870743 79 64 67
-0.015798107 0.26718822 -0.85701555 73 58 64
-0.016163964 0.26754722 -0.8584162 77 64 67
-0.017776139 0.26075351 -0.85956436 67 47 58
-0.017188286 0.26281729 -0.8591603 68 50 56
-0.016883267 0.26317433 -0.85854483 69 51 57
-0.01681532 0.26307973 -0.85831761 68 50 56
-0.016521173 0.26353315 -0.85767937 71 52 58
-0.018819887 0.25230876 -0.85956287 85 73 76
-0.018308382 0.25450185 -0.8587209 75 57 60
-0.018386474 0.25398487 -0.85866559 76 59 62
-0.018623579 0.2534757 -0.85956806 81 67 70
-0.018713742 0.25300393 -0.85963047 83 69 73
-0.018521674 0.25232601 -0.85779876 77 63 66
-0.018869486 0.2492868 -0.85776091 82 67 78
-0.019189531 0.25018963 -0.85956079 91 76 82
-0.019258576 0.24815215 -0.85840732 90 72 83
-0.018989936 0.25054729 -0.85907423 87 73 80
-0.019269044 0.24940658 -0.85931218 92 76 83
-0.019007329 0.25139582 -0.85972422 88 76 81
-0.018526679 0.25134635 -0.85715055 76 61 67
-0.018447628 0.25077948 -0.85639656 74 57 66
-0.018732315 0.25193042 -0.8586694 82 69 73
-0.018357413 0.25157112 -0.85625112 72 56 61
-0.01864155 0.25046501 -0.85739875 78 63 73
-0.019535769 0.24787116 -0.85922194 95 77 85
-0.025183396 0.21067403 -0.85916483 52 30 38
-0.017327515 0.26809752 -0.86245626 91 72 76
-0.01746748 0.26810715 -0.86288214 93 72 78
-0.017297458 0.27000195 -0.86364388 92 74 80
-0.017100457 0.26829442 -0.86191154 88 71 75
-0.016644761 0.2682336 -0.86048621 83 70 72
-0.017910499 0.26633847 -0.86366516 89 68 75
-0.017923376 0.26490247 -0.86299932 79 62 69
-0.018039789 0.26435328 -0.86325419 75 60 68
-0.017599862 0.2667731 -0.86248785 90 68 74
-0.017866151 0.26553479 -0.86308116 82 64 71
-0.017477294 0.2640669 -0.8605758 73 55 60
-0.016822493 0.26628914 -0.85988832 79 64 66
-0.017108593 0.2661376 -0.86066371 82 64 68
-0.01715182 0.26737896 -0.8614583 88 69 73
-0.017258346 0.26657885 -0.86134857 86 66 71
-0.017901421 0.26035964 -0.85981047 68 48 60
-0.018148763 0.26327479 -0.86311185 71 57 65
-0.018039754 0.26185331 -0.86155784 70 53 63
-0.01777895 0.26198259 -0.86037666 69 51 60
-0.017896073 0.26076856 -0.86007643 68 49 60
-0.01791333 0.26244876 -0.86136812 70 53 62
-0.01823142 0.26009277 -0.86151457 73 56 65
-0.018041149 0.25993615 -0.86025006 69 50 62
-0.018140409 0.26084498 -0.86144561 71 54 64
-0.018384695 0.26049015 -0.86270893 76 61 67
-0.0181948 0.25991985 -0.8611787 72 54 64
-0.018651737 0.25836492 -0.86306524 82 67 69
-0.018664228 0.2587074 -0.86331302 82 67 70
-0.018424636 0.25705916 -0.8612498 78 60 63
-0.01868101 0.2575264 -0.8627491 83 67 69
-0.018633718 0.25847125 -0.86303592 82 67 69
-0.018597521 0.25962698 -0.8634811 81 67 70
-0.018375073 0.25943175 -0.86203766 76 60 66
-0.01822608 0.25853115 -0.86074084 74 55 62
-0.018202415 0.25947729 -0.86100179 73 54 64
-0.018243644 0.25700355 -0.86019337 75 55 60
-0.019543201 0.25270045 -0.86345005 96 80 90
-0.019064182 0.25471163 -0.86275792 89 75 77
-0.019355552 0.25407195 -0.86365682 94 78 84
-0.01904165 0.25335571 -0.86153769 89 75 79
-0.019234581 0.25250119 -0.86178005 91 78 84
-0.018906949 0.25227854 -0.8599987 86 75 79
-0.018471757 0.2557098 -0.86070031 79 61 63
-0.018402433 0.25507322 -0.859842 78 60 63
-0.018793903 0.25424471 -0.86106223 85 70 72
-0.018980982 0.25383189 -0.86163151 88 74 77
-0.01890715 0.25541785 -0.86257356 87 71 72
-0.020001626 0.2495167 -0.86339414 90 72 82
-0.019934798 0.24859726 -0.86213797 92 73 82
-0.019798435 0.25112087 -0.86348647 96 79 91
-0.019960456 0.24837086 -0.86210513 91 72 81
-0.020010276 0.24902672 -0.86301529 90 71 81
-0.019379495 0.25110528 -0.86126095 94 79 87
-0.019565471 0.25138599 -0.86242658 96 81 91
-0.019123083 0.25123489 -0.86012799 90 77 82
-0.019421574 0.25037658 -0.86079788 95 79 87
-0.019600345 0.25112438 -0.86235684 97 81 91
-0.020051287 0.24760333 -0.86198252 87 68 77
-0.019955019 0.24691918 -0.86068594 89 70 78
-0.019790428 0.24750373 -0.86017329 94 76 83
-0.023036906 0.23266211 -0.86271697 59 44 50
-0.022983506 0.23298858 -0.86303347 60 45 51
-0.023186933 0.22934157 -0.86356801 64 47 49
-0.023190172 0.22882077 -0.86305791 67 50 51
-0.023116365 0.23143268 -0.8635903 59 42 47
-0.023127859 0.22995198 -0.86222064 67 49 54
-0.02307317 0.23220275 -0.86169297 61 47 52
-0.023077386 0.23240793 -0.86262143 58 44 49
-0.02366164 0.21785958 -0.8621701 44 27 31
-0.02371135 0.21861993 -0.86262971 45 30 32
-0.023903266 0.21836695 -0.8616901 47 31 35
-0.023695108 0.21817496 -0.86231226 45 28 31
-0.02351019 0.21865454 -0.86341834 43 28 28
-0.023605447 0.21819684 -0.86266923 44 27 30
-0.023991471 0.21768548 -0.86011195 50 32 40
-0.024014307 0.2174615 -0.86012179 49 31 39
-0.023866121 0.22059324 -0.86284107 52 40 39
-0.02550957 0.21317257 -0.86358094 49 35 30
-0.024082562 0.21481936 -0.86217052 45 29 30
-0.024034277 0.21499419 -0.86250931 43 27 29
-0.024727024 0.21365824 -0.86139345 50 35 36
-0.024995526 0.21319462 -0.86113399 52 38 38
-0.024613876 0.21448193 -0.86350971 43 27 26
-0.024503876 0.21397541 -0.86040163 51 36 39
-0.023746595 0.21663025 -0.86108178 44 25 32
-0.024385791 0.21522911 -0.85981888 51 33 40
-0.0241755 0.21515658 -0.860672 48 31 36
-0.023818422 0.21677232 -0.86069417 45 25 33
-0.024275972 0.21470864 -0.86066025 49 33 37
-0.025398996 0.21258748 -0.86224872 50 36 34
-0.025180534 0.21026893 -0.86320758 39 26 25
-0.02503323 0.2107894 -0.86209124 43 30 30
-0.025186254 0.21133666 -0.86231053 45 32 31
-0.025110791 0.21118294 -0.86210465 45 32 31
-0.02519488 0.20911703 -0.86212742 38 21 24
-0.025147241 0.21100505 -0.86009121 49 31 35
-0.025170086 0.21004647 -0.86115158 43 26 30
-0.025018681 0.21125986 -0.86091954 48 33 35
-0.025072064 0.20957747 -0.86266017 38 24 25
-0.025130579 0.20967877 -0.86199588 40 24 27
-0.017709833 0.26607543 -0.88447845 87 64 65
-0.018454382 0.26368156 -0.88434768 82 60 64
-0.018115742 0.26581061 -0.8837468 86 63 67
-0.018648071 0.26404732 -0.8836596 82 60 66
-0.018217063 0.26505205 -0.88400578 84 62 66
-0.018461889 0.26444113 -0.88383532 83 61 66
-0.017836941 0.26345387 -0.88585073 83 62 60
-0.017710941 0.26266995 -0.88636976 85 62 59
-0.017752884 0.26159865 -0.8865819 87 61 60
-0.018001737 0.26132157 -0.88614768 88 61 62
-0.018045601 0.26083291 -0.88624454 89 61 62
-0.018456833 0.26116568 -0.88494051 83 57 62
-0.018841358 0.26075512 -0.88361096 75 49 57
-0.018567756 0.26109126 -0.88455647 81 55 60
-0.018669257 0.26202178 -0.88419449 81 57 63
-0.01798279 0.25983536 -0.886599 89 59 60
-0.01866531 0.26090205 -0.88422012 78 53 59
-0.01871684 0.25744158 -0.88584083 79 55 56
-0.018413924 0.25826874 -0.88619077 83 57 58
-0.018891541 0.25661364 -0.88672686 76 53 54
-0.019134374 0.25643384 -0.88494802 72 52 54
-0.018944096 0.25637123 -0.88697273 76 53 53
-0.018853916 0.2570121 -0.88585359 77 54 55
-0.019188248 0.25754681 -0.88348019 69 48 53
-0.019285703 0.25685674 -0.88347238 69 49 53
-0.019382201 0.25627023 -0.88341838 68 50 53
-0.018614437 0.25829586 -0.88511223 79 55 57
-0.01880794 0.25864089 -0.88427591 75 50 55
-0.019227069 0.25266775 -0.88602638 67 45 45
-0.019529698 0.25259116 -0.8847782 65 46 43
-0.019636139 0.25247875 -0.88432461 65 46 43
-0.019230906 0.25314164 -0.88609147 68 46 46
-0.019254563 0.25334674 -0.88602984 68 46 46
-0.019625865 0.25372636 -0.88403982 66 48 46
-0.019672038 0.25360033 -0.88371605 65 48 45
-0.019227995 0.25577605 -0.88590872 71 51 52
-0.01914973 0.25561398 -0.88681656 73 51 51
-0.019701723 0.25357527 -0.88345444 65 48 45
-0.019699827 0.24988319 -0.88685799 60 31 36
-0.020224622 0.24836189 -0.88550299 54 26 31
-0.019962348 0.24916907 -0.88670051 57 28 33
-0.020221539 0.24837738 -0.88558376 54 26 30
-0.019698374 0.24981026 -0.88600558 59 33 36
-0.019767256 0.24961142 -0.88583708 58 32 36
-0.019596858 0.25089329 -0.88481176 61 40 40
-0.019678188 0.25149223 -0.88424444 62 43 41
-0.020015812 0.25037789 -0.8833043 59 39 37
-0.019832991 0.25055689 -0.8839801 60 39 38
-0.019184776 0.25169381 -0.88617915 65 41 43
-0.013907819 0.24979489 -0.88624865 17 7 6
-0.013769132 0.25016922 -0.88603723 19 8 7
-0.013980535 0.24979824 -0.88599789 18 8 7
-0.01397462 0.24984831 -0.88592714 18 8 7
-0.014500613 0.24915554 -0.88541222 17 8 7
-0.014761962 0.24985644 -0.88326299 26 10 14
-0.015233679 0.24844825 -0.88581115 19 8 9
-0.015205567 0.24849658 -0.88430154 18 8 9
-0.014770817 0.2488433 -0.88577139 17 8 7
-0.021534359 0.24418643 -0.88660157 48 30 38
-0.021000763 0.24550976 -0.8861739 48 24 33
-0.020673051 0.24543785 -0.88460517 42 17 30
-0.021103786 0.24527663 -0.88630062 48 25 34
-0.021087764 0.24543448 -0.88645512 48 25 33
-0.021031549 0.24459851 -0.88500595 43 21 33
-0.020348242 0.24792366 -0.88518971 53 24 29
-0.020371851 0.24800856 -0.88621628 53 23 28
-0.020343754 0.24760687 -0.88383293 51 26 31
-0.020608973 0.24578108 -0.88462687 44 18 30
-0.020407068 0.24711706 -0.88381398 49 24 31
-0.018707981 0.24107035 -0.88419312 27 14 17
-0.019567784 0.24242575 -0.88377738 30 14 23
-0.019276183 0.24135776 -0.88394904 33 17 21
-0.020107586 0.241723 -0.88359463 43 20 28
-0.020928707 0.24029085 -0.88333488 65 31 37
-0.018131575 0.24071831 -0.88469046 20 12 12
-0.020821052 0.24337348 -0.88427985 41 18 32
-0.021135932 0.24242204 -0.88591468 49 25 34
-0.019566197 0.24111024 -0.8858372 36 20 22
-0.020628182 0.24195582 -0.8859455 45 23 30
-0.020263251 0.2422661 -0.88510722 39 19 28
-0.019371739 0.24193135 -0.88451618 30 15 21
-0.018162094 0.24119096 -0.88571531 23 13 14
-0.018759657 0.24105513 -0.88573492 28 16 17
-0.017991802 0.24118741 -0.88567078 21 12 13
-0.017980926 0.24157435 -0.88602471 22 12 14
-0.019283157 0.24102178 -0.88583106 33 19 20
-0.021399995 0.24231949 -0.8865723 52 28 36
-0.02128909 0.2437831 -0.88558358 45 24 35
-0.021791637 0.23660518 -0.88420421 78 51 50
-0.021701271 0.23648036 -0.88450181 78 52 49
-0.02137747 0.23819116 -0.88386285 72 40 43
-0.021192197 0.23848446 -0.88331366 67 35 40
-0.020024478 0.23998947 -0.88348186 52 26 29
-0.019449929 0.24012113 -0.88383323 43 22 24
-0.018735373 0.23996311 -0.88397902 33 18 18
-0.021949481 0.23605298 -0.88338763 74 47 49
-0.021066036 0.23584713 -0.88326097 57 33 37
-0.021545727 0.21944234 -0.8856864 1 1 1
-0.024249451 0.22070152 -0.88664788 79 61 57
-0.023066537 0.21984057 -0.88674402 45 35 32
-0.022549419 0.22022918 -0.88551086 30 23 22
-0.022219867 0.22006762 -0.88540715 21 16 15
-0.010413769 0.29174051 -0.85185045 73 58 56
-0.010449747 0.29192147 -0.85195202 75 60 57
-0.0099702151 0.29288319 -0.85099071 71 57 51
-0.0094956765 0.29421976 -0.85028791 75 60 52
-0.0088921795 0.29418635 -0.84947062 70 56 50
-0.0089940578 0.29430342 -0.84962082 71 57 51
-0.010326027 0.28960872 -0.85140479 64 50 47
-0.010430944 0.28997308 -0.85167855 67 53 50
-0.010442461 0.2882345 -0.85146642 63 50 45
-0.010352455 0.28713676 -0.85100973 63 48 44
-0.010604015 0.28614861 -0.8512879 68 53 50
-0.01094886 0.28453487 -0.85157311 75 60 59
-0.010455492 0.28663126 -0.85109055 65 50 47
-0.010257078 0.28701288 -0.85073459 62 47 44
-0.010988234 0.28347942 -0.85138303 78 62 62
-0.010559944 0.28494403 -0.85077852 70 55 54
-0.010479328 0.28413376 -0.85046345 70 53 54
-0.010789212 0.28355765 -0.85099047 75 59 59
-0.010574464 0.28175738 -0.85004133 70 54 56
-0.010852713 0.28207335 -0.85070747 75 59 60
-0.010439872 0.2816135 -0.84972185 68 52 54
-0.010225381 0.28057259 -0.84896332 64 48 51
-0.011313413 0.28107324 -0.85125673 76 59 59
-0.011575297 0.28028578 -0.85148937 75 58 58
-0.011419862 0.27989575 -0.85105431 73 55 56
-0.011725138 0.27953422 -0.85151827 74 56 56
-0.010448085 0.28051347 -0.84939289 67 51 54
-0.010694968 0.28086102 -0.84998971 70 54 56
-0.012288629 0.27783981 -0.85193664 68 52 52
-0.011888216 0.27712843 -0.8509115 65 50 50
-0.012019618 0.27827388 -0.85160363 71 53 53
-0.011895084 0.27857932 -0.85149026 72 54 54
-0.011302625 0.27836758 -0.85027725 68 51 52
-0.011397903 0.2785331 -0.85052228 69 52 53
-0.011197981 0.27794948 -0.84992081 67 51 51
-0.017892018 0.27265474 -0.87518579 87 69 73
-0.017962158 0.2722598 -0.87447256 88 69 73
-0.018017972 0.27189967 -0.87457937 87 68 72
-0.018541539 0.26760036 -0.87290686 77 56 66
-0.018457793 0.26869839 -0.87428606 79 58 67
-0.018468661 0.26906267 -0.87528676 79 60 68
-0.018499646 0.26810542 -0.87349385 78 57 66
-0.018218614 0.27029362 -0.8746382 81 61 68
-0.018197261 0.27038902 -0.872545 87 66 71
-0.018095339 0.27127975 -0.87508947 83 63 69
-0.018315768 0.26909286 -0.87161529 84 62 69
-0.018108416 0.27127799 -0.87388676 87 67 72
-0.01887396 0.26596159 -0.8750596 83 63 69
-0.018746702 0.26719943 -0.87504745 78 59 68
-0.019026486 0.26372352 -0.87318748 88 71 72
-0.018965112 0.26419774 -0.87287468 86 70 72
-0.018869044 0.26527381 -0.87321973 82 66 70
-0.018822251 0.26517048 -0.87231284 82 66 70
-0.018954286 0.2637634 -0.87154597 85 72 72
-0.018717289 0.26723576 -0.8746869 78 59 68
-0.018627862 0.26656002 -0.87217069 79 60 67
-0.01870068 0.26650617 -0.87309366 79 61 68
-0.019312384 0.26091141 -0.87318677 90 72 71
-0.019261288 0.26211315 -0.87537575 90 70 71
-0.019217936 0.2623018 -0.87435263 91 71 71
-0.019450599 0.25982994 -0.87478471 87 71 71
-0.019292295 0.26167765 -0.87506568 89 70 71
-0.019035885 0.26355714 -0.87299454 88 71 72
-0.019081598 0.26363954 -0.8743214 90 70 72
-0.019067751 0.26362976 -0.87395829 89 71 72
-0.01928151 0.26116255 -0.87286955 91 72 71
-0.019070474 0.26361561 -0.87398863 89 71 72
-0.019851008 0.25617769 -0.87218708 81 63 69
-0.019988865 0.25617602 -0.87380099 87 68 72
-0.020017944 0.25592962 -0.87361676 87 67 72
-0.019651851 0.25794777 -0.87362444 83 66 70
-0.019855864 0.25591657 -0.87168729 80 62 69
-0.019634845 0.25770542 -0.87193829 84 67 70
-0.019587919 0.25839549 -0.87338895 85 68 70
-0.019450301 0.25924331 -0.87207782 88 71 70
-0.019786576 0.25650197 -0.87211227 81 63 69
-0.019414511 0.25957796 -0.87227708 89 72 71
-0.01947201 0.25925443 -0.87297028 88 71 71
-0.02080125 0.25252229 -0.87519711 81 58 68
-0.02025494 0.2552861 -0.87498075 91 70 73
-0.020319479 0.2546052 -0.87424308 88 67 70
-0.020593498 0.25353706 -0.87503678 85 62 70
-0.020187741 0.25475568 -0.87303239 84 64 69
-0.020383175 0.25387588 -0.87339091 85 64 67
-0.020000115 0.25571659 -0.87294388 85 65 70
-0.01996219 0.25576589 -0.87260735 83 65 70
-0.022607956 0.24419576 -0.87524033 89 77 73
-0.022898247 0.24027659 -0.87319225 71 58 56
-0.022664757 0.24366726 -0.8750791 87 75 71
-0.022829907 0.24162425 -0.87530756 77 66 57
-0.022823799 0.24160002 -0.87486005 77 66 58
-0.022714546 0.24298996 -0.87487787 84 72 68
-0.022862354 0.23664637 -0.87266153 51 31 38
-0.022722797 0.23665261 -0.87510282 64 42 46
-0.022802548 0.23695436 -0.87405676 59 39 43
-0.022915704 0.23732775 -0.87250996 51 34 37
-0.022781726 0.23723276 -0.87473816 63 43 45
-0.022914145 0.23822039 -0.87279874 57 41 42
-0.022909142 0.23954426 -0.87323827 66 53 50
-0.0229013 0.24009864 -0.87310159 70 57 55
-0.022912594 0.23803237 -0.87261003 55 40 42
-0.02291872 0.23884843 -0.87339503 61 47 45
-0.02272263 0.23535773 -0.87522334 64 42 47
-0.022779984 0.234102 -0.87482643 63 42 47
-0.022882767 0.23275073 -0.87354594 64 45 48
-0.022738978 0.23485644 -0.87520093 64 42 47
-0.022844169 0.23252428 -0.87449145 61 43 46
-0.02296509 0.2331177 -0.87169552 64 47 47
-0.022825737 0.23572142 -0.87316108 57 36 42
-0.022840889 0.23481099 -0.87323421 63 42 46
-0.022753725 0.23546033 -0.87451392 66 43 48
-0.022808401 0.23504442 -0.87371433 64 43 47
-0.022779463 0.23602873 -0.87385428 59 37 43
-0.022851588 0.2293469 -0.87444162 51 34 35
-0.022804759 0.23233497 -0.87536901 59 40 45
-0.022863161 0.23074026 -0.87459517 56 38 41
-0.02294822 0.22919054 -0.87360686 54 38 39
-0.022789104 0.22947325 -0.87498593 49 31 33
-0.023038497 0.23141138 -0.87157154 66 50 49
-0.022948273 0.23144552 -0.87341106 62 45 47
-0.022969771 0.23135093 -0.87306291 63 46 47
-0.023064356 0.22991177 -0.87259793 61 46 46
-0.02300128 0.23220438 -0.87151808 67 50 49
-0.02325487 0.22646329 -0.8737303 50 32 31
-0.023547834 0.22474258 -0.87427175 56 38 35
-0.022862408 0.22795507 -0.87498385 45 27 28
-0.023481136 0.22496104 -0.87457007 56 37 34
-0.023456516 0.22554946 -0.87344474 53 35 33
-0.023182167 0.22807781 -0.87210381 58 44 42
-0.023279896 0.22726186 -0.87235153 55 40 39
-0.023054697 0.22818443 -0.87302899 54 38 38
-0.023061508 0.22847657 -0.87259138 56 42 41
-0.023556015 0.22602594 -0.87165725 56 41 39
-0.023743287 0.22106621 -0.87266642 56 35 38
-0.0237491 0.22094455 -0.87237167 54 34 37
-0.023665929 0.22235252 -0.87474853 62 42 42
-0.023599312 0.22305444 -0.87429565 57 38 36
-0.023660952 0.22213444 -0.87321752 55 35 35
-0.023764344 0.22403303 -0.87182564 54 37 35
-0.023611445 0.22281107 -0.87356466 54 35 34
-0.023771143 0.22453293 -0.87180793 55 38 35
-0.023780631 0.22368705 -0.87157673 54 37 35
-0.0237407 0.22450186 -0.87218261 55 38 35
-0.0179966 0.22071797 -0.87331855 12 7 4
-0.017952163 0.22080015 -0.87337655 12 7 4
-0.017592506 0.22140348 -0.87376851 10 7 5
-0.023463357 0.21780366 -0.87305903 37 24 25
-0.023043418 0.21684304 -0.87341207 26 16 16
-0.023160581 0.2184848 -0.87503904 45 31 31
-0.023373723 0.21811901 -0.873788 41 27 28
-0.023488693 0.21937741 -0.87494159 56 38 40
-0.023598051 0.21908008 -0.87416202 52 35 37
-0.023674758 0.21906777 -0.87189126 42 26 28
-0.023686003 0.21904829 -0.87269145 46 30 32
-0.023626424 0.21828122 -0.87148452 35 21 22
-0.02375252 0.21997508 -0.8737936 58 39 41
-0.023720035 0.2194207 -0.87360996 54 36 38
-0.019207269 0.21939982 -0.87516534 17 9 7
-0.018968755 0.21970485 -0.87477362 16 9 6
-0.018180678 0.21755973 -0.87506109 17 11 8
-0.018643711 0.21854761 -0.87502885 17 10 7
-0.019367225 0.22066993 -0.87468827 15 8 6
-0.017684136 0.21965791 -0.87354153 13 9 5
-0.023368988 0.21320499 -0.87232882 31 19 18
-0.022466665 0.21413632 -0.8752467 20 12 12
-0.023426728 0.21312825 -0.87214059 32 20 18
-0.02248238 0.21312007 -0.87510818 18 10 11
-0.022718774 0.21378182 -0.87442315 23 14 14
-0.023529219 0.21420076 -0.87175244 31 19 18
-0.0228863 0.21668725 -0.87394631 26 16 16
-0.022966076 0.21596874 -0.8737061 27 17 16
-0.023240682 0.21529594 -0.87273866 29 18 17
-0.023156956 0.21587481 -0.87300444 28 17 16
-0.025155978 0.20951009 -0.87171435 43 24 27
-0.02496491 0.20925802 -0.87452298 37 23 20
-0.024172081 0.21162486 -0.87183249 37 22 22
-0.024523092 0.21075211 -0.87228662 38 23 23
-0.025140407 0.20953423 -0.87175137 43 24 27
-0.025260091 0.20921309 -0.87200534 43 24 27
-0.024169557 0.21151327 -0.87232518 36 22 21
-0.024227288 0.21110031 -0.87336349 35 22 19
-0.023201164 0.21171544 -0.87529713 23 13 13
-0.023552904 0.21166146 -0.87430495 27 17 16
-0.024745349 0.2095477 -0.87499523 35 22 18
-0.023969704 0.21102586 -0.87432945 30 19 17
-0.023625594 0.2114673 -0.87448412 28 17 16
-0.022758065 0.21276382 -0.87448859 21 12 13
-0.025794251 0.20804352 -0.87291449 42 23 27
-0.025610913 0.20803288 -0.87510711 37 21 22
-0.025525348 0.20858678 -0.87276727 42 24 27
-0.025614519 0.20830821 -0.87340844 41 23 26
-0.025684228 0.208262 -0.8715629 43 24 28
-0.025710184 0.20827778 -0.87191194 43 24 28
-0.025805265 0.20807543 -0.87219936 43 24 28
-0.025180902 0.20892005 -0.87409908 39 23 22
-0.017671905 0.25957739 -0.88739806 89 60 59
-0.018060239 0.25623634 -0.88793546 55 36 37
-0.018156428 0.25599751 -0.88791806 54 35 37
-0.018073305 0.25734556 -0.88760012 68 45 46
-0.018554453 0.25566337 -0.88763571 64 44 45
-0.018437568 0.25426903 -0.88800889 80 56 57
-0.017806662 0.2521106 -0.88888299 87 61 63
-0.019009026 0.25548837 -0.88721949 74 52 52
-0.018746423 0.25329605 -0.88748765 73 49 51
-0.018675419 0.25311604 -0.88758719 74 50 52
-0.017651122 0.24865808 -0.88900673 29 17 17
-0.018314799 0.25092518 -0.88804203 59 38 40
-0.017748553 0.25189596 -0.88896179 86 61 63
-0.017907074 0.2507951 -0.8886767 64 43 44
-0.019529991 0.2493082 -0.88738739 53 26 30
-0.01778622 0.24855456 -0.88881934 26 14 14
-0.02009239 0.24810696 -0.88730836 50 21 26
-0.019143667 0.24841638 -0.88789678 41 19 22
-0.018744294 0.24966022 -0.88784927 46 25 28
-0.021147797 0.24536617 -0.88756394 55 33 38
-0.019247452 0.24654773 -0.88848174 35 21 24
-0.018321518 0.24732749 -0.88884461 26 15 16
-0.018574318 0.2478606 -0.88846666 31 14 16
-0.020792134 0.24591373 -0.88762724 52 30 35
-0.018307902 0.24766266 -0.88872892 27 14 15
-0.018464493 0.24427927 -0.88847178 27 15 20
-0.019123472 0.24600948 -0.8885296 34 21 23
-0.017923759 0.2443164 -0.88859332 22 10 16
-0.020728985 0.24434948 -0.88798887 48 33 37
-0.019539587 0.24583223 -0.88841879 38 24 27
-0.020474115 0.24467398 -0.88808179 46 31 35
-0.018928822 0.24309915 -0.88782495 32 15 22
-0.019475991 0.24289259 -0.88774979 37 18 25
-0.019210016 0.24286047 -0.88762742 34 17 24
-0.02098587 0.2425805 -0.88744169 51 28 35
-0.018591337 0.24395597 -0.88837278 28 15 21
-0.019900709 0.24278514 -0.88773829 41 21 27
-0.011315122 0.29236525 -0.85384399 84 71 70
-0.011589158 0.29201108 -0.85450375 84 71 70
-0.011803662 0.29227123 -0.85500103 87 74 74
-0.011003877 0.29121295 -0.85315007 75 61 60
-0.011802065 0.29176834 -0.85501522 84 70 70
-0.010474388 0.29158527 -0.8519693 73 59 56
-0.011918567 0.28721556 -0.85469371 87 72 69
-0.012111408 0.28946006 -0.85551405 85 70 69
-0.011930664 0.28892803 -0.85500842 83 68 67
-0.011303968 0.28771281 -0.85336071 75 61 57
-0.011338189 0.28727674 -0.85336649 77 62 58
-0.012183893 0.28931439 -0.85565668 86 72 71
-0.011098713 0.29048854 -0.85330361 74 59 58
-0.011296241 0.28910634 -0.85356706 73 59 56
-0.011075962 0.29052609 -0.85325539 74 59 58
-0.010777406 0.29080993 -0.85259199 72 57 56
-0.010931002 0.28822687 -0.85257536 69 55 51
-0.011260243 0.29101291 -0.85376209 76 61 61
-0.012427543 0.283678 -0.85444242 86 71 67
-0.011843441 0.28446957 -0.85358691 87 72 71
-0.01167208 0.28356948 -0.85287136 84 69 67
-0.012320574 0.28405985 -0.85438293 87 72 69
-0.011636875 0.28626534 -0.85375047 84 69 66
-0.011686732 0.28522059 -0.85352325 86 71 69
-0.011054362 0.28587371 -0.8522799 74 60 56
-0.011305087 0.28618246 -0.8529588 78 63 60
-0.011810609 0.28689423 -0.85435671 86 71 68
-0.013875809 0.27983212 -0.8556599 83 68 70
-0.013038089 0.28042775 -0.85423887 81 65 63
-0.012648662 0.27953315 -0.85316062 78 61 61
-0.013579855 0.28029367 -0.85507911 82 67 67
-0.013308527 0.28268829 -0.85575777 86 70 65
-0.013118845 0.28120661 -0.85474306 82 67 64
-0.012695111 0.28137854 -0.85411119 81 64 61
-0.0117608 0.28270027 -0.852718 82 67 65
-0.012189275 0.28161544 -0.85319036 81 64 62
-0.01262952 0.28202155 -0.8542273 83 66 62
-0.011341928 0.28298974 -0.85197657 82 67 66
-0.01236567 0.28100023 -0.85332376 80 62 60
-0.012408951 0.28211272 -0.8538146 82 66 63
-0.014005608 0.27811018 -0.85517317 78 65 68
-0.013992604 0.2762123 -0.85442078 66 54 58
-0.013894428 0.27582771 -0.85403132 61 49 54
-0.013756529 0.27849245 -0.85467088 77 62 65
-0.014192894 0.27627343 -0.85494739 70 58 62
-0.013527738 0.2773985 -0.85382634 68 54 57
-0.013359289 0.2764028 -0.85319287 62 49 52
-0.013381922 0.27724376 -0.85353976 68 54 56
-0.013485176 0.27924567 -0.85442621 80 64 66
-0.012552636 0.27693978 -0.85206521 64 49 50
-0.012417494 0.27906129 -0.85257947 75 58 58
-0.013034493 0.27765128 -0.85311776 70 55 56
-0.014283766 0.27513796 -0.85473567 65 54 59
-0.01435945 0.2748847 -0.85481244 66 55 60
-0.014777023 0.27441221 -0.85584038 74 63 66
-0.014847178 0.27249193 -0.8554579 73 60 63
-0.01456925 0.27453804 -0.85522854 69 58 63
-0.015139182 0.26969954 -0.8555724 73 59 63
-0.014591367 0.26882303 -0.85367483 68 52 55
-0.01472057 0.26796055 -0.85383576 67 51 55
-0.015163005 0.26810938 -0.85521841 69 54 60
-0.014911224 0.27100804 -0.85522634 75 60 62
-0.015191246 0.26549214 -0.85448247 66 52 56
-0.015362618 0.26608074 -0.85519129 68 53 59
-0.015642762 0.26432732 -0.85545725 70 52 59
-0.014970454 0.26549846 -0.85382068 63 51 54
-0.015257496 0.26569176 -0.8547473 66 52 57
-0.014993809 0.26687115 -0.85433453 66 52 57
-0.015018816 0.26678982 -0.85438424 66 52 57
-0.018229865 0.25101584 -0.85531056 71 55 60
-0.018335357 0.25007072 -0.85544682 72 55 65
-0.018016763 0.24922115 -0.85347211 70 57 63
-0.018318463 0.2505677 -0.85557085 71 55 63
-0.017587755 0.27014294 -0.86515081 95 76 81
-0.017644294 0.27060214 -0.8659609 96 77 81
-0.017803255 0.26798978 -0.86581278 90 68 74
-0.017820382 0.26845938 -0.86738908 85 65 71
-0.017793842 0.26962477 -0.86702001 92 73 77
-0.017774198 0.26892474 -0.8650353 98 76 80
-0.017807169 0.26869246 -0.8668251 89 68 74
-0.017567249 0.26899678 -0.86386448 94 74 80
-0.017477805 0.27003813 -0.8645128 94 75 80
-0.018281572 0.26527569 -0.86712545 84 65 71
-0.01832011 0.26453298 -0.86612952 81 64 70
-0.018186955 0.26560247 -0.86693043 82 63 70
-0.018153181 0.26556239 -0.8665843 81 62 69
-0.018463554 0.26421118 -0.86673158 84 66 72
-0.01823717 0.26494583 -0.86618155 80 63 69
-0.017917344 0.26661474 -0.86587596 81 62 69
-0.01792481 0.26629069 -0.8641324 87 66 74
-0.017923759 0.26643687 -0.86506253 84 64 71
-0.017952949 0.26601866 -0.86402452 86 66 73
-0.018081661 0.2648401 -0.86397934 78 62 69
-0.018855197 0.26077583 -0.86599821 87 71 74
-0.018680351 0.26061645 -0.86480564 84 69 72
-0.018937571 0.26021194 -0.86598486 87 72 74
-0.019101541 0.26062018 -0.86733615 90 74 76
-0.018738285 0.26227382 -0.86664516 88 70 74
-0.018877162 0.26187918 -0.86712319 89 72 75
-0.018382017 0.26290181 -0.8644498 77 63 69
-0.01844318 0.26279426 -0.86485565 79 64 70
-0.018321825 0.26316655 -0.86418784 75 61 68
-0.01852569 0.26274455 -0.86548549 82 66 72
-0.018492697 0.26337698 -0.86576313 82 66 72
-0.018551372 0.26119176 -0.86435282 81 66 71
-0.019327436 0.25611913 -0.86627561 93 79 82
-0.019304587 0.25666055 -0.866337 92 78 81
-0.019122791 0.25610587 -0.86438364 90 75 76
-0.019205486 0.25848526 -0.86634046 91 75 76
-0.019264873 0.25758097 -0.86643338 92 77 79
-0.018713675 0.25897464 -0.86370534 83 69 71
-0.018756082 0.25854936 -0.86367238 84 69 72
-0.019168692 0.25956273 -0.86683279 90 74 76
-0.019184565 0.25841105 -0.86614984 91 75 76
-0.018942082 0.25888425 -0.86501467 87 72 73
-0.01975202 0.25388053 -0.8673206 95 81 84
-0.019951625 0.25226748 -0.86688739 95 80 83
-0.019827805 0.25296244 -0.86664581 95 80 85
-0.019687533 0.25340682 -0.86579961 96 82 89
-0.019815035 0.25345293 -0.86732018 95 80 84
-0.019343082 0.25448278 -0.86416304 93 78 83
-0.019494377 0.25354666 -0.86411071 95 80 88
-0.019420633 0.25494671 -0.86559415 94 80 85
-0.019243853 0.25546351 -0.86476398 92 77 80
-0.019377796 0.2554943 -0.86604553 93 80 84
-0.020301245 0.25075218 -0.86748445 89 69 77
-0.020224359 0.24912088 -0.86493641 86 67 75
-0.020237714 0.25048223 -0.86675984 89 70 77
-0.020012012 0.2507897 -0.86526227 92 75 83
-0.020129567 0.24984729 -0.86514825 89 71 78
-0.020125367 0.24946813 -0.8645193 88 70 78
-0.019943202 0.25091296 -0.86467224 93 76 85
-0.019815918 0.25167972 -0.86440688 97 80 90
-0.019809671 0.2515099 -0.86407578 96 80 91
-0.022569746 0.2375022 -0.86665976 65 49 55
-0.022657527 0.23672691 -0.86697435 58 44 49
-0.022621658 0.23692031 -0.86672586 61 46 51
-0.022584839 0.23823829 -0.8675589 64 48 54
-0.022681475 0.23675241 -0.86729056 57 42 47
-0.023074612 0.23290427 -0.86501342 60 43 50
-0.023045903 0.23347469 -0.86616361 63 45 52
-0.022915253 0.23473749 -0.86692715 59 43 49
-0.02307253 0.2335842 -0.86723834 68 50 55
-0.023028601 0.23358804 -0.86608404 62 45 51
-0.022869514 0.23518059 -0.86719781 58 42 48
-0.02272574 0.23455875 -0.86374038 65 50 55
-0.022701051 0.2350096 -0.86437678 64 48 54
-0.022641964 0.2354141 -0.86449832 65 50 55
-0.022556605 0.23613147 -0.86495024 66 51 56
-0.022747518 0.23456423 -0.86401677 64 48 54
-0.023196137 0.23074341 -0.8671667 72 53 57
-0.023187358 0.22929245 -0.86586767 68 50 52
-0.023212655 0.23120929 -0.86700213 74 54 58
-0.023215476 0.22881688 -0.86412585 67 49 50
-0.02321893 0.23037225 -0.86577123 72 52 55
-0.023214377 0.23185498 -0.86659676 74 54 59
-0.023199821 0.23132581 -0.86573118 70 51 55
-0.023192147 0.22960146 -0.86396712 65 47 49
-0.023201015 0.23161215 -0.86602193 71 52 57
-0.023190688 0.23226334 -0.86633676 71 51 57
-0.023313927 0.22764875 -0.86390626 71 53 54
-0.023221096 0.2280221 -0.86599332 67 51 52
-0.023212014 0.22810254 -0.86597955 67 51 52
-0.023967329 0.22309603 -0.86628592 70 56 55
-0.023934413 0.22164533 -0.86707908 62 43 47
-0.023920288 0.22128715 -0.86434591 55 42 40
-0.023912927 0.22095665 -0.86459464 53 39 38
-0.023980856 0.22360383 -0.86698693 75 60 60
-0.023940464 0.22205476 -0.86527377 61 48 46
-0.023935024 0.22260724 -0.86534953 66 52 51
-0.023876004 0.22316639 -0.86504155 71 56 57
-0.02385354 0.22174659 -0.86378992 59 46 45
-0.023383258 0.21814057 -0.86553895 43 25 28
-0.023523472 0.21882996 -0.86606497 47 28 32
-0.023471978 0.21792085 -0.86667734 43 28 28
-0.02324656 0.2171897 -0.86536855 39 23 24
-0.023198564 0.21715285 -0.86494392 38 22 23
-0.023900073 0.22064686 -0.86744994 56 35 41
-0.023890771 0.22061799 -0.8660866 54 36 39
-0.023483433 0.21882175 -0.86501437 45 27 30
-0.023576427 0.21922688 -0.86580426 48 29 33
-0.023458004 0.21871722 -0.86411053 43 27 28
-0.023850631 0.22045837 -0.86406684 49 36 34
-0.025023079 0.21359561 -0.86444497 46 33 28
-0.025167165 0.21344028 -0.86433625 46 33 29
-0.023606073 0.21547398 -0.86476046 40 25 24
-0.025026498 0.21347667 -0.8646943 47 34 29
-0.023339882 0.21616818 -0.86406559 38 21 22
-0.024690203 0.21364756 -0.86537766 46 34 29
-0.023342164 0.21678466 -0.86675268 39 27 24
-0.024214376 0.21376838 -0.86697561 47 35 30
-0.023651559 0.2157051 -0.86680526 42 30 26
-0.023503048 0.21611603 -0.86648434 40 28 25
-0.023178866 0.21640454 -0.86410612 37 20 22
-0.023484364 0.21602648 -0.86605453 40 27 25
-0.025528686 0.21284318 -0.86423725 50 37 32
-0.025332481 0.21136701 -0.86406958 42 29 26
-0.025107978 0.21213806 -0.86526066 46 34 29
-0.024984503 0.21046799 -0.86470437 39 28 25
-0.024690451 0.21192965 -0.86648965 45 35 29
-0.024859484 0.21075805 -0.86527902 41 29 26
-0.024923665 0.21014093 -0.86572307 38 26 24
-0.024836531 0.21069269 -0.8659057 40 29 25
-0.024869183 0.21076609 -0.86717325 40 28 25
-0.024924625 0.21049786 -0.86745214 39 26 24
-0.024842067 0.21063153 -0.86576968 40 29 25
-0.017908545 0.27245229 -0.87930512 78 55 68
-0.017472783 0.2715508 -0.88027608 66 39 56
-0.01738208 0.27208608 -0.88027251 71 45 59
-0.016707702 0.27186719 -0.88156635 71 46 55
-0.018017277 0.27103788 -0.87981045 75 49 66
-0.017807543 0.26843044 -0.88249928 86 61 68
-0.018134231 0.27045196 -0.87970656 76 52 66
-0.018301632 0.26938403 -0.8794415 78 56 66
-0.01840131 0.26855987 -0.87940693 79 60 65
-0.018158745 0.26875585 -0.88067603 82 59 67
-0.018099047 0.26827013 -0.88133806 84 62 67
-0.01815851 0.26789969 -0.88123804 84 63 67
-0.017532235 0.2689988 -0.88242459 81 54 64
-0.017376313 0.27005661 -0.88175631 75 48 60
-0.017338725 0.27047959 -0.8814441 72 45 59
-0.017157322 0.2693831 -0.88275993 80 54 61
-0.01883694 0.26389036 -0.87959063 77 57 62
-0.018723413 0.26434153 -0.88050228 79 58 64
-0.01889158 0.26381567 -0.88194031 80 58 66
-0.018891677 0.26381516 -0.88193727 80 58 66
-0.018507538 0.26518989 -0.88204843 83 61 67
-0.018343914 0.26745108 -0.88044834 83 64 66
-0.01847489 0.26525673 -0.8808654 82 60 65
-0.018482804 0.26728046 -0.87973928 81 63 65
-0.018759808 0.26511809 -0.87929803 78 59 63
-0.018448522 0.26713005 -0.88001716 82 63 65
-0.019181477 0.26028341 -0.88144439 81 54 64
-0.019054376 0.26217154 -0.88240939 81 57 66
-0.019174252 0.2597689 -0.88151443 79 52 62
-0.019057125 0.26132652 -0.88240814 78 54 63
-0.019155361 0.261527 -0.88162178 83 58 68
-0.019075477 0.25993496 -0.88229614 75 49 58
-0.019081838 0.26250783 -0.88077784 82 59 68
-0.01930408 0.26090568 -0.8802864 88 62 73
-0.019008411 0.26296198 -0.88018978 80 58 65
-0.019234447 0.26134259 -0.8797906 86 61 71
-0.018961186 0.26352578 -0.88252383 80 58 67
-0.019548226 0.25739613 -0.88190627 69 47 54
-0.019303244 0.25748584 -0.88306957 68 47 52
-0.019696049 0.25735307 -0.88119668 70 47 56
-0.01933752 0.25708482 -0.88317484 67 48 52
-0.019426534 0.25687778 -0.88287252 68 48 53
-0.01903218 0.2596696 -0.88280749 71 45 54
-0.019777659 0.25803408 -0.87963772 80 55 66
-0.019619726 0.25817415 -0.88065767 75 50 61
-0.020083068 0.25662139 -0.87959266 73 50 61
-0.019521391 0.25922635 -0.87966388 87 60 71
-0.019121284 0.25972503 -0.88200504 76 49 59
-0.020476261 0.25217184 -0.87973547 62 37 47
-0.020104278 0.25301349 -0.88137746 63 42 47
-0.020099312 0.25270873 -0.88157809 63 43 46
-0.019957006 0.25351655 -0.88193148 64 44 48
-0.020475036 0.25208852 -0.87978953 62 37 47
-0.020259656 0.25295117 -0.88052797 63 40 48
-0.020344647 0.2534776 -0.87987715 64 41 51
-0.020237809 0.25360915 -0.88036209 64 41 51
-0.020106114 0.25495741 -0.88051492 67 46 55
-0.020501478 0.25238341 -0.87950325 62 37 48
-0.02022836 0.25581077 -0.87958342 70 48 59
-0.020434836 0.24858707 -0.88123381 56 32 32
-0.020312611 0.24984713 -0.8812421 59 38 35
-0.020270413 0.24885084 -0.88246804 55 33 33
-0.020264853 0.24918762 -0.88222963 56 34 34
-0.019940734 0.2514255 -0.88319457 61 44 39
-0.020176949 0.24984266 -0.88245022 58 37 35
-0.020381765 0.25046095 -0.88068002 60 37 38
-0.020075977 0.25190479 -0.88214755 62 43 42
-0.020025725 0.25143439 -0.88252282 62 44 39
-0.020635458 0.24864526 -0.8795796 57 32 32
-0.020412978 0.24998891 -0.88059175 59 37 36
-0.020379247 0.25039792 -0.88070631 60 37 38
-0.014631929 0.24967089 -0.88281494 26 11 14
-0.015167895 0.24865361 -0.88279659 22 10 12
-0.013880565 0.24948697 -0.88148302 28 12 13
-0.013983194 0.24828407 -0.88062936 24 12 10
-0.013746539 0.25051382 -0.88213903 31 12 15
-0.021598998 0.24522771 -0.87962413 51 26 40
-0.021325188 0.24623545 -0.87938863 52 26 35
-0.021185279 0.24599235 -0.88007939 49 24 34
-0.020952251 0.24445675 -0.88236851 39 16 33
-0.020937219 0.24454255 -0.882321 40 17 32
-0.020850372 0.24513231 -0.88194752 42 19 32
-0.020449175 0.24798653 -0.88163817 54 29 31
-0.020531902 0.24606727 -0.88312835 44 21 31
-0.020633444 0.24728806 -0.88081193 52 27 30
-0.020610476 0.24555118 -0.88302904 42 20 31
-0.020675074 0.24788797 -0.87974697 55 30 30
-0.015028385 0.24626929 -0.88208359 20 9 11
-0.015676068 0.24704622 -0.88309062 19 8 12
-0.014756043 0.24618141 -0.8816579 20 10 11
-0.015296737 0.2466279 -0.88250047 19 9 11
-0.01571935 0.24489859 -0.88317907 17 8 12
-0.014301677 0.24622367 -0.88084346 24 11 12
-0.01521474 0.24457514 -0.88230318 20 9 13
-0.014181763 0.24636492 -0.88064015 25 11 12
-0.014411992 0.24550575 -0.8809402 26 11 13
-0.013691508 0.24590863 -0.87965065 32 12 14
-0.014143937 0.245636 -0.88045746 28 11 14
-0.021549456 0.24249314 -0.88160664 55 26 40
-0.021900659 0.24382281 -0.87993127 57 32 50
-0.021493144 0.24355149 -0.88138765 45 19 37
-0.021708429 0.24132262 -0.88142151 66 35 44
-0.021874826 0.24218339 -0.8804732 64 37 47
-0.021591298 0.24039057 -0.88213652 68 35 40
-0.022009531 0.2404857 -0.88005406 65 42 41
-0.021288859 0.24092671 -0.88294142 64 30 38
-0.021435212 0.24130693 -0.88241702 61 29 38
-0.021452939 0.24383721 -0.88139659 43 18 37
-0.021124171 0.24408422 -0.88223439 39 16 34
-0.021981739 0.24023138 -0.88023096 65 42 40
-0.021625161 0.23915389 -0.88316947 74 38 45
-0.021827722 0.23977534 -0.88148719 69 40 42
-0.022088015 0.23855813 -0.88154942 72 47 47
-0.022063429 0.23921241 -0.88094848 69 45 44
-0.022013687 0.237701 -0.88286078 77 46 50
-0.02223585 0.23667157 -0.88173318 72 47 50
-0.022234384 0.23714213 -0.88232261 77 51 51
-0.022184579 0.23944002 -0.87982774 65 46 43
-0.022205204 0.23781979 -0.87976098 62 41 43
-0.022225693 0.23730467 -0.88149506 72 48 49
-0.019648127 0.23906402 -0.88279265 46 22 25
-0.017792957 0.23770744 -0.88231021 17 8 8
-0.018303411 0.2388621 -0.8831566 26 14 13
-0.019238265 0.2392986 -0.883174 40 20 22
-0.020182012 0.2390433 -0.88247406 53 24 30
-0.019663721 0.23722872 -0.88241607 43 22 26
-0.017956128 0.2364229 -0.88138264 19 7 9
-0.019905102 0.23634937 -0.8827498 45 25 28
-0.018769583 0.23725937 -0.88178945 31 13 17
-0.019709969 0.23836179 -0.88208985 45 20 25
-0.018647108 0.23734124 -0.88162243 29 12 15
-0.021632489 0.23332486 -0.88087398 46 25 29
-0.021695212 0.23497088 -0.88249314 59 35 39
-0.021678256 0.23279032 -0.88025981 43 22 27
-0.02217536 0.2352016 -0.88212901 71 43 47
-0.022186454 0.23484832 -0.87943089 55 31 39
-0.02218822 0.23452602 -0.88063073 61 35 42
-0.022205334 0.23544051 -0.88001418 59 35 42
-0.022174437 0.23390968 -0.88076293 61 33 40
-0.022216816 0.23550032 -0.88127947 67 41 46
-0.020945268 0.23586014 -0.88314772 55 32 36
-0.019753529 0.23446204 -0.88089401 29 13 17
-0.018905489 0.23522295 -0.88102371 23 9 12
-0.020417456 0.23529574 -0.88226599 44 23 28
-0.020552894 0.23359039 -0.88061261 33 15 20
-0.019943666 0.23398219 -0.88054621 28 12 16
-0.018377192 0.23569533 -0.88110286 19 7 10
-0.021303916 0.23419572 -0.88181645 47 25 30
-0.018562019 0.23252894 -0.8802008 25 11 11
-0.017589223 0.23568286 -0.88098139 15 4 6
-0.020823883 0.232538 -0.88016599 34 16 20
-0.019116681 0.23339839 -0.88040251 25 11 13
-0.0181664 0.23278248 -0.88026875 23 9 9
