ply
format ascii 1.0
comment PCL generated
element vertex 1043
property float x
property float y
property float z
property uchar red
property uchar green
property uchar blue
element camera 0
property float view_px
property float view_py
property float view_pz
property float x_axisx
property float x_axisy
property float x_axisz
property float y_axisx
property float y_axisy
property float y_axisz
property float z_axisx
property float z_axisy
property float z_axisz
property float focal
property float scalex
property float scaley
property float centerx
property float centery
property int viewportx
property int viewporty
property float k1
property float k2
end_header
-0.23873954 0.52278012 -0.87570733 156 122 119
-0.23300561 0.52346325 -0.8785615 118 88 89
-0.23381986 0.52347732 -0.8792491 122 86 94
-0.23373547 0.52287 -0.8792606 123 88 95
-0.23286732 0.5246582 -0.87828118 114 85 84
-0.23278129 0.52189797 -0.87870783 117 86 89
-0.23332213 0.52179253 -0.87908459 122 91 95
-0.23195247 0.5220834 -0.87896067 109 80 81
-0.23223306 0.5225789 -0.87854481 112 83 83
-0.23181346 0.52415252 -0.87869692 108 80 78
-0.23225179 0.52325457 -0.87839556 111 83 82
-0.24042092 0.51855052 -0.87904823 129 82 101
-0.23997948 0.51788807 -0.87805438 133 92 104
-0.23985052 0.52036399 -0.8783443 126 91 97
-0.23992522 0.51766741 -0.87793201 134 92 105
-0.23911875 0.51921326 -0.87704736 128 99 99
-0.23977381 0.51906627 -0.87798047 129 93 101
-0.23872925 0.52143306 -0.87606472 148 102 116
-0.238731 0.51994836 -0.87621921 138 102 108
-0.23870002 0.51915407 -0.87623686 133 103 104
-0.23861441 0.51982164 -0.87599462 139 104 109
-0.23825443 0.5181011 -0.87543648 133 108 105
-0.23244372 0.52139878 -0.87858206 114 83 87
-0.23296224 0.52008528 -0.87919748 116 80 89
-0.23225959 0.52141088 -0.87875217 111 82 85
-0.23945855 0.51460403 -0.87923139 146 104 120
-0.23840943 0.5173865 -0.8758207 132 107 104
-0.23840949 0.51677853 -0.8762368 135 109 107
-0.23912911 0.51560253 -0.87809795 142 105 115
-0.2400021 0.51689911 -0.87849218 137 93 109
-0.23913927 0.51547879 -0.87819755 143 105 116
-0.23807004 0.5157389 -0.87590194 134 104 107
-0.23851392 0.51515514 -0.87728125 141 108 115
-0.238556 0.51372784 -0.87804663 145 106 120
-0.23829409 0.5170747 -0.875844 133 109 105
-0.23824677 0.51410073 -0.87710136 141 103 115
-0.23754346 0.51387173 -0.87544972 133 95 107
-0.23245136 0.51690412 -0.87908703 108 65 81
-0.23333384 0.5146752 -0.87884337 122 75 92
-0.23317933 0.51385176 -0.87836212 125 79 93
-0.23224851 0.51374662 -0.87790442 119 79 86
-0.23234694 0.51629972 -0.87889063 109 67 81
-0.23110703 0.51377428 -0.87925994 106 66 72
-0.2387931 0.51311016 -0.87915087 152 113 128
-0.2380356 0.51162457 -0.87784362 141 102 114
-0.23792204 0.5113163 -0.87802434 146 109 120
-0.23737927 0.51045096 -0.87621111 124 82 92
-0.23713829 0.50999194 -0.87573558 119 77 86
-0.23716992 0.50983983 -0.87673295 135 99 107
-0.23788784 0.51209193 -0.8768819 133 92 104
-0.23808995 0.51236141 -0.87730527 136 95 108
-0.23834227 0.51328737 -0.87765497 142 102 116
-0.23738806 0.51147646 -0.8758195 125 84 95
-0.23796897 0.51243532 -0.87698048 135 94 107
-0.2382797 0.51249129 -0.87774009 139 97 111
-0.2343194 0.51273608 -0.87916255 138 92 110
-0.23340608 0.5131442 -0.87844086 130 88 100
-0.23383108 0.51344132 -0.87880278 130 82 100
-0.2334199 0.51331282 -0.87846118 129 85 99
-0.23271327 0.51282412 -0.87793583 129 92 97
-0.23172067 0.51328409 -0.87855852 116 77 82
-0.23212773 0.51249838 -0.8782112 125 88 91
-0.24057658 0.5647909 -0.89512491 46 26 21
-0.22898474 0.54183179 -0.8592096 88 61 61
-0.22851509 0.54159826 -0.85868096 81 52 55
-0.22923961 0.53962523 -0.85954583 98 66 71
-0.22941318 0.54071516 -0.85961819 98 74 72
-0.22774446 0.53979695 -0.85799855 80 50 54
-0.22768737 0.54048198 -0.85796154 78 51 53
-0.22814743 0.51641417 -0.85971338 123 88 99
-0.22787246 0.51719052 -0.85937381 119 84 98
-0.23073305 0.5421747 -0.8610552 121 99 89
-0.23003165 0.54162914 -0.86027849 107 86 78
-0.22997457 0.54107416 -0.86019117 110 88 82
-0.23097982 0.54138416 -0.86128217 134 109 101
-0.23022713 0.54311395 -0.86061829 105 77 72
-0.22962232 0.54267377 -0.85996956 94 65 64
-0.23001762 0.53756922 -0.86060566 118 72 88
-0.23058814 0.53811806 -0.86116219 129 87 98
-0.23107216 0.53725517 -0.86180097 130 88 98
-0.23229997 0.53858751 -0.86297983 155 121 120
-0.23013374 0.53732383 -0.86076373 118 72 88
-0.22975759 0.53861642 -0.86020672 113 73 84
-0.23070346 0.54002672 -0.86107224 133 100 101
-0.22991209 0.53889275 -0.86034328 116 78 87
-0.23090817 0.53919148 -0.86137861 141 101 108
-0.23053685 0.53963161 -0.86093509 130 95 98
-0.23113734 0.53990149 -0.86154985 145 110 111
-0.23152535 0.53663743 -0.86240417 134 91 102
-0.23152649 0.5358218 -0.86255765 133 85 101
-0.23186356 0.53357154 -0.86334735 135 74 103
-0.23036622 0.53709972 -0.86104721 119 74 89
-0.23007634 0.53660798 -0.86082131 115 65 85
-0.23098367 0.53542477 -0.86203676 125 72 95
-0.23154029 0.53654289 -0.8624382 134 91 102
-0.22946829 0.53494185 -0.86025894 106 61 77
-0.23004059 0.53385276 -0.86105323 113 66 83
-0.23147964 0.53342885 -0.86288363 130 72 99
-0.23100913 0.53408164 -0.86224806 125 69 94
-0.22993533 0.53510994 -0.86083096 112 62 82
-0.23017465 0.53457063 -0.86116916 115 64 85
-0.22939478 0.53538299 -0.8601352 105 59 77
-0.23157589 0.52936029 -0.86261779 131 115 103
-0.2323858 0.5310024 -0.86363316 143 109 111
-0.23126745 0.53293717 -0.86266267 127 72 97
-0.22979777 0.5328787 -0.86083066 109 67 80
-0.23197332 0.53312624 -0.86352551 136 75 104
-0.23149815 0.52621305 -0.86254144 139 88 104
-0.2305392 0.52691567 -0.86148024 124 84 92
-0.23198763 0.52600592 -0.86307764 147 91 110
-0.2310649 0.52709967 -0.86204159 131 92 98
-0.23193158 0.52600032 -0.86301732 146 90 110
-0.23110104 0.52707362 -0.86208159 131 92 98
-0.23222178 0.52853191 -0.86324012 142 121 110
-0.22934489 0.52603406 -0.86023664 111 60 78
-0.23040533 0.52827138 -0.86140829 119 89 91
-0.23012562 0.52687413 -0.86104739 119 78 87
-0.22960097 0.52627492 -0.86050034 113 65 81
-0.23025809 0.52722871 -0.8611986 119 82 88
-0.22940186 0.52596563 -0.86028749 112 60 79
-0.23124638 0.52827406 -0.86222374 130 105 99
-0.23243639 0.52365923 -0.86353534 157 109 119
-0.23231912 0.52505141 -0.86344653 154 92 116
-0.23189232 0.52223104 -0.86288458 151 118 115
-0.23145139 0.52459538 -0.86250103 143 86 107
-0.22935651 0.52425873 -0.86022949 115 64 83
-0.23135377 0.52494752 -0.86240411 141 81 105
-0.23174904 0.52145195 -0.86270911 150 124 115
-0.22878405 0.51964521 -0.85986638 120 87 97
-0.22875863 0.51955885 -0.85985434 120 87 97
-0.23122846 0.52044612 -0.86233944 147 119 116
-0.23125544 0.52037406 -0.86238664 148 120 116
-0.23240341 0.5209887 -0.86351413 158 135 122
-0.23126973 0.51893991 -0.86278844 146 124 115
-0.23077291 0.51768333 -0.86260724 138 119 111
-0.23040229 0.51775932 -0.86215031 136 114 110
-0.23149672 0.51911783 -0.862997 148 127 117
-0.23096339 0.51775086 -0.86280829 139 122 112
-0.22930749 0.5174349 -0.86096376 127 97 105
-0.23031801 0.5147776 -0.86278349 113 78 94
-0.22986685 0.51661783 -0.86181366 124 94 103
-0.23009972 0.5159837 -0.86223823 121 90 100
-0.23076621 0.51597416 -0.86301893 125 99 102
-0.23088622 0.51503277 -0.86338562 118 89 97
-0.22979023 0.51602918 -0.86186588 119 86 99
-0.22901782 0.51466405 -0.86099124 122 87 97
-0.22947975 0.51465905 -0.86164337 118 83 95
-0.22951297 0.51537263 -0.86162204 117 81 97
-0.22910297 0.51422977 -0.86115277 122 87 96
-0.22949028 0.51453525 -0.86167002 118 83 95
-0.22907163 0.51478708 -0.86105537 122 86 97
-0.22841558 0.51564652 -0.8600837 125 89 99
-0.23032147 0.51111519 -0.86344671 118 72 93
-0.23054636 0.51296771 -0.86338598 112 73 91
-0.23023984 0.51154584 -0.8632437 118 74 93
-0.23040609 0.51253533 -0.8632763 114 74 92
-0.2298912 0.50944161 -0.86307883 123 79 96
-0.24024415 0.57219249 -0.88694608 138 82 109
-0.23986252 0.57185483 -0.8871026 131 77 102
-0.24049661 0.56585288 -0.88668698 124 89 88
-0.24066462 0.56507534 -0.88662314 122 88 86
-0.2411443 0.56512868 -0.88706136 125 91 87
-0.24020971 0.56714511 -0.88682932 127 92 91
-0.23979011 0.56523001 -0.88668013 116 81 80
-0.24078223 0.56373531 -0.88673651 127 85 88
-0.24038348 0.5644052 -0.88621694 120 84 83
-0.24021477 0.5631597 -0.88641328 130 80 90
-0.23933049 0.56419641 -0.88694125 111 74 74
-0.22853607 0.55676591 -0.88706511 56 30 35
-0.24651299 0.55354637 -0.88700956 158 129 125
-0.24597558 0.55368268 -0.88372278 187 159 150
-0.24616475 0.55355883 -0.88619137 156 131 123
-0.24587986 0.55298507 -0.88358426 187 157 150
-0.24611063 0.55463284 -0.88396776 185 162 148
-0.24606763 0.55317956 -0.88557088 163 136 129
-0.23932935 0.55283159 -0.88633084 128 82 89
-0.23818538 0.55390495 -0.88666248 113 73 79
-0.23676665 0.5530014 -0.88513207 87 45 54
-0.23868753 0.55402911 -0.88700598 122 81 86
-0.23640651 0.55350882 -0.88548946 84 43 52
-0.23842598 0.55370438 -0.88656384 116 75 81
-0.23626128 0.55449003 -0.88660204 88 48 57
-0.23552719 0.55325037 -0.88703221 77 34 44
-0.24600065 0.55011845 -0.88647598 176 154 141
-0.2459314 0.5504505 -0.88576174 177 154 142
-0.24603388 0.55156165 -0.88642174 161 136 128
-0.24601793 0.55112636 -0.88638395 166 142 132
-0.24593391 0.54972929 -0.8859632 184 162 148
-0.24600124 0.54910463 -0.88673246 186 165 149
-0.24573292 0.55068642 -0.88351166 198 172 160
-0.24578497 0.55095899 -0.88396311 191 165 154
-0.24586695 0.55175322 -0.88443565 181 154 145
-0.24600078 0.55213445 -0.88580519 163 136 129
-0.24055582 0.55038178 -0.8870225 148 113 106
-0.24032077 0.5488863 -0.88692814 147 121 104
-0.23793331 0.55029202 -0.88561326 113 77 77
-0.23681839 0.55071998 -0.88500917 98 57 66
-0.23799305 0.54982978 -0.88566309 117 81 81
-0.23912823 0.54933184 -0.88628072 132 101 92
-0.23723018 0.55022627 -0.88524562 106 67 73
-0.23679247 0.54909933 -0.88505983 110 68 80
-0.23812452 0.55146545 -0.88567346 109 72 72
-0.23892459 0.5513258 -0.88610798 122 84 83
-0.24007043 0.54993939 -0.88676369 143 111 100
-0.23931283 0.5497492 -0.88636136 130 101 89
-0.23791638 0.551494 -0.88556069 106 68 69
-0.23931509 0.55081975 -0.88633239 129 94 89
-0.23526128 0.55142546 -0.88707703 82 41 53
-0.23558401 0.55050415 -0.8863917 91 48 62
-0.23527217 0.54942632 -0.88699144 97 59 73
-0.23533227 0.55196404 -0.88694978 79 35 47
-0.23554248 0.55271077 -0.88647515 74 31 42
-0.23615579 0.55114007 -0.88512957 89 46 59
-0.23598629 0.55131888 -0.88551158 87 43 56
-0.23598923 0.55039555 -0.8855415 94 50 64
-0.24519773 0.54542327 -0.88608217 186 156 144
-0.24527502 0.54577178 -0.88638765 185 154 143
-0.24544351 0.54633176 -0.88582331 190 167 150
-0.24536616 0.54600728 -0.88566703 191 167 151
-0.24536248 0.54614073 -0.88657665 184 154 143
-0.24532972 0.54590231 -0.8858884 189 163 148
-0.24209604 0.54543257 -0.8865062 161 120 121
-0.24159254 0.54538274 -0.88614988 161 121 124
-0.24044973 0.54617202 -0.88576835 156 123 124
-0.24122524 0.54509157 -0.88576937 161 123 129
-0.24072972 0.54749376 -0.88657904 152 121 111
-0.24026421 0.54593349 -0.8855328 157 124 127
-0.23650625 0.54833287 -0.88456929 111 69 83
-0.23654328 0.54752469 -0.8837775 110 74 82
-0.23965724 0.54538381 -0.88491488 153 118 128
-0.23818029 0.54552013 -0.88380486 137 112 111
-0.23865218 0.54606384 -0.88461131 140 106 114
-0.23911756 0.54596198 -0.88491577 146 109 120
-0.24011423 0.54811376 -0.88648182 148 120 108
-0.23771533 0.54802567 -0.88517684 124 84 94
-0.23877214 0.54779315 -0.88562328 136 100 103
-0.23950446 0.54826409 -0.88623184 141 110 103
-0.2396145 0.54848731 -0.88639545 142 112 102
-0.23978767 0.54839575 -0.88644332 144 114 104
-0.23807457 0.54754972 -0.88514072 130 90 101
-0.23628175 0.54757166 -0.88360453 106 70 77
-0.2360395 0.54818499 -0.88473922 105 67 78
-0.23540016 0.54831141 -0.88605249 102 65 77
-0.23545384 0.54793417 -0.88540256 102 65 75
-0.23407927 0.54578841 -0.88400608 90 52 55
-0.23563521 0.54814208 -0.88547188 103 67 77
-0.23433925 0.54638386 -0.88455999 93 55 60
-0.23461142 0.54509068 -0.88653904 100 42 76
-0.2343654 0.54497057 -0.88567251 97 43 68
-0.23460673 0.54509115 -0.88652128 100 42 75
-0.2344169 0.54593271 -0.88544053 95 50 66
-0.23469011 0.54492778 -0.88690501 102 40 79
-0.2347938 0.5460605 -0.88679284 101 48 77
-0.24418268 0.54160529 -0.88536882 184 151 142
-0.24490392 0.54215753 -0.88437474 171 140 133
-0.24467476 0.54133689 -0.88401902 174 145 137
-0.24454032 0.54251432 -0.8856225 182 148 140
-0.24501972 0.54376054 -0.88498992 182 153 141
-0.24498178 0.54239023 -0.88324463 181 161 145
-0.24501204 0.54402018 -0.88567418 179 146 137
-0.24504536 0.54369009 -0.88424301 186 164 148
-0.24506152 0.54422516 -0.88489193 187 161 147
-0.24223642 0.54448873 -0.88618731 163 123 127
-0.24208562 0.54481035 -0.88621384 163 122 126
-0.24374078 0.54299939 -0.88625985 172 134 130
-0.24394687 0.5418095 -0.88543338 181 148 140
-0.24274008 0.54403216 -0.88631403 165 126 126
-0.24307913 0.54392254 -0.88649619 165 125 125
-0.24130358 0.54406309 -0.88518053 166 131 136
-0.2433755 0.54256231 -0.88560039 176 141 137
-0.24226999 0.54279232 -0.88495982 174 141 140
-0.24120149 0.54254037 -0.88472348 157 125 124
-0.24363799 0.54117125 -0.88487178 182 150 142
-0.24147077 0.54337776 -0.8849386 167 134 136
-0.24287429 0.54147923 -0.88480097 173 142 135
-0.24010843 0.54220027 -0.88441724 140 108 108
-0.23935556 0.54245269 -0.88404977 137 100 104
-0.23912893 0.54118258 -0.8836686 127 89 89
-0.23851861 0.54277438 -0.88346791 131 98 98
-0.2395737 0.54355246 -0.88439196 146 109 116
-0.23968181 0.54380429 -0.88449907 149 112 120
-0.23933089 0.54350775 -0.88418901 144 108 113
-0.23287702 0.54103667 -0.88698745 62 32 45
-0.23325405 0.54380262 -0.88379419 80 41 46
-0.23276459 0.54232556 -0.88481063 71 31 43
-0.23322654 0.54397696 -0.88346785 81 40 45
-0.23329231 0.5420875 -0.8866629 71 35 51
-0.23368278 0.54360127 -0.88546288 82 41 54
-0.23339772 0.54207367 -0.88708121 72 34 54
-0.23330772 0.54225433 -0.88642734 72 36 50
-0.2337283 0.54362381 -0.88559347 83 40 56
-0.23364878 0.54456562 -0.88364142 85 47 48
-0.24440882 0.53973866 -0.88454711 177 147 136
-0.24437156 0.53862542 -0.88485384 176 144 132
-0.24418044 0.53908753 -0.88521397 182 149 137
-0.24475585 0.53951418 -0.88323581 178 155 138
-0.24461424 0.53939378 -0.88398123 174 146 133
-0.2447648 0.54033524 -0.88352418 170 143 133
-0.24459888 0.53779519 -0.88340807 189 168 143
-0.24128018 0.5381372 -0.88491362 165 140 120
-0.24062839 0.53907871 -0.88462847 154 129 112
-0.24145767 0.53856182 -0.88488835 160 133 117
-0.24046142 0.53904337 -0.88459724 154 130 112
-0.24098457 0.53890759 -0.88473237 156 130 114
-0.24055628 0.53916508 -0.88459963 153 128 111
-0.24156792 0.54004204 -0.88467228 149 118 110
-0.24310228 0.53981942 -0.88498271 170 138 128
-0.24129371 0.54034775 -0.88456452 146 115 108
-0.24350601 0.54081708 -0.8848567 178 147 138
-0.24413405 0.53970194 -0.88518512 184 152 141
-0.23951893 0.53901821 -0.88414633 138 115 102
-0.23838268 0.53797781 -0.88366032 125 103 93
-0.23861441 0.53753752 -0.88385808 135 115 100
-0.23927753 0.53924716 -0.88397497 131 106 97
-0.23817265 0.53727496 -0.88364774 128 108 95
-0.23848449 0.54094738 -0.88328701 121 81 82
-0.23947789 0.54024261 -0.8839398 127 98 93
-0.23897034 0.54027039 -0.88365388 124 91 89
-0.23268019 0.53988785 -0.88458019 77 38 52
-0.23270404 0.53883547 -0.88334066 80 40 54
-0.23355049 0.53860563 -0.88406813 80 46 56
-0.23296165 0.54053664 -0.88625872 67 35 48
-0.2331049 0.54037637 -0.8863551 66 35 48
-0.23410515 0.53775609 -0.88388455 80 51 58
-0.23344249 0.53959715 -0.88601607 72 42 52
-0.23392269 0.53836799 -0.88546538 83 54 59
-0.23310167 0.54051602 -0.88684714 66 36 48
-0.23376429 0.53884459 -0.88632184 83 53 59
-0.23367986 0.53900123 -0.88585472 78 48 56
-0.24415757 0.5355981 -0.88412935 186 164 131
-0.24424109 0.53650421 -0.88454413 185 159 134
-0.24212919 0.53366542 -0.88498706 153 127 107
-0.24190356 0.53322804 -0.88506204 150 124 105
-0.24381818 0.53458136 -0.88363719 183 166 127
-0.2417579 0.53406286 -0.8857258 144 113 102
-0.24110831 0.53373539 -0.88622439 132 98 94
-0.24103329 0.53393161 -0.88651025 129 93 93
-0.2430598 0.53592086 -0.88589859 162 127 117
-0.24223511 0.53484654 -0.88588923 150 117 107
-0.24124549 0.53393018 -0.8862415 134 100 96
-0.2415726 0.53615332 -0.88561434 162 134 117
-0.24025524 0.53417677 -0.88632053 131 99 94
-0.24290474 0.53612298 -0.88592142 163 128 118
-0.24090436 0.53498131 -0.88605785 144 113 104
-0.24156773 0.53456241 -0.88641399 138 102 99
-0.2409324 0.53585362 -0.88562489 157 130 113
-0.23949961 0.53567785 -0.88443816 157 129 116
-0.2386051 0.53417784 -0.88382643 140 97 106
-0.23979019 0.53563631 -0.88490313 155 128 113
-0.23942579 0.53409547 -0.88512194 134 97 99
-0.23838949 0.53329712 -0.88394028 128 79 98
-0.23984545 0.53366601 -0.88597929 126 88 91
-0.23871292 0.53674477 -0.88395059 142 121 105
-0.23780766 0.53676826 -0.88343984 122 100 92
-0.23819131 0.53649539 -0.88363594 131 107 98
-0.23860481 0.53705627 -0.88391346 139 120 103
-0.23320973 0.53485864 -0.88705808 93 53 68
-0.23440346 0.53569657 -0.88593853 102 64 73
-0.23413394 0.53618109 -0.88681906 103 70 73
-0.23367369 0.53553116 -0.88692415 99 62 71
-0.23433125 0.53361225 -0.88407838 94 40 68
-0.23409526 0.53592968 -0.88664162 102 67 73
-0.23376359 0.53458899 -0.88589144 95 51 69
-0.23449247 0.53550446 -0.88383645 92 51 66
-0.23445204 0.53583431 -0.88349181 89 50 64
-0.23442054 0.53616124 -0.88334769 87 51 63
-0.23448044 0.53654563 -0.88541883 99 67 71
-0.23447822 0.53572947 -0.88390934 92 52 66
-0.2344975 0.53581709 -0.88451129 95 57 68
-0.24174763 0.53175223 -0.88431919 163 136 113
-0.24052231 0.53264076 -0.88615549 129 93 91
-0.24274127 0.53226113 -0.88359046 177 157 122
-0.24048589 0.53144413 -0.88545358 142 106 99
-0.24030972 0.53262419 -0.88636851 125 88 89
-0.24073252 0.5318495 -0.88544536 142 108 100
-0.24266043 0.5322721 -0.88368213 175 154 121
-0.24252191 0.53246105 -0.88394451 170 149 118
-0.24232288 0.53075451 -0.88323295 168 137 117
-0.2418925 0.53097558 -0.88371736 171 143 118
-0.23980413 0.53018194 -0.88434815 139 105 96
-0.24017265 0.52933306 -0.88432819 159 122 110
-0.23967467 0.53104335 -0.88469088 128 94 89
-0.23822308 0.53232938 -0.88322347 131 83 99
-0.23861775 0.53202456 -0.88364863 130 86 96
-0.23840888 0.53214359 -0.88339889 131 85 97
-0.2388801 0.53207934 -0.88408148 128 86 94
-0.23951453 0.53284943 -0.88550031 122 81 89
-0.23305729 0.5324077 -0.88632977 88 41 66
-0.23353291 0.53276867 -0.88531196 89 38 66
-0.23401646 0.53247595 -0.88470805 92 43 68
-0.2329938 0.53216267 -0.88659418 88 44 67
-0.23304382 0.53177059 -0.88676804 89 49 68
-0.23382235 0.52987581 -0.88672543 97 72 77
-0.23383088 0.53032219 -0.88524783 100 66 75
-0.23387524 0.53031766 -0.88543773 99 67 75
-0.23343591 0.53006774 -0.8841064 104 68 75
-0.23347455 0.53013188 -0.88414496 104 67 75
-0.23361915 0.53044295 -0.88415694 103 64 74
-0.23394458 0.53084421 -0.88474041 99 61 74
-0.2409367 0.52816033 -0.88360208 153 120 110
-0.24056104 0.52702886 -0.88376731 147 122 110
-0.24117571 0.52799392 -0.88337642 153 121 111
-0.24016231 0.5272907 -0.88407528 150 124 111
-0.24017102 0.52580237 -0.88385856 142 124 109
-0.23922905 0.52556622 -0.88356948 149 132 118
-0.2387417 0.52649301 -0.88357437 159 136 123
-0.23904581 0.52731895 -0.88373387 159 132 120
-0.23947702 0.52896136 -0.88351744 145 114 101
-0.23418714 0.52593398 -0.88593298 111 72 79
-0.23392917 0.52597493 -0.8855601 111 72 79
-0.23333426 0.52579498 -0.88474602 110 70 78
-0.23405795 0.52626747 -0.88566822 111 72 79
-0.23369637 0.52756703 -0.88481045 110 73 77
-0.23288231 0.52771991 -0.8836863 112 74 78
-0.23406011 0.52606827 -0.88572901 111 72 79
-0.23340152 0.52869779 -0.88469058 108 75 77
-0.23330954 0.52857614 -0.88417006 110 74 76
-0.23405646 0.52827829 -0.88687164 102 76 79
-0.23444659 0.5263629 -0.88619488 110 72 79
-0.23352404 0.52838492 -0.88482052 108 75 77
-0.2402444 0.5233078 -0.88335663 130 102 102
-0.23953941 0.52482402 -0.88350463 143 123 113
-0.23948169 0.52488399 -0.88350207 143 125 114
-0.23256847 0.52219325 -0.8854562 94 58 63
-0.23379678 0.52148932 -0.88432878 107 69 81
-0.23245274 0.52349001 -0.88431323 101 63 69
-0.23279533 0.52378994 -0.88349497 108 69 77
-0.23276578 0.52331203 -0.8840245 104 66 73
-0.23283339 0.52477503 -0.8847146 104 65 72
-0.23249063 0.52263701 -0.88635206 89 54 58
-0.23380633 0.52432895 -0.88653827 102 64 71
-0.23281382 0.52407759 -0.88537961 99 62 68
-0.23408084 0.52520269 -0.88605988 108 69 77
-0.23365875 0.52425003 -0.88640726 101 64 70
-0.23322053 0.52316141 -0.88686687 93 58 63
-0.23235261 0.52237588 -0.88644391 88 53 57
-0.23227257 0.52404642 -0.88470572 99 61 67
-0.23236212 0.52338028 -0.88461906 99 62 67
-0.23223545 0.52313 -0.88518262 95 59 63
-0.23231199 0.52417296 -0.88393259 103 65 71
-0.23329233 0.5214293 -0.88519555 99 63 71
-0.23387936 0.51843166 -0.88704467 101 65 75
-0.23297775 0.5203287 -0.88687211 91 56 62
-0.23348024 0.52071691 -0.88568318 100 63 72
-0.23408812 0.51939338 -0.88583905 106 69 81
-0.23391663 0.52031422 -0.88530833 106 68 80
-0.23394999 0.51846856 -0.88689327 102 66 77
-0.23397361 0.51817024 -0.88514793 106 67 81
-0.23412427 0.51977736 -0.88371074 111 71 87
-0.23376475 0.51856846 -0.88385189 106 66 81
-0.23418541 0.51959074 -0.88417786 111 72 87
-0.2342132 0.51879245 -0.88528371 109 70 85
-0.23265162 0.51398885 -0.88399535 112 74 83
-0.23279531 0.51539326 -0.88354206 107 67 79
-0.23287836 0.5150308 -0.88396454 109 71 82
-0.23262522 0.51467413 -0.88362223 108 70 80
-0.23308203 0.51520777 -0.88431114 111 72 83
-0.23381416 0.51429021 -0.88661122 123 87 94
-0.23380613 0.51661479 -0.88563991 109 71 83
-0.23392409 0.5166716 -0.88606721 109 71 84
-0.23396483 0.51455504 -0.8870793 122 86 94
-0.23403423 0.51620948 -0.88667482 113 76 86
-0.23401803 0.51609659 -0.88665855 113 76 87
-0.2335449 0.51262826 -0.88520354 128 93 100
-0.23292659 0.51255792 -0.88362104 121 85 93
-0.23303325 0.51294076 -0.88428122 121 84 92
-0.23307066 0.51262033 -0.88403785 122 86 95
-0.23382473 0.51316828 -0.88645053 129 93 100
-0.23370096 0.51173925 -0.88677132 128 91 97
-0.23350099 0.50990367 -0.8866818 127 89 96
-0.23384829 0.51307493 -0.88682288 129 93 99
-0.23304181 0.50850296 -0.88633919 127 88 96
-0.23252133 0.50700927 -0.88559115 128 89 98
-0.23206131 0.50632709 -0.88679105 122 85 92
-0.23235191 0.5076502 -0.88710237 116 76 86
-0.23949285 0.5333932 -0.87409496 170 129 123
-0.23999037 0.53162253 -0.87497061 176 138 127
-0.2383679 0.53051829 -0.87296534 159 108 116
-0.23844407 0.52932918 -0.87303466 159 115 118
-0.23872294 0.53074825 -0.87340385 163 115 119
-0.23920575 0.53116769 -0.87400246 168 123 122
-0.23936956 0.53141624 -0.87420762 169 126 123
-0.23906527 0.53174806 -0.87383091 166 118 120
-0.23773834 0.53132409 -0.87181801 151 103 111
-0.23773125 0.53145784 -0.87176901 150 104 110
-0.23929095 0.5324384 -0.87399954 168 124 121
-0.2382945 0.53254044 -0.87236989 156 115 114
-0.23844416 0.53298682 -0.87248492 157 118 114
-0.24011306 0.52886659 -0.87527192 176 153 130
-0.2381319 0.5279513 -0.87324387 155 118 114
-0.23907201 0.52680683 -0.87489593 164 145 120
-0.23894934 0.52867085 -0.87392682 164 130 121
-0.23793134 0.52852803 -0.87274522 154 110 113
-0.23814127 0.5284307 -0.87304461 156 115 115
-0.23909587 0.52668697 -0.87497777 164 146 120
-0.23813204 0.52727467 -0.87354136 155 122 113
-0.23730852 0.52830076 -0.87178725 153 106 113
-0.23761 0.52810609 -0.87243521 152 108 112
-0.23828562 0.52642399 -0.87391245 159 136 116
-0.23737504 0.52675045 -0.8719607 165 132 121
-0.23822133 0.52577698 -0.87378818 165 147 120
-0.23735289 0.52836603 -0.87188071 152 104 112
-0.23859981 0.52391344 -0.87496883 159 139 119
-0.23817466 0.52335322 -0.87402481 159 141 120
-0.23882522 0.52504081 -0.87513852 161 151 118
-0.23848684 0.52385575 -0.87468165 159 141 119
-0.2383703 0.52256817 -0.87487471 156 123 120
-0.23728952 0.52180052 -0.87221318 158 139 123
-0.23854949 0.52492636 -0.87453789 163 152 119
-0.23727907 0.52347696 -0.8719517 166 149 125
-0.23711371 0.52432662 -0.87152368 172 153 128
-0.23754121 0.52341557 -0.87251711 164 148 123
-0.23785244 0.52389663 -0.87313956 163 149 122
-0.23861922 0.52532965 -0.87465131 164 153 120
-0.23786232 0.51950574 -0.87445027 136 97 107
-0.23668739 0.51761085 -0.87213999 109 74 86
-0.2380468 0.5194906 -0.87484634 138 101 109
-0.23780572 0.52006972 -0.87426901 138 95 108
-0.23813638 0.51935118 -0.87505281 139 104 109
-0.23750466 0.52126169 -0.87302363 153 124 120
-0.23675101 0.51916015 -0.87183923 126 94 99
-0.23774587 0.52036458 -0.87406361 140 96 110
-0.23732112 0.52130133 -0.87250304 155 129 121
-0.23696031 0.52132314 -0.87150317 156 139 122
-0.23774143 0.52145535 -0.8735922 155 122 122
-0.23688281 0.51443231 -0.8734892 126 86 100
-0.23737662 0.51381326 -0.87505281 131 93 105
-0.23652492 0.51582128 -0.87219423 116 77 92
-0.23686986 0.51442885 -0.87345159 126 86 100
-0.23656787 0.51606363 -0.87228113 114 76 91
-0.23634323 0.5167219 -0.87150687 110 71 87
-0.23699756 0.51568604 -0.87355566 119 82 95
-0.2365723 0.51695013 -0.87214583 109 71 87
-0.23695105 0.51655382 -0.87311274 116 80 92
-0.23705409 0.51728719 -0.87304276 115 82 91
-0.237828 0.51741707 -0.87464637 126 100 99
-0.23798418 0.51747197 -0.87495857 128 103 100
-0.23629053 0.51539415 -0.87162614 118 78 94
-0.2369789 0.51301181 -0.87413996 128 88 101
-0.23685694 0.51080418 -0.87457055 119 76 87
-0.23694806 0.51035547 -0.87500012 118 75 85
-0.23708344 0.51107085 -0.87514341 121 79 90
-0.2370187 0.51075786 -0.87506443 119 77 87
-0.23646185 0.51183754 -0.87256837 119 76 89
-0.23684464 0.5102511 -0.87453234 116 73 83
-0.2364064 0.51262045 -0.87232774 123 81 95
-0.23680669 0.50983518 -0.87429219 112 69 78
-0.23635709 0.51050425 -0.87189114 108 65 75
-0.23625945 0.50980306 -0.87152719 104 61 70
-0.23615797 0.51170564 -0.87152791 118 76 88
-0.23661092 0.50896358 -0.87337846 118 81 85
-0.23671517 0.50916517 -0.87390727 118 79 84
-0.23690902 0.50909567 -0.8749792 122 84 88
-0.23659939 0.50823551 -0.87346095 127 96 94
-0.23664297 0.50805497 -0.87373501 130 100 97
-0.23653769 0.50725609 -0.87375993 138 114 106
-0.23636572 0.50851065 -0.87256813 119 86 86
-0.23599024 0.50663203 -0.8731209 140 120 110
-0.23632081 0.50836372 -0.87256694 120 88 87
-0.23536937 0.50585997 -0.87256026 147 130 120
-0.23516963 0.50681347 -0.87160408 134 108 108
-0.23507778 0.50552148 -0.87216693 145 125 119
-0.23478323 0.50575393 -0.8715933 145 123 120
-0.23527575 0.5058282 -0.87241066 146 129 120
-0.24528188 0.57383037 -0.89056581 160 116 120
-0.2441629 0.57298207 -0.88986272 164 119 120
-0.24063207 0.57276452 -0.88756436 138 85 109
-0.24411602 0.57358181 -0.88984293 164 121 121
-0.2432794 0.57227218 -0.88920182 158 110 117
-0.24139856 0.5728175 -0.88783038 146 95 114
-0.24301916 0.57236171 -0.8890124 156 108 117
-0.24231678 0.57261908 -0.88850129 152 102 116
-0.24555528 0.57211024 -0.89069456 159 112 118
-0.24557814 0.5718345 -0.89069504 160 115 119
-0.24483274 0.57163632 -0.89022821 163 120 120
-0.24475618 0.57214957 -0.89020652 162 116 118
-0.24420401 0.56867486 -0.88960987 163 139 117
-0.24434535 0.57092845 -0.88986999 164 126 119
-0.24438813 0.56979579 -0.88981402 164 132 119
-0.24562258 0.56876528 -0.89054853 167 139 127
-0.24302194 0.57215673 -0.88901752 156 108 116
-0.24283819 0.57179421 -0.88889903 154 108 114
-0.24283247 0.57187617 -0.88889104 154 107 114
-0.24311316 0.57145536 -0.88911659 156 111 113
-0.24301131 0.57159096 -0.88903552 155 110 114
-0.24128091 0.5696736 -0.88785863 141 101 103
-0.24162497 0.56989652 -0.88810295 143 103 104
-0.24390519 0.5687111 -0.88942736 161 136 115
-0.24315003 0.57025069 -0.889081 155 118 112
-0.24164499 0.56902063 -0.88807172 143 108 103
-0.24395122 0.57121259 -0.88964105 162 122 117
-0.24363588 0.57148314 -0.88946879 159 116 115
-0.24405462 0.56906939 -0.88954508 162 135 116
-0.23967926 0.57185519 -0.8872605 127 75 99
-0.23989969 0.57128865 -0.88712281 131 80 101
-0.23795106 0.57213849 -0.8888374 94 51 64
-0.23861913 0.57058126 -0.88840121 104 65 72
-0.23975334 0.56946069 -0.88747811 124 85 90
-0.23796704 0.57065189 -0.88900054 91 57 58
-0.23929487 0.56841171 -0.88794667 114 80 80
-0.23635507 0.56967151 -0.89037609 61 30 31
-0.24001494 0.56837535 -0.88734496 128 92 92
-0.23675071 0.57074291 -0.89001864 69 36 38
-0.2363648 0.56898481 -0.89038485 61 31 31
-0.23646981 0.56981283 -0.89027661 63 32 33
-0.23712598 0.56943041 -0.88973689 75 43 44
-0.23614822 0.57170653 -0.89095777 60 31 29
-0.23623307 0.57092571 -0.89070821 61 31 30
-0.24565668 0.56651163 -0.8903988 160 138 116
-0.24632971 0.56754386 -0.89092028 166 141 127
-0.24610581 0.56723529 -0.89074951 164 140 124
-0.24520102 0.56515032 -0.89007026 144 120 105
-0.24421819 0.56767833 -0.88956904 157 134 113
-0.24568664 0.56544542 -0.89036697 152 130 110
-0.24539311 0.56458145 -0.89016581 141 116 103
-0.24494071 0.56459576 -0.88989866 136 110 100
-0.24191149 0.56650859 -0.88808554 129 96 94
-0.24244526 0.56467599 -0.88804668 125 94 89
-0.24092869 0.56747973 -0.88751429 130 95 95
-0.24268585 0.56564623 -0.88850969 127 96 93
-0.2430014 0.56539428 -0.88870907 127 97 93
-0.24362114 0.56647515 -0.88916808 141 114 103
-0.24195002 0.56748015 -0.88818079 137 106 100
-0.24380317 0.56706905 -0.88929802 148 122 107
-0.24241297 0.56710833 -0.88845134 137 107 100
-0.24356508 0.56824887 -0.88919026 157 133 113
-0.24288473 0.56769812 -0.88875782 146 119 106
-0.2383969 0.56813055 -0.88889992 97 64 64
-0.23899452 0.56575137 -0.88760847 105 72 70
-0.23825783 0.56645262 -0.88860339 92 60 59
-0.23725753 0.56722558 -0.88989627 74 44 43
-0.2382021 0.56718504 -0.88889885 92 60 59
-0.2396418 0.56758851 -0.88752937 119 85 84
-0.23912862 0.56541151 -0.88735855 108 74 72
-0.23841211 0.56684363 -0.88856936 95 63 62
-0.23982418 0.56701165 -0.88715243 122 87 86
-0.23705767 0.56653839 -0.89053816 59 33 33
-0.2388269 0.56462848 -0.88767052 97 65 63
-0.2374436 0.5657115 -0.89070261 52 30 30
-0.23656654 0.56723702 -0.89100963 54 28 28
-0.23835848 0.56455636 -0.8895424 66 42 42
-0.23269856 0.56573033 -0.88975388 37 19 21
-0.23249613 0.56590438 -0.89012098 35 18 20
-0.23328321 0.5657599 -0.8893953 43 21 23
-0.23409928 0.56655902 -0.88989395 46 22 24
-0.23331977 0.5664832 -0.89032406 39 20 21
-0.2359243 0.56819659 -0.8907035 55 27 28
-0.23398456 0.56493539 -0.88968343 47 25 26
-0.23550774 0.56591344 -0.89087182 53 29 29
-0.23529804 0.56656253 -0.89039779 52 27 28
-0.2354005 0.56649256 -0.89053154 53 27 28
-0.23558797 0.56734955 -0.89025563 55 28 28
-0.23494023 0.56660521 -0.88997996 52 26 27
-0.24642766 0.56405622 -0.89072514 153 129 111
-0.24591731 0.56376272 -0.89038724 148 122 109
-0.24653918 0.56307662 -0.89067096 158 131 117
-0.24630812 0.5630244 -0.89052784 155 128 116
-0.2445557 0.564318 -0.88964975 131 103 97
-0.24488114 0.56359237 -0.88975668 137 108 103
-0.24416408 0.56397092 -0.8894186 130 99 97
-0.24102648 0.56096363 -0.88753629 152 79 107
-0.24145494 0.56117249 -0.88778788 151 82 107
-0.24149257 0.56074214 -0.88779736 155 83 110
-0.24353762 0.56181878 -0.88900077 149 98 109
-0.24287549 0.56272304 -0.88864636 139 91 101
-0.24068782 0.56057453 -0.88733107 155 77 108
-0.24150416 0.562518 -0.88765407 139 84 98
-0.24095227 0.56143856 -0.88744557 148 78 104
-0.24179474 0.56432021 -0.88746864 125 91 87
-0.24285977 0.56389225 -0.88847166 129 92 93
-0.24184117 0.56309128 -0.88780189 135 87 96
-0.23918965 0.56176895 -0.88893378 111 59 76
-0.23928538 0.56169248 -0.88875103 114 59 79
-0.23945515 0.56087464 -0.88849032 131 70 91
-0.23943406 0.56124741 -0.88849753 125 65 86
-0.23819305 0.56290555 -0.89080465 70 46 46
-0.23874736 0.56188309 -0.88980037 99 59 68
-0.23872356 0.56322896 -0.88966256 78 41 52
-0.2392682 0.56232649 -0.88858533 107 54 73
-0.23865394 0.56349045 -0.8896485 75 41 49
-0.23908307 0.56360728 -0.88793939 102 62 68
-0.23927055 0.5626747 -0.88821477 109 59 74
-0.23954619 0.56240582 -0.88747436 124 68 85
-0.23433483 0.56379926 -0.89069498 51 29 28
-0.23260027 0.56442279 -0.88846356 42 21 24
-0.23252796 0.56373036 -0.88887405 45 23 24
-0.23361999 0.56423968 -0.88964683 47 25 26
-0.23343849 0.56346536 -0.89000171 49 27 27
-0.23244488 0.56164545 -0.89024919 54 28 26
-0.2406251 0.55871171 -0.88769531 137 93 103
-0.24259785 0.55934399 -0.88868695 146 104 110
-0.24203819 0.55902541 -0.88843542 142 102 108
-0.24287356 0.56044477 -0.88860887 158 97 115
-0.24286696 0.56040758 -0.8886131 158 97 115
-0.24126399 0.55780673 -0.88825393 128 105 102
-0.24152641 0.55675626 -0.8882674 124 110 97
-0.24267215 0.55723703 -0.88861507 134 112 100
-0.24269474 0.55860287 -0.88874799 141 108 107
-0.24381855 0.55997205 -0.88917238 156 107 115
-0.24236795 0.5583607 -0.88863909 138 108 106
-0.23698588 0.55858004 -0.89094228 81 39 48
-0.23814942 0.5600881 -0.89053279 107 69 73
-0.23746376 0.55910283 -0.89065254 92 49 58
-0.23842777 0.55987281 -0.88970983 113 63 76
-0.23811768 0.55946356 -0.88980973 106 55 70
-0.24005334 0.55752397 -0.88787323 121 95 95
-0.23756589 0.55749363 -0.88998991 84 45 54
-0.24003196 0.5586881 -0.88763422 132 85 98
-0.24003223 0.55952018 -0.88745016 140 78 101
-0.23701406 0.55788994 -0.89037043 79 30 46
-0.2375122 0.5579502 -0.8899346 87 40 54
-0.23880844 0.55760956 -0.88891029 103 69 75
-0.23684829 0.55679262 -0.88994569 81 38 50
-0.23634018 0.55703104 -0.89045846 74 25 41
-0.23582621 0.55714929 -0.89021307 76 30 43
-0.23608406 0.55747479 -0.8907153 70 23 37
-0.23398429 0.55887967 -0.89099348 65 25 31
-0.23505351 0.5578866 -0.89048558 72 29 39
-0.24460697 0.55286598 -0.88802642 137 112 114
-0.24623111 0.55437213 -0.88754368 168 138 137
-0.24529234 0.55419713 -0.8880502 157 130 129
-0.24041565 0.55372775 -0.88724339 139 101 104
-0.24333455 0.55345547 -0.88816285 130 108 108
-0.2428031 0.5535782 -0.88801509 131 107 107
-0.24080023 0.55352378 -0.8873294 139 101 105
-0.24160787 0.55466813 -0.88788515 126 106 103
-0.24086407 0.55568606 -0.88788885 120 106 99
-0.24262062 0.5562259 -0.88847232 130 113 98
-0.2430618 0.5550133 -0.88837355 130 111 103
-0.24275628 0.55458307 -0.88821632 127 109 104
-0.2408893 0.55657232 -0.88807607 119 108 96
-0.2428638 0.5553208 -0.88837582 129 111 102
-0.23663139 0.55561066 -0.88829917 91 48 58
-0.23976511 0.55371493 -0.88720042 135 94 98
-0.23720217 0.55535859 -0.88828439 98 55 65
-0.23868765 0.55448699 -0.88781732 119 76 83
-0.23793501 0.55570495 -0.88895679 101 59 68
-0.23926675 0.55556363 -0.88817966 115 85 86
-0.23977686 0.55586755 -0.88797301 117 96 92
-0.23982187 0.55416828 -0.88751626 132 94 96
-0.24019267 0.55530465 -0.88759857 125 103 98
-0.24469838 0.55013943 -0.88800263 191 167 161
-0.24540105 0.55254686 -0.88753748 143 118 116
-0.24509759 0.55101085 -0.88775134 174 150 145
-0.24582855 0.55105907 -0.88728476 166 142 133
-0.24447829 0.54904264 -0.88813776 208 186 177
-0.24571675 0.5496015 -0.88733232 183 161 149
-0.24208671 0.55020642 -0.88758552 148 123 113
-0.24365129 0.55037129 -0.88814062 174 150 145
-0.24116871 0.54924083 -0.88728255 151 126 111
-0.24200813 0.55004001 -0.8875618 150 125 115
-0.24383332 0.55059618 -0.88819981 172 149 145
-0.24135801 0.549743 -0.88733959 147 120 108
-0.24258856 0.55146098 -0.88774133 140 113 110
-0.24077462 0.55230623 -0.8871271 147 102 108
-0.24077928 0.55114424 -0.88713622 148 110 108
-0.24172916 0.55089313 -0.88745666 144 114 109
-0.24457638 0.54773742 -0.88785964 190 162 154
-0.24485408 0.54850465 -0.8878243 199 176 165
-0.24491362 0.54698455 -0.88749284 171 140 132
-0.24494503 0.54626256 -0.88734835 166 131 124
-0.24401948 0.5478496 -0.8880893 201 173 167
-0.24334835 0.54811639 -0.88789535 194 167 159
-0.2432695 0.54807353 -0.88785648 192 165 156
-0.24233419 0.54763895 -0.88741386 171 139 130
-0.24141861 0.54802775 -0.88718337 157 127 114
-0.24243419 0.5463177 -0.8871206 160 121 115
-0.24429145 0.54474658 -0.88745326 154 113 110
-0.23434258 0.53580338 -0.88823271 87 61 60
-0.23347424 0.53459179 -0.88794369 82 47 58
-0.23325233 0.53456712 -0.88755637 86 48 62
-0.2335812 0.5345614 -0.88817692 79 45 56
-0.23444994 0.53616285 -0.88803774 92 66 63
-0.23348476 0.53402215 -0.8885901 71 37 49
-0.23523656 0.5359391 -0.8901754 75 45 54
-0.23461261 0.53594029 -0.88867486 85 59 59
-0.23476876 0.53568399 -0.88933933 78 51 54
-0.23552313 0.53684372 -0.88984287 88 54 65
-0.23581192 0.53700781 -0.89035159 87 51 65
-0.23532911 0.53567201 -0.89069933 69 39 49
-0.2353884 0.53617287 -0.89027637 77 46 56
-0.23272333 0.53235304 -0.88725668 87 45 66
-0.23363891 0.53211701 -0.88888597 68 40 49
-0.23373343 0.53081626 -0.88808894 82 58 62
-0.23290685 0.53213477 -0.88745236 85 46 65
-0.23363809 0.5305233 -0.88767892 88 63 68
-0.23401313 0.53292584 -0.89023739 49 26 31
-0.23391046 0.53199881 -0.88933331 63 40 44
-0.23425768 0.53127164 -0.89077741 43 26 27
-0.23419504 0.53110129 -0.89024556 51 34 34
-0.23408248 0.53047442 -0.88931274 65 47 48
-0.23408286 0.5295195 -0.88938409 65 48 48
-0.23406205 0.53052437 -0.8891319 68 49 50
-0.23488712 0.52574402 -0.88802123 103 68 75
-0.234791 0.52629328 -0.88858539 93 62 68
-0.23486996 0.5257467 -0.89098781 101 70 76
-0.23461303 0.52729529 -0.89007545 75 50 54
-0.23452516 0.52781618 -0.89002782 66 44 47
-0.23478954 0.52615029 -0.88761067 100 66 73
-0.23388773 0.52928704 -0.88768077 90 71 71
-0.23437996 0.52849275 -0.88995397 59 39 41
-0.23424542 0.52837354 -0.88848561 81 59 60
-0.23446038 0.52717036 -0.88732177 101 72 76
-0.23462611 0.5270257 -0.88839644 86 57 62
-0.23290722 0.52241671 -0.89016771 85 53 56
-0.2333786 0.52310443 -0.89057356 90 58 62
-0.23249303 0.52181226 -0.88981456 81 49 51
-0.23248282 0.52185827 -0.88744962 84 50 53
-0.23389404 0.52388388 -0.88995641 96 64 69
-0.23359817 0.52341866 -0.89099878 92 60 64
-0.234824 0.52520835 -0.88713872 108 70 78
-0.23367143 0.52357471 -0.88872516 95 62 67
-0.23489518 0.52532274 -0.88871598 108 72 80
-0.23375255 0.52368438 -0.88794976 97 62 67
-0.23474759 0.52509987 -0.88721752 107 70 77
-0.23363206 0.52351671 -0.8885057 95 61 66
-0.23265776 0.51248717 -0.88930678 105 64 73
-0.23245434 0.51094282 -0.88866758 103 64 74
-0.23273353 0.51354349 -0.88990384 106 62 72
-0.23254067 0.51158279 -0.88892746 104 64 74
-0.23370747 0.51364338 -0.88752055 124 87 94
-0.23349382 0.51083905 -0.88715297 124 86 93
-0.23233043 0.51073182 -0.88881832 102 64 73
-0.23157014 0.51054662 -0.89048159 95 71 74
-0.23210654 0.51126236 -0.88975048 99 64 72
-0.23190336 0.5118221 -0.89065552 97 64 70
-0.23235029 0.51320356 -0.8906399 99 54 65
-0.23237972 0.5133664 -0.89067805 99 54 65
-0.2331683 0.5094499 -0.8871752 121 82 90
-0.23377419 0.53821552 -0.86483151 160 124 125
-0.23385501 0.53805643 -0.86505455 158 124 123
-0.23306057 0.53784388 -0.86398351 154 119 118
-0.23311706 0.53404599 -0.86483443 142 89 108
-0.23244041 0.53324735 -0.86404634 141 78 108
-0.23349713 0.53339398 -0.86547768 142 86 107
-0.23399529 0.5343976 -0.86596501 144 97 108
-0.23311955 0.5360319 -0.86442053 145 105 110
-0.23252754 0.53519183 -0.86380768 144 94 109
-0.2343663 0.53500348 -0.8664754 144 105 107
-0.23423551 0.53655851 -0.8662225 146 117 108
-0.2345259 0.53646135 -0.86671817 146 118 107
-0.23442757 0.53675205 -0.86654532 146 120 108
-0.23339808 0.53619081 -0.86480564 146 108 110
-0.23341267 0.53680599 -0.86481845 146 113 110
-0.233504 0.5358761 -0.86499196 145 106 109
-0.23243591 0.53095168 -0.86368024 144 111 112
-0.23319185 0.53287321 -0.86503911 142 87 107
-0.23359783 0.53251183 -0.86554217 142 95 108
-0.23254189 0.53279769 -0.86413038 141 84 108
-0.23433754 0.5331015 -0.86665612 142 92 106
-0.23266095 0.53115427 -0.86403471 143 109 111
-0.23272443 0.53178144 -0.86422145 143 101 110
-0.2348841 0.53296733 -0.86739874 143 97 106
-0.23477894 0.53108358 -0.86725187 148 113 109
-0.23469779 0.52968514 -0.86713773 152 125 111
-0.23441644 0.52975589 -0.86666858 150 126 111
-0.23484805 0.52991474 -0.86738425 151 123 111
-0.23466238 0.52956986 -0.86708051 152 126 111
-0.23229872 0.53205067 -0.86370438 141 94 109
-0.23452608 0.52596051 -0.86699224 145 106 103
-0.23349096 0.52617729 -0.86526829 152 101 112
-0.23318972 0.52574426 -0.86478615 152 97 113
-0.2348558 0.52799541 -0.86745834 150 120 108
-0.23387958 0.52584875 -0.86592525 148 102 108
-0.23479435 0.5268333 -0.86740237 146 113 104
-0.23338246 0.52784944 -0.86501819 152 116 114
-0.23351826 0.52819538 -0.86522919 152 120 114
-0.23295054 0.5274229 -0.86431819 152 113 115
-0.23294142 0.52847892 -0.86425728 149 126 114
-0.23315522 0.52660924 -0.86469412 154 102 116
-0.23315389 0.52921438 -0.86457878 148 133 113
-0.23380154 0.5230155 -0.8660273 146 114 108
-0.23377997 0.52164185 -0.86651564 138 104 104
-0.23367983 0.52208114 -0.86610991 142 110 107
-0.23421006 0.52332145 -0.86685997 140 106 103
-0.23434545 0.52333552 -0.86717021 138 103 101
-0.23395681 0.5244441 -0.86606127 148 110 107
-0.23318644 0.52339035 -0.86477345 154 117 115
-0.23266742 0.52258444 -0.86390477 158 123 120
-0.23262303 0.524427 -0.86385077 156 102 118
-0.23326586 0.52278328 -0.86489862 154 125 115
-0.23256096 0.52179718 -0.86372 160 131 122
-0.23250957 0.51917624 -0.86413962 154 136 121
-0.23394395 0.51765168 -0.86692941 137 98 111
-0.23245341 0.5176388 -0.86445224 150 138 120
-0.23253734 0.52019793 -0.86391604 157 134 122
-0.2330938 0.51947427 -0.86503929 150 120 118
-0.23300558 0.51997256 -0.86479056 152 122 118
-0.23395889 0.51889032 -0.8668198 138 97 110
-0.23311995 0.52107179 -0.86501062 150 120 115
-0.23399718 0.51920694 -0.86693048 137 97 108
-0.23362474 0.52049637 -0.86614889 141 107 109
-0.2335587 0.52000523 -0.86596179 144 108 112
-0.23360182 0.5213908 -0.8661558 140 108 107
-0.23217075 0.51908594 -0.8637737 152 136 119
-0.23385651 0.51604056 -0.8672331 143 104 115
-0.23356216 0.51519096 -0.86698067 148 114 119
-0.23307829 0.51649302 -0.86581147 148 124 119
-0.23361349 0.51441187 -0.86728382 150 115 121
-0.23305354 0.51635003 -0.86581022 149 125 120
-0.23286524 0.51493615 -0.86586851 144 113 115
-0.23269442 0.5160988 -0.86527103 147 125 118
-0.23343036 0.51417702 -0.86704028 151 117 121
-0.23126143 0.51396066 -0.86405712 114 79 94
-0.23221485 0.51463318 -0.86495113 131 97 105
-0.2313239 0.51380765 -0.86416703 114 78 94
-0.23189992 0.51742965 -0.86393863 145 132 115
-0.2331029 0.51212436 -0.86698651 146 107 119
-0.23357385 0.51302665 -0.86757725 153 115 123
-0.2335635 0.51308048 -0.86754626 152 115 123
-0.23283044 0.51012528 -0.86693352 148 105 122
-0.23263039 0.51135868 -0.8662926 140 96 114
-0.23280877 0.51068681 -0.86678463 145 103 120
-0.23149545 0.5112673 -0.86480153 127 80 101
-0.23231401 0.51329339 -0.8653785 128 85 103
-0.23150785 0.51059967 -0.86493993 130 81 103
-0.23232424 0.51325327 -0.86539787 128 85 103
-0.23116425 0.51341575 -0.86406493 113 75 93
-0.23102318 0.51272279 -0.8640191 115 74 93
-0.23107466 0.51347989 -0.86395407 111 74 92
-0.23170336 0.51255387 -0.86480939 124 80 99
-0.23309062 0.50723702 -0.86728013 168 134 146
-0.23268506 0.50884718 -0.86660779 151 107 126
-0.23252846 0.50863677 -0.86625129 147 103 122
-0.23251796 0.50824565 -0.86618161 147 106 122
-0.23266926 0.5081498 -0.86649466 153 112 129
-0.23203614 0.50865024 -0.86563241 139 94 111
-0.23039801 0.50950843 -0.86379075 123 73 95
-0.23083526 0.50964385 -0.86430597 127 77 99
-0.24588387 0.55561543 -0.88247728 201 185 164
-0.2457677 0.55418152 -0.88262403 198 175 160
-0.24535333 0.55074102 -0.88215375 200 173 158
-0.24530818 0.55093491 -0.88199025 198 172 156
-0.23659967 0.54528421 -0.88230348 121 89 90
-0.23663601 0.54570198 -0.8825649 119 87 89
-0.23522049 0.54501599 -0.88249499 106 69 71
-0.2346991 0.54551524 -0.88303405 96 59 60
-0.2448656 0.54132348 -0.88312119 171 146 136
-0.24476311 0.5433175 -0.88243192 191 172 156
-0.24467048 0.54408967 -0.88202697 199 181 164
-0.24492499 0.54173231 -0.88318962 175 152 139
-0.2443513 0.54197419 -0.88176012 196 170 155
-0.24468981 0.54139817 -0.88268518 177 151 141
-0.24415968 0.54209995 -0.88129187 206 179 163
-0.23767669 0.54481208 -0.88293636 134 111 105
-0.23755835 0.5432775 -0.88273835 124 90 90
-0.23684497 0.54488498 -0.88229078 126 96 95
-0.23677112 0.54137534 -0.88206387 98 58 65
-0.23764509 0.54187644 -0.88272339 116 76 79
-0.2365604 0.54318929 -0.88198608 110 73 77
-0.23682757 0.54195124 -0.88212925 104 65 71
-0.23303202 0.543212 -0.88278151 81 39 47
-0.23380162 0.54327917 -0.88236517 90 50 58
-0.23370604 0.54456973 -0.88303083 87 49 50
-0.23359138 0.5440343 -0.88283175 86 47 51
-0.23453052 0.5437901 -0.88224542 99 60 67
-0.23437174 0.54275411 -0.88192117 96 56 67
-0.23550354 0.54264092 -0.88184512 99 60 69
-0.23621759 0.54165471 -0.88175881 93 54 62
-0.23553596 0.54341531 -0.88187563 106 68 75
-0.23427221 0.54105163 -0.88185596 82 39 54
-0.2322937 0.54232955 -0.88309717 76 29 43
-0.24468145 0.54075944 -0.88281447 179 152 140
-0.24469456 0.53865838 -0.88319337 185 163 142
-0.24456972 0.53750074 -0.88310331 195 176 148
-0.24429861 0.53843325 -0.88237798 200 178 151
-0.24337855 0.53765476 -0.8812508 197 176 148
-0.24340101 0.5373528 -0.88134068 197 176 147
-0.24305713 0.53766328 -0.8808369 197 175 148
-0.24355522 0.53724617 -0.88156009 196 177 147
-0.23774312 0.53988969 -0.88297123 113 78 78
-0.23720656 0.5408662 -0.88239515 103 63 68
-0.23741582 0.53757131 -0.88316911 112 89 83
-0.23806193 0.54041827 -0.8831045 117 78 80
-0.23681824 0.53711259 -0.882779 102 80 78
-0.23411728 0.53761077 -0.88308525 84 52 60
-0.23406774 0.53922617 -0.88223273 83 47 59
-0.23415364 0.53830439 -0.88275242 85 51 61
-0.23400627 0.53915602 -0.88230669 83 47 59
-0.23554963 0.53766799 -0.88243586 90 62 68
-0.23575354 0.54054421 -0.88184077 87 48 58
-0.23562269 0.54086083 -0.88179559 86 46 57
-0.23555511 0.53957129 -0.88201737 88 52 61
-0.23459405 0.539406 -0.88210577 85 49 60
-0.23494741 0.5406571 -0.88187248 84 44 56
-0.23324007 0.54024839 -0.8820489 79 38 54
-0.23219252 0.54083228 -0.88251752 76 32 49
-0.24419343 0.53669715 -0.88258028 195 179 144
-0.24313943 0.53681231 -0.88116652 195 175 145
-0.24329752 0.53577977 -0.88175905 192 174 140
-0.24318835 0.53555882 -0.88170248 191 173 139
-0.24383788 0.53648978 -0.88218403 194 177 143
-0.24265678 0.53586537 -0.88090503 192 171 140
-0.2425932 0.53539062 -0.88099432 190 170 138
-0.24293044 0.5344817 -0.88168192 188 168 134
-0.24246401 0.53537071 -0.88071865 190 167 138
-0.23730901 0.53679657 -0.88314122 112 89 85
-0.23745468 0.53503346 -0.88306463 118 80 91
-0.23653272 0.53456938 -0.88221782 106 59 80
-0.23671971 0.53326887 -0.88220429 113 56 85
-0.23697977 0.53478497 -0.88263661 111 68 86
-0.2351401 0.53379893 -0.88276815 96 43 71
-0.2348696 0.53485471 -0.88291937 92 46 67
-0.2351478 0.53550094 -0.88265663 93 52 69
-0.23477924 0.53646529 -0.88293505 88 54 64
-0.23557456 0.53548443 -0.88247412 96 55 71
-0.23530115 0.5361225 -0.88267338 92 56 68
-0.24147396 0.52961808 -0.88022912 171 153 124
-0.24180508 0.52984422 -0.88249844 164 132 116
-0.24302875 0.53202182 -0.88314736 177 155 123
-0.24193971 0.53039879 -0.88075387 175 158 125
-0.24214047 0.53060246 -0.88174587 172 151 122
-0.2417634 0.52984977 -0.8820166 166 137 118
-0.24242063 0.53210491 -0.8809216 180 157 129
-0.24302784 0.53288883 -0.88195187 183 162 129
-0.24156043 0.52990437 -0.87982696 174 160 127
-0.24197337 0.53122622 -0.88026363 177 156 128
-0.24251844 0.53178895 -0.8812356 180 161 128
-0.24242206 0.53130132 -0.88119358 179 164 127
-0.2376425 0.53202039 -0.88260585 122 73 89
-0.23755814 0.53180051 -0.88245916 120 72 87
-0.23744336 0.53197712 -0.88241792 119 70 86
-0.23664421 0.53160071 -0.88173562 101 55 73
-0.23829412 0.53052223 -0.88269305 125 86 87
-0.23719846 0.53002959 -0.8817957 99 67 70
-0.23767817 0.53136307 -0.88243043 120 74 85
-0.2371868 0.53170335 -0.8821494 112 65 81
-0.23470095 0.52961934 -0.88213253 92 60 64
-0.23370136 0.53092778 -0.88314313 102 58 72
-0.23420314 0.53167039 -0.88303953 98 49 69
-0.23448239 0.53023845 -0.88244957 94 57 66
-0.23529246 0.52985895 -0.881827 86 54 61
-0.23366921 0.5296405 -0.88279212 102 67 71
-0.2361092 0.53274506 -0.88193011 102 47 76
-0.23544605 0.53241605 -0.88238984 94 42 68
-0.23627995 0.5331468 -0.88188028 107 48 80
-0.24120578 0.52644873 -0.88275486 164 143 124
-0.24136674 0.52799189 -0.8826943 160 130 115
-0.2411029 0.5255419 -0.8827287 167 151 129
-0.24110746 0.52607453 -0.88232768 164 148 124
-0.24127522 0.52675182 -0.88302481 164 140 124
-0.24137312 0.52903318 -0.88142222 163 137 117
-0.24096501 0.52715075 -0.88008678 161 154 116
