ply
format ascii 1.0
comment PCL generated
element vertex 992
property float x
property float y
property float z
property uchar red
property uchar green
property uchar blue
element camera 0
property float view_px
property float view_py
property float view_pz
property float x_axisx
property float x_axisy
property float x_axisz
property float y_axisx
property float y_axisy
property float y_axisz
property float z_axisx
property float z_axisy
property float z_axisz
property float focal
property float scalex
property float scaley
property float centerx
property float centery
property int viewportx
property int viewporty
property float k1
property float k2
end_header
0.16674416 -0.056966569 -0.79736 231 232 239
0.16718763 -0.059610594 -0.79841632 231 232 239
0.16670385 -0.058588814 -0.79763794 231 232 239
0.16753082 -0.060525306 -0.79900652 231 232 239
0.16637327 -0.059105877 -0.79735017 231 232 239
-0.24465702 -0.061786264 -0.80081409 245 240 243
-0.24434835 -0.060939085 -0.80023974 245 240 243
-0.2445554 -0.062301405 -0.80077797 245 240 243
-0.24448268 -0.064182229 -0.80104464 245 241 244
-0.24216381 -0.063637242 -0.79821658 245 241 244
-0.2424731 -0.063236102 -0.79849416 245 241 244
-0.24344544 -0.062501304 -0.79947048 245 241 244
-0.24241589 -0.062851489 -0.79835266 245 241 244
-0.24219686 -0.06344004 -0.79821587 245 241 244
-0.24399734 -0.064448744 -0.8004896 245 241 244
-0.24324289 -0.060869824 -0.79886347 245 240 243
-0.24271996 -0.062369395 -0.79860437 245 240 243
-0.24302889 -0.061791424 -0.79883671 245 240 243
-0.24279679 -0.061468087 -0.79846722 245 240 243
0.16591559 -0.062190972 -0.7977308 232 233 240
0.16599734 -0.062580414 -0.79797333 233 234 240
0.16696523 -0.064145438 -0.79977012 233 234 239
0.16736491 -0.064252503 -0.80030566 233 234 239
0.16620636 -0.062582687 -0.79823124 232 233 239
0.16664204 -0.061968986 -0.79853457 232 233 239
0.16682041 -0.062356528 -0.798904 232 233 239
0.16724487 -0.06147733 -0.79905361 232 233 239
0.16867082 -0.062365137 -0.80110705 231 232 239
0.16789752 -0.062934011 -0.80042416 232 233 239
0.1685922 -0.062247895 -0.80096579 231 232 239
0.16779895 -0.062450685 -0.80010921 232 233 239
0.16715045 -0.06110784 -0.79879022 231 232 239
0.16820365 -0.062168829 -0.80047309 232 233 239
-0.24184076 -0.065159924 -0.79810739 245 242 245
-0.24294227 -0.066708222 -0.79960215 245 242 245
-0.24291694 -0.065849617 -0.79944807 245 242 245
-0.24381153 -0.065113597 -0.8003723 245 242 245
-0.24395862 -0.066641107 -0.80076396 245 242 245
-0.24205519 -0.065305196 -0.79837567 245 242 245
-0.24214497 -0.068329319 -0.79904175 245 243 245
-0.24164814 -0.066129513 -0.79807699 245 242 245
-0.24170859 -0.065608151 -0.79804236 245 242 245
-0.2415525 -0.067231342 -0.79818505 245 242 245
-0.24116725 -0.067556106 -0.79782814 245 243 245
-0.24209592 -0.067906544 -0.79890692 245 242 245
-0.24386652 -0.068181135 -0.80088788 245 242 245
0.16598098 -0.067752026 -0.80040145 232 233 240
0.16597685 -0.065762796 -0.79935521 233 234 239
0.16506077 -0.064509891 -0.79765809 233 234 240
0.16480099 -0.067439586 -0.79887271 231 232 239
0.16485867 -0.068205476 -0.79933423 231 232 239
0.16354479 -0.068165846 -0.79778606 230 231 238
0.16515777 -0.067473441 -0.79930502 232 233 239
0.16413736 -0.068275928 -0.79853177 230 231 238
0.16498263 -0.066650979 -0.7986778 232 233 239
0.16499801 -0.065521903 -0.79811418 233 234 239
0.16638455 -0.068268545 -0.80115807 232 233 240
0.16630787 -0.065600507 -0.79967588 233 234 240
0.16616079 -0.066502467 -0.7999661 232 233 240
0.16729787 -0.065783828 -0.80099654 232 233 240
0.16705623 -0.065537073 -0.80056834 232 233 240
-0.24026722 -0.07209155 -0.79791981 246 245 247
-0.2413632 -0.071374618 -0.79887575 246 244 246
-0.24122667 -0.071618043 -0.79879719 246 245 246
-0.24149306 -0.072154447 -0.79921639 246 245 247
-0.24047075 -0.069163926 -0.79739857 246 244 246
-0.24039836 -0.069075786 -0.79730117 246 244 246
-0.24346858 -0.070444249 -0.80092937 246 243 246
-0.24208775 -0.069669805 -0.79926211 246 243 246
-0.24139999 -0.068917863 -0.79835433 246 243 246
-0.24160504 -0.069093905 -0.7986148 246 243 245
-0.24315225 -0.071959384 -0.80090493 246 244 245
-0.24351767 -0.071250603 -0.80115318 246 244 246
-0.2432543 -0.070929237 -0.80079842 246 244 246
-0.24256504 -0.06883321 -0.79960507 245 243 246
-0.24002679 -0.072253123 -0.797701 246 245 247
0.16202094 -0.070922159 -0.79742396 226 227 237
0.16242768 -0.070797339 -0.79782408 226 228 237
0.16282289 -0.070113584 -0.79794949 228 229 237
0.16335215 -0.069548681 -0.79830384 229 230 237
0.16330449 -0.06964203 -0.79829407 229 230 237
0.16266277 -0.071249217 -0.79834563 226 228 237
0.16346695 -0.070716359 -0.79905379 228 229 237
0.16504285 -0.068669431 -0.79979712 231 232 239
0.16387293 -0.070250593 -0.79930079 229 230 238
0.16531827 -0.069559015 -0.80060345 230 231 239
0.165216 -0.068489343 -0.7999 231 232 239
0.16520484 -0.068530716 -0.79990959 231 232 239
0.16453396 -0.069724843 -0.79978216 229 231 238
0.16347639 -0.069525667 -0.79844356 229 230 238
0.16557536 -0.069752395 -0.80101931 230 231 239
-0.2425129 -0.0749631 -0.80089879 248 245 247
-0.24164476 -0.07338085 -0.79964721 247 245 247
-0.24059716 -0.072831601 -0.7984336 247 245 247
-0.24229997 -0.072888769 -0.80022401 247 245 246
-0.24314666 -0.073086359 -0.80115116 247 245 246
-0.24195546 -0.072985843 -0.79988551 247 245 247
-0.24057756 -0.074041978 -0.79870754 247 246 248
-0.24063659 -0.075308487 -0.79907531 248 246 248
-0.24052037 -0.073587149 -0.79853952 247 246 248
-0.24124333 -0.074665785 -0.79952568 248 246 248
-0.23985805 -0.073870435 -0.79795712 247 246 248
-0.23898549 -0.076140024 -0.79766345 248 246 248
-0.24018766 -0.075100183 -0.79857683 248 246 248
-0.23995423 -0.072624028 -0.7977311 247 246 248
0.16196802 -0.072653607 -0.79828626 224 226 237
0.16149592 -0.074717924 -0.79908168 223 224 237
0.1606137 -0.074385464 -0.7976824 223 224 237
0.16064355 -0.074279197 -0.79765117 223 225 237
0.16011693 -0.075415634 -0.79770863 222 223 237
0.16124915 -0.072671294 -0.79738379 225 226 237
0.16089992 -0.075195238 -0.7986058 222 224 237
0.16336106 -0.074285753 -0.80111969 225 226 237
0.16373445 -0.07288526 -0.80061436 226 228 237
0.16282856 -0.072999224 -0.79958159 225 227 237
0.16315286 -0.072568245 -0.79968411 226 228 237
0.16378467 -0.072756268 -0.80058765 226 228 237
0.16372709 -0.072355136 -0.8002423 226 228 237
0.16293366 -0.073315948 -0.79992735 225 227 237
-0.24063717 -0.077662371 -0.79982424 248 246 248
-0.24191648 -0.077171788 -0.80092704 248 245 248
-0.24089457 -0.078241795 -0.80029082 248 245 248
-0.24101201 -0.078645252 -0.80055392 248 245 248
-0.24026631 -0.076366566 -0.7989853 248 246 248
-0.2404424 -0.077767245 -0.79966348 248 246 248
-0.23902862 -0.079015292 -0.79870421 248 246 248
-0.23833941 -0.078742996 -0.7979275 248 246 248
-0.23858362 -0.079769194 -0.79853308 248 246 248
-0.23955594 -0.078408711 -0.79900891 248 246 248
-0.23908547 -0.077958122 -0.79838467 248 246 248
-0.23995554 -0.078799091 -0.79954183 248 245 248
-0.23783083 -0.078990765 -0.79751712 248 246 249
-0.23860087 -0.078110754 -0.79796273 248 246 249
-0.23891139 -0.077341899 -0.79800045 248 247 249
0.15745254 -0.079939492 -0.79800498 211 215 237
0.15737981 -0.079814494 -0.79778183 212 215 237
0.15882418 -0.077333368 -0.79752117 218 220 237
0.15854254 -0.077677406 -0.7974382 217 220 237
0.15935324 -0.079434842 -0.80019766 210 213 237
0.1588856 -0.080036744 -0.80011278 209 212 237
0.1594542 -0.078163892 -0.79916555 214 217 237
0.15967047 -0.078109629 -0.79940623 214 217 237
0.16078162 -0.077572837 -0.8003934 217 219 237
0.16156627 -0.077026062 -0.80093586 219 221 237
0.15992548 -0.078699619 -0.8002907 212 216 237
0.16043957 -0.077518262 -0.79988676 217 219 237
0.16049197 -0.076233909 -0.79877192 221 223 237
0.16073884 -0.077258691 -0.80004656 218 220 237
0.16137956 -0.077523917 -0.80113637 217 219 237
-0.24029914 -0.080856435 -0.80065131 247 244 247
-0.23850402 -0.080369979 -0.79865879 247 245 248
-0.23649295 -0.082308903 -0.79730242 246 243 246
-0.23860012 -0.080265388 -0.79871976 247 245 248
-0.23856567 -0.080803797 -0.79886001 247 244 247
-0.2382791 -0.081468582 -0.79879045 246 243 246
-0.23651056 -0.082633078 -0.7974233 246 242 246
-0.23658337 -0.082534805 -0.79746461 246 243 246
-0.23653334 -0.083832823 -0.79780769 244 240 244
-0.24021442 -0.081680477 -0.80089539 246 243 246
-0.23795648 -0.083091736 -0.79903811 245 241 245
-0.23845175 -0.081888817 -0.79908568 246 242 246
-0.23738261 -0.08376538 -0.79868525 244 240 244
-0.23943113 -0.083511703 -0.80076325 244 241 244
-0.23964399 -0.082665749 -0.80067617 245 242 245
-0.23626827 -0.083005011 -0.79729158 245 242 245
0.15420334 -0.082530327 -0.79815805 171 184 233
0.15326735 -0.083576418 -0.79848689 148 165 229
0.15419254 -0.082137719 -0.79747289 181 192 235
0.15417653 -0.082801834 -0.79857862 164 179 232
0.15353619 -0.082852222 -0.79767108 165 179 232
0.15470068 -0.082205415 -0.79824644 176 188 233
0.15435785 -0.08288867 -0.79898816 161 176 231
0.15680458 -0.080120072 -0.79728299 211 215 237
0.15435132 -0.0834819 -0.79999006 146 164 227
0.15449606 -0.083876222 -0.80082715 136 156 225
0.15604314 -0.082396679 -0.80030996 164 178 230
0.15655497 -0.080813393 -0.79817605 197 204 235
0.15770893 -0.080195464 -0.79871881 208 212 237
0.15659243 -0.081747182 -0.79992378 177 188 232
0.15739067 -0.081290044 -0.80021286 188 196 235
0.15755695 -0.081176877 -0.80024034 190 198 235
0.15488026 -0.083797529 -0.80116701 138 158 225
0.15859424 -0.080326669 -0.80017847 205 210 237
0.15909629 -0.080247276 -0.8007285 206 210 238
-0.23645845 -0.084168859 -0.79783922 244 240 243
-0.23674098 -0.084496722 -0.79823261 244 240 243
-0.23779148 -0.086015902 -0.79978126 244 240 243
-0.23799029 -0.086166635 -0.80003518 244 240 243
-0.2391874 -0.085042626 -0.80098253 244 240 243
-0.23873907 -0.086184464 -0.80083412 244 240 243
-0.23718534 -0.085903049 -0.79909664 243 239 243
-0.23717815 -0.085740961 -0.79904592 243 239 243
-0.23773065 -0.087322265 -0.80007052 243 239 242
-0.23645784 -0.087728724 -0.79878062 243 237 242
-0.23741314 -0.086416937 -0.79948258 243 239 243
-0.23529325 -0.08786615 -0.79756856 242 236 242
-0.23581369 -0.085731775 -0.79756045 243 238 243
-0.23626082 -0.087141901 -0.79841119 243 237 242
0.1483098 -0.087038092 -0.80078071 72 73 118
0.14904104 -0.086429805 -0.80027175 62 64 124
0.14973429 -0.086225614 -0.80087066 63 66 129
0.14704813 -0.087510042 -0.79991424 73 73 108
0.14752236 -0.087058716 -0.79946196 66 66 112
0.1488442 -0.086328931 -0.79966229 58 60 122
0.14820276 -0.086373359 -0.79863203 61 63 123
0.14896278 -0.085595056 -0.79730201 90 99 162
0.14715672 -0.086600862 -0.79748291 60 61 116
0.14988931 -0.085359052 -0.79819793 92 103 170
0.14942631 -0.085663252 -0.79840803 82 90 155
0.14817502 -0.0864425 -0.79882437 58 59 119
0.15157163 -0.084305637 -0.7975173 130 147 216
0.15182383 -0.084428929 -0.79827559 124 141 211
0.1527375 -0.084340185 -0.7994194 125 143 213
0.1522788 -0.084809534 -0.80028999 105 120 190
0.1506241 -0.085008621 -0.79827917 103 116 185
0.1521865 -0.084552728 -0.79923171 118 135 204
0.15041663 -0.085674532 -0.80029064 73 79 149
0.15160537 -0.084696956 -0.79878789 113 129 199
0.15100899 -0.085005477 -0.79889929 102 115 184
0.1520001 -0.085186496 -0.80116415 89 100 170
0.15442696 -0.083998173 -0.80096602 133 154 224
-0.23799673 -0.090314224 -0.80089509 243 238 243
-0.23811173 -0.088079564 -0.80066901 243 239 242
-0.23734358 -0.08958257 -0.80006266 243 237 242
-0.23841827 -0.088068232 -0.80100375 243 239 242
-0.23664768 -0.088154249 -0.79907346 243 237 242
-0.23640247 -0.088616103 -0.79885131 243 237 242
-0.23665275 -0.089977987 -0.79930401 243 237 243
-0.23720188 -0.090946354 -0.80007291 243 237 243
-0.23667555 -0.089510895 -0.79927957 243 237 242
-0.23591082 -0.091348276 -0.79852569 243 237 243
-0.23619078 -0.088735759 -0.79859746 243 237 242
-0.23576285 -0.090331748 -0.79822147 243 237 242
-0.23599054 -0.088138871 -0.79832757 242 236 242
-0.23515995 -0.090998493 -0.79752278 242 237 242
-0.23525892 -0.09004578 -0.79760092 242 237 242
-0.23737033 -0.093368433 -0.80028164 243 238 244
-0.23790112 -0.094247766 -0.80087131 242 238 243
-0.23668718 -0.092262335 -0.79952133 242 238 243
-0.23766565 -0.094740339 -0.80054897 242 238 243
-0.23783824 -0.095114529 -0.80073464 242 238 243
-0.23708992 -0.095038921 -0.79974818 242 237 243
-0.23718168 -0.095115587 -0.79986131 242 238 243
-0.23589346 -0.093769424 -0.79831189 242 237 243
-0.23606104 -0.093032487 -0.79861879 242 237 243
-0.23626645 -0.093513511 -0.79883271 242 237 243
-0.23525171 -0.091865897 -0.79771483 242 237 243
-0.23562768 -0.092121884 -0.79816937 242 237 243
-0.23509847 -0.092469327 -0.7974422 242 237 243
-0.23776908 -0.096578337 -0.80034328 242 237 243
-0.23819266 -0.097434729 -0.80068117 241 236 243
-0.23875111 -0.098720938 -0.80108535 241 235 243
-0.23802337 -0.097120866 -0.80053866 242 237 243
-0.2377605 -0.099361919 -0.7996614 240 235 242
-0.23692836 -0.099396825 -0.79859567 239 235 242
-0.23762926 -0.098507524 -0.79968536 240 235 242
-0.23847862 -0.099547997 -0.80053288 240 235 242
-0.23830877 -0.099375807 -0.80035537 240 235 242
-0.23781767 -0.099376902 -0.79973078 240 235 242
-0.23629664 -0.097259328 -0.79827267 240 236 242
-0.23576546 -0.097223736 -0.79760104 240 236 242
-0.23594405 -0.098932736 -0.79748142 239 236 242
-0.23760043 -0.10053217 -0.79934239 239 235 241
-0.2389957 -0.10273967 -0.80097193 240 235 241
-0.23727225 -0.10004219 -0.79895717 239 235 242
-0.23847923 -0.1015183 -0.80039519 240 235 241
-0.23753007 -0.10042394 -0.79926002 239 235 242
-0.2374758 -0.10103426 -0.79915106 239 235 241
-0.23848966 -0.10326505 -0.80030829 240 236 241
-0.23772073 -0.10339391 -0.79934555 240 236 242
-0.2380586 -0.1025607 -0.79980391 240 235 241
-0.23781163 -0.10215411 -0.79951519 240 235 241
-0.23829198 -0.10255321 -0.80009472 240 235 241
-0.23767887 -0.10265941 -0.79932696 240 236 242
-0.23612326 -0.10274474 -0.79741472 240 236 243
-0.23672165 -0.10372636 -0.79812932 241 236 243
-0.23863271 -0.10495219 -0.80069673 241 236 242
-0.23842517 -0.1037853 -0.80025816 241 236 241
-0.23779786 -0.10354879 -0.79944104 241 236 242
-0.23838969 -0.10539315 -0.80046242 241 237 243
-0.238287 -0.10523631 -0.80031043 241 237 243
-0.23705885 -0.10483427 -0.79872447 241 237 243
-0.23634849 -0.10449092 -0.79781771 241 237 243
-0.23644258 -0.10567374 -0.79815531 241 237 243
-0.23638359 -0.10490648 -0.79793876 241 237 243
-0.2371227 -0.10700204 -0.7992146 242 237 243
-0.23597343 -0.10662931 -0.79784149 242 237 243
-0.23626669 -0.10689691 -0.79819119 241 237 243
-0.23820242 -0.10856248 -0.80111271 242 238 244
-0.23745602 -0.10880604 -0.80034411 242 238 244
-0.23705095 -0.11021776 -0.8005321 242 239 244
-0.23677199 -0.10926178 -0.79974973 242 238 243
-0.23689783 -0.10954894 -0.80003452 242 238 244
-0.23645601 -0.1085967 -0.79906023 242 237 243
-0.23646815 -0.10973715 -0.79961222 243 238 243
-0.23498355 -0.10993984 -0.79809242 243 237 243
-0.23513739 -0.11082834 -0.79867691 243 237 243
-0.23553374 -0.11041785 -0.79891044 243 237 243
-0.23382705 -0.11118913 -0.79743546 243 237 243
-0.23523617 -0.10959629 -0.79820263 243 237 243
-0.23451872 -0.10990696 -0.79758096 243 236 243
-0.23523474 -0.10865491 -0.79777139 242 237 243
-0.23462838 -0.10908802 -0.79734045 243 237 243
-0.23369274 -0.11154071 -0.79752195 243 237 243
-0.23362887 -0.1115969 -0.79749691 244 237 244
-0.23593457 -0.11141296 -0.79983735 244 238 244
-0.23317878 -0.11366779 -0.79870838 243 239 244
-0.23474811 -0.11286692 -0.79976338 243 239 244
-0.23298958 -0.11400544 -0.79878867 243 240 244
-0.23468369 -0.11220013 -0.79911798 243 239 243
-0.23601921 -0.11154751 -0.80004066 243 239 244
-0.23619989 -0.11147651 -0.80017847 243 239 243
-0.23466854 -0.11326531 -0.79999173 243 239 244
-0.23606434 -0.11234599 -0.80070734 243 238 244
-0.23469414 -0.11451563 -0.80104244 242 237 243
-0.23420002 -0.11510988 -0.80101639 242 237 243
-0.2340862 -0.1142398 -0.80015665 242 239 243
-0.23176675 -0.11475366 -0.79819417 242 239 243
-0.23236792 -0.11407036 -0.79816359 243 239 243
-0.23372045 -0.11536326 -0.80076879 241 237 243
-0.23312922 -0.11609273 -0.80104584 240 235 241
-0.23081656 -0.11544452 -0.79797566 241 238 243
-0.2315412 -0.11528903 -0.79846346 242 239 243
-0.23155242 -0.1157939 -0.7990945 241 239 243
-0.2286987 -0.11774405 -0.79884303 237 232 240
-0.22988079 -0.11660124 -0.79851925 239 235 241
-0.22921614 -0.11822755 -0.79995805 237 232 240
-0.2303257 -0.11727899 -0.79981267 239 235 241
-0.23137562 -0.11600593 -0.79919541 241 238 243
-0.23226357 -0.11654073 -0.80069923 239 235 241
-0.23190878 -0.1164081 -0.80020279 240 236 242
-0.23153144 -0.11665324 -0.80015701 240 236 242
-0.23025414 -0.117635 -0.800192 238 234 241
-0.22997062 -0.11838743 -0.800879 236 231 240
-0.22666402 -0.11903591 -0.79861981 236 231 240
-0.22728188 -0.11833403 -0.79828966 237 232 240
-0.22795413 -0.11880522 -0.79950798 236 231 240
-0.22765419 -0.11891145 -0.79936862 236 231 240
-0.22791959 -0.11730283 -0.797557 238 232 240
-0.22761066 -0.11811645 -0.79831314 237 232 240
-0.22914116 -0.11919793 -0.80116308 234 229 239
-0.2264155 -0.1191429 -0.79852951 236 231 240
-0.22675174 -0.11944021 -0.79932874 235 229 239
-0.22722723 -0.12002752 -0.80086279 232 226 237
-0.22554338 -0.12018291 -0.79966265 231 225 237
-0.22519678 -0.12040749 -0.79978514 230 223 236
-0.22475414 -0.12131876 -0.80113953 226 218 234
-0.22659904 -0.12000255 -0.80025595 232 226 237
-0.22478972 -0.12061209 -0.79981548 229 222 236
-0.22079097 -0.12086384 -0.79738593 223 215 231
-0.22160575 -0.12199742 -0.80050421 220 211 228
-0.22251649 -0.12171805 -0.80048192 222 214 230
-0.2230829 -0.12129799 -0.79990929 224 216 232
-0.2219293 -0.1211741 -0.79885387 223 215 231
-0.2208626 -0.12152366 -0.7989307 221 212 229
-0.2224738 -0.12052687 -0.79794955 227 220 234
-0.22074391 -0.120828 -0.79727829 223 216 232
-0.22356173 -0.12050138 -0.79868615 228 221 235
-0.22453825 -0.12060461 -0.79958922 229 222 236
-0.22455557 -0.11978355 -0.79802656 233 227 238
-0.22274713 -0.12107624 -0.79920083 224 217 233
-0.21755056 -0.12272779 -0.79920489 211 202 220
-0.21752071 -0.12268003 -0.79905683 211 202 221
-0.21939485 -0.12262765 -0.80035335 215 205 223
-0.21830115 -0.12273488 -0.7998001 212 203 221
-0.21782711 -0.12225334 -0.79818738 215 206 224
-0.22034746 -0.12123591 -0.79788756 221 213 230
-0.21860984 -0.12226417 -0.79883552 216 206 224
-0.21807034 -0.12197314 -0.79774553 216 207 225
-0.21996444 -0.12193091 -0.79915887 218 210 227
-0.21926901 -0.1215812 -0.79781151 218 210 228
-0.21510851 -0.12289678 -0.79758227 199 191 210
-0.21501306 -0.12302379 -0.79783106 198 190 208
-0.2159445 -0.12291677 -0.79837036 204 195 213
-0.21716614 -0.12341794 -0.80101955 201 192 210
-0.2148302 -0.1230503 -0.79774392 196 189 207
-0.21548682 -0.12311239 -0.7985658 199 191 209
-0.2166263 -0.12349211 -0.80084705 198 190 207
-0.21380183 -0.12330123 -0.79781896 187 180 198
-0.21594754 -0.1235261 -0.80039936 193 185 203
-0.21536453 -0.12357007 -0.80008048 188 180 198
-0.21470368 -0.12372015 -0.80009115 177 169 188
0.15372445 0.06574396 -0.8160761 203 203 215
0.15345149 0.064498559 -0.81537455 202 202 217
0.15355057 0.066079319 -0.81567729 204 204 215
0.15367973 0.064611711 -0.81592166 201 202 216
0.15394047 0.067312941 -0.81665617 205 205 213
0.15288314 0.06593667 -0.81414342 206 206 216
0.1530509 0.066127412 -0.81450683 206 206 216
0.15338401 0.067636453 -0.81549352 206 206 210
0.1527687 0.066222362 -0.81399298 205 205 213
0.15325032 0.067382701 -0.81517994 206 206 211
0.15417589 0.062883012 -0.81508017 203 203 216
0.15290943 0.063997127 -0.81349933 205 205 219
0.15359141 0.063802503 -0.81486976 203 203 217
0.15357541 0.063001662 -0.81380337 205 204 218
0.15315665 0.063770123 -0.81379521 205 204 219
0.15370113 0.063439757 -0.81466466 203 203 217
0.15413725 0.061769675 -0.81355631 206 205 217
0.15504715 0.060744777 -0.81420434 200 194 205
0.15465581 0.06166064 -0.81456071 202 199 211
0.1560654 0.06082622 -0.81645131 190 177 190
0.15452282 0.061307088 -0.81382215 204 201 213
0.15468557 0.062493019 -0.8157022 200 197 211
0.15467153 0.060989864 -0.81372458 204 199 211
0.15442324 0.062571339 -0.81525058 202 201 215
0.15765548 0.059173014 -0.81566161 183 166 184
0.15722074 0.05985909 -0.81659883 183 165 180
0.15817037 0.057765007 -0.81300926 186 175 198
0.1564388 0.059157677 -0.81313682 195 187 204
0.15565497 0.060545094 -0.81523108 195 184 196
0.15539044 0.060430281 -0.81436867 198 190 202
0.15648788 0.05966042 -0.8145926 192 181 196
0.15560707 0.059992399 -0.81364334 198 191 205
0.15808164 0.05781699 -0.81296545 187 176 199
0.15658933 0.059750304 -0.81504673 190 178 193
0.16120835 0.056676835 -0.81459445 216 210 223
0.159729 0.057192218 -0.81404537 202 192 210
0.16025878 0.056959689 -0.81326491 206 200 219
0.16068357 0.056823749 -0.81366807 210 205 222
0.15827963 0.058804583 -0.81591469 180 161 179
0.16090614 0.057132769 -0.81671375 213 200 208
0.15914398 0.058322717 -0.81635457 190 173 188
0.15852995 0.058597028 -0.81586593 183 166 183
0.1593795 0.05763898 -0.81504351 197 184 199
0.15969698 0.05791923 -0.81638944 197 182 195
0.1620834 0.055954546 -0.81547594 221 215 224
0.1613684 0.056539547 -0.81368679 215 212 229
0.1614207 0.056477722 -0.81324083 215 213 231
0.16371042 0.055337362 -0.81574965 225 221 227
0.16593774 0.054632302 -0.813604 231 233 241
0.16491973 0.054950688 -0.81441504 229 228 235
0.16542509 0.054806061 -0.81460184 228 228 237
0.16492508 0.05496883 -0.81528068 226 225 233
0.16582152 0.054707401 -0.81539732 225 227 237
0.16245581 0.055938732 -0.81292337 219 220 236
0.16213007 0.055843089 -0.81650186 222 214 220
0.16334794 0.055578373 -0.8132934 223 223 236
0.16255455 0.055698499 -0.81623882 224 216 222
0.16226424 0.055978909 -0.81345195 219 218 233
0.16340065 0.055435102 -0.81530893 226 221 227
0.16736004 0.053466655 -0.81327838 234 236 243
0.16866912 0.053015169 -0.81448102 235 236 244
0.16871344 0.052738082 -0.81418705 235 236 244
0.16950896 0.05296934 -0.81557721 236 236 244
0.16724093 0.054013383 -0.81381655 234 236 243
0.16899848 0.053651124 -0.81662661 233 233 242
0.16682944 0.05434344 -0.81423128 232 234 242
0.16932099 0.05354242 -0.81672955 233 234 242
0.16652489 0.054454427 -0.81450009 230 232 240
0.16790229 0.053987559 -0.81482589 234 235 243
0.17042609 0.052794568 -0.81660694 236 236 244
0.16984639 0.051290795 -0.81473047 233 234 242
0.16954222 0.05142764 -0.81441098 233 234 242
0.16900861 0.052663926 -0.81453502 236 236 244
0.16974412 0.049304668 -0.8132267 229 230 239
0.16852474 0.052400719 -0.81369627 235 236 243
0.17126498 0.050393865 -0.81603277 233 235 242
0.17078947 0.050229769 -0.81527758 232 233 241
0.17177531 0.049713556 -0.81625372 233 236 242
0.17072438 0.051082622 -0.81577682 233 234 242
0.17088614 0.048887789 -0.8144843 230 232 240
0.17158774 0.049078718 -0.81556332 232 235 241
0.17003448 0.051608481 -0.81520432 234 234 243
0.17135206 0.04874571 -0.81496906 231 234 241
0.17110059 0.048707038 -0.81458133 231 233 240
0.17118557 0.04866435 -0.81464553 231 233 240
0.17282701 0.047948144 -0.81601417 234 238 242
0.17338942 0.047358178 -0.81595021 236 240 243
0.17355959 0.046335105 -0.81446737 239 242 245
0.1726308 0.047028899 -0.81424856 236 239 243
0.17269635 0.046620253 -0.81365269 237 239 244
0.17352811 0.046972752 -0.81550384 237 241 244
0.17333545 0.046954859 -0.8151834 237 240 244
0.1702081 0.048425674 -0.81297606 229 231 239
0.17191714 0.047850132 -0.81457025 233 235 241
0.17401135 0.044940948 -0.81293398 241 244 246
0.17533766 0.04511065 -0.81674719 237 240 244
0.1739635 0.046845805 -0.81609458 237 241 244
0.17385599 0.046175465 -0.81467336 239 243 245
0.1739141 0.045767915 -0.81413299 240 243 246
0.1772505 0.04187429 -0.81589848 241 242 244
0.17694676 0.042601008 -0.81636328 241 241 244
0.17572983 0.042730805 -0.8148337 239 241 244
0.17552249 0.044317421 -0.81622237 238 240 244
0.17573115 0.042046849 -0.81412232 239 241 244
0.17607288 0.042789664 -0.81533444 239 241 244
0.17604457 0.041424122 -0.81387448 240 242 244
0.17524397 0.04383792 -0.81499261 239 241 245
0.17534409 0.043174222 -0.81453621 239 241 245
0.17455749 0.044203091 -0.81356591 240 243 246
0.17519964 0.043828458 -0.81486452 239 241 245
0.17532355 0.04489477 -0.81635433 238 240 245
0.1751729 0.044329233 -0.81533843 239 241 245
0.17494233 0.037686013 -0.81425971 230 233 239
0.1761741 0.038852789 -0.8148073 235 237 242
0.17663239 0.037646212 -0.81602341 233 234 241
0.17607705 0.03781113 -0.81535017 232 234 241
0.17530778 0.039887398 -0.81327742 236 239 243
0.17548476 0.039952774 -0.81341916 237 239 243
0.17591956 0.038280729 -0.81489837 233 235 241
0.17675492 0.040878542 -0.81443077 241 242 244
0.17701094 0.03937329 -0.81554651 238 239 242
0.17729056 0.039611731 -0.81577992 239 239 243
0.17663199 0.038730443 -0.81539762 236 237 242
0.17683066 0.039968733 -0.81500393 239 240 243
0.17758518 0.039915476 -0.81598765 240 240 243
0.17834298 0.040825177 -0.81663215 242 241 243
0.17805667 0.040113535 -0.81653589 241 241 243
0.17343529 0.03700697 -0.81305754 226 231 237
0.17356932 0.033452243 -0.81504899 215 218 235
0.17336321 0.035416186 -0.81376469 221 225 236
0.17325069 0.035581879 -0.81351358 222 226 236
0.17275614 0.035166964 -0.81297731 221 225 236
0.17328073 0.036409479 -0.81314784 224 229 237
0.17451023 0.033465698 -0.8162123 217 219 235
0.17575359 0.035377707 -0.81640202 225 226 238
0.17432682 0.036336403 -0.81439608 225 228 237
0.17453644 0.034352493 -0.81567436 219 221 236
0.17528483 0.036415886 -0.81533939 227 229 238
0.17554462 0.035875317 -0.81589621 226 228 238
0.17496052 0.035664305 -0.81540823 224 226 237
0.17433538 0.034353968 -0.8154667 219 221 236
-0.24199198 0.029972514 -0.81672412 127 111 116
-0.24125415 0.030093817 -0.81486875 113 96 97
-0.24189566 0.029406656 -0.81677902 139 125 131
-0.24169087 0.031147309 -0.81539208 93 75 76
-0.24153802 0.029486759 -0.81586885 132 117 121
-0.2415275 0.030485293 -0.81533313 107 90 92
0.17353088 0.033061706 -0.81511098 214 217 235
0.17379086 0.03163686 -0.81545991 212 216 235
0.1738238 0.029346902 -0.81544316 209 215 235
0.17326117 0.030803224 -0.81464082 211 216 235
0.17337306 0.030520521 -0.81480056 211 216 235
0.17277981 0.029806914 -0.81372422 211 216 234
0.17281343 0.03150811 -0.81398773 212 217 235
0.17219293 0.032400616 -0.81303889 215 219 235
0.17282274 0.031207064 -0.81396711 212 217 235
0.1740047 0.029943338 -0.8156864 210 215 234
0.17435192 0.03023603 -0.81622607 210 215 235
0.17383209 0.031638507 -0.81552076 212 216 235
0.17383559 0.030917009 -0.81550413 211 215 234
-0.24169779 0.025610916 -0.81590873 141 116 127
-0.24107654 0.026446175 -0.8146469 142 121 126
-0.2409784 0.026052371 -0.81447798 150 130 133
-0.24156882 0.026274137 -0.81561846 134 109 119
-0.24113818 0.027200803 -0.81471843 130 107 114
-0.24071489 0.028057761 -0.81383771 127 106 109
-0.24084026 0.028979817 -0.81421727 126 108 110
-0.24171552 0.026330844 -0.81590623 131 105 117
-0.24186063 0.026081815 -0.81621772 132 105 119
-0.24121961 0.027658699 -0.81492066 128 105 112
-0.24093699 0.028585818 -0.8143872 126 107 110
0.1737279 0.027800729 -0.81525952 209 213 233
0.17376515 0.027824046 -0.81532323 209 213 233
0.17300402 0.027739754 -0.81402558 210 214 232
0.17379014 0.029243946 -0.81538284 209 214 234
0.17260379 0.025582077 -0.81322384 209 212 231
0.17312606 0.02689093 -0.81421304 210 213 232
0.17253855 0.025735615 -0.81311405 210 212 231
0.17316081 0.02606044 -0.81423897 209 212 231
0.17407794 0.025996454 -0.81580687 209 211 231
0.17448255 0.027622605 -0.8164776 209 213 233
0.1738877 0.026445305 -0.81551015 209 212 232
0.17382911 0.029048707 -0.81544679 209 214 234
-0.24109398 0.023465391 -0.8154698 149 127 129
-0.24186996 0.024692791 -0.8165217 137 110 122
-0.24056114 0.024332447 -0.81410122 165 148 144
-0.24067511 0.024022568 -0.81444091 161 143 140
-0.24111629 0.025224933 -0.8148483 156 136 139
-0.24041505 0.023333617 -0.81362402 170 154 148
-0.24054453 0.02171139 -0.81402361 166 148 142
-0.24060901 0.023236195 -0.81425953 163 145 141
-0.24039002 0.022260841 -0.81352478 171 155 148
-0.24030896 0.023356717 -0.81327593 174 159 152
-0.24015814 0.022669338 -0.81290007 178 164 155
0.17316999 0.024047041 -0.81400448 209 212 230
0.17375377 0.024628168 -0.81514257 209 211 230
0.17333284 0.023745304 -0.81424534 209 212 230
0.17364556 0.022772335 -0.81464297 209 212 230
0.17366035 0.021919897 -0.81452966 210 212 230
0.17337319 0.021593034 -0.81400061 210 212 230
0.17259617 0.024111915 -0.81301731 210 212 230
0.17445919 0.02326102 -0.81607383 209 212 230
0.17465073 0.02238638 -0.81628585 209 212 230
0.17458752 0.02194687 -0.81611907 209 212 230
0.17395915 0.022782048 -0.81517643 209 212 230
0.1740519 0.025156528 -0.8157143 209 211 230
-0.24036072 0.019435165 -0.8158595 187 167 169
-0.24098817 0.021391889 -0.81558698 149 127 127
-0.24037804 0.020095343 -0.8151291 182 163 162
-0.24071352 0.021419678 -0.81465179 160 140 136
-0.24081615 0.020874884 -0.81563854 160 138 138
-0.24006954 0.019819705 -0.81471139 185 169 165
-0.23989013 0.018611519 -0.81585395 188 172 173
-0.23999843 0.020521469 -0.81357008 178 163 155
-0.2399656 0.020862682 -0.81289953 173 157 148
-0.23993941 0.020302465 -0.81363839 177 161 155
-0.23941894 0.018994668 -0.81328648 162 143 137
-0.23935901 0.018869679 -0.81320673 160 141 135
0.17339118 0.021386258 -0.81400424 210 212 230
0.17356405 0.019768948 -0.81409109 210 212 229
0.17378122 0.018038062 -0.81423837 210 212 228
0.17298356 0.020247463 -0.8131721 210 212 230
0.17353348 0.018396445 -0.8138665 210 212 228
0.17491949 0.018356748 -0.81611973 210 212 228
0.1751066 0.01849127 -0.81643891 209 212 228
0.17489491 0.018663079 -0.81613165 209 212 228
0.17449564 0.018993279 -0.81555313 210 212 228
0.17398411 0.019915998 -0.81482399 210 212 229
0.17450081 0.020476963 -0.81578082 209 212 229
0.17456681 0.020938212 -0.81595266 209 212 229
0.17407924 0.019135872 -0.81488782 210 212 228
-0.24049702 0.015988518 -0.81469202 189 177 173
-0.24026978 0.015946031 -0.81364512 174 163 154
-0.24089402 0.015196048 -0.81432259 191 179 178
-0.2419589 0.014127186 -0.81557721 172 159 156
-0.24149485 0.01441648 -0.81464195 183 171 169
-0.24197607 0.01437543 -0.81620669 171 157 154
-0.2414981 0.01468932 -0.8152799 182 169 168
-0.24049346 0.016687579 -0.81640649 203 188 190
-0.24189597 0.013746805 -0.81448656 174 162 160
-0.23973946 0.017487934 -0.81626588 189 172 176
-0.23891751 0.017547859 -0.81303954 148 126 122
-0.24003267 0.016298328 -0.81369948 171 158 150
-0.24015394 0.016361456 -0.81427604 179 167 160
0.17363924 0.016238233 -0.81346416 211 212 228
0.17376065 0.015172553 -0.81328392 211 213 228
0.17478161 0.01665513 -0.81544054 210 212 228
0.17392811 0.01738162 -0.81434733 210 212 228
0.17465664 0.016317604 -0.81512123 210 212 228
0.17412415 0.016086213 -0.81419355 211 212 228
0.17561172 0.014619617 -0.81615227 209 211 227
0.17530863 0.013892757 -0.81541085 210 211 227
0.17574742 0.0151148 -0.81653887 209 211 227
0.17508936 0.01407264 -0.81510168 210 211 227
0.17563643 0.015466377 -0.81646621 209 211 227
0.17571498 0.014460768 -0.81627399 209 210 227
-0.24366084 0.011940791 -0.81625032 175 158 166
-0.24300928 0.012998408 -0.81655562 164 148 148
-0.24217391 0.013379253 -0.81469005 171 157 156
-0.24275696 0.011637194 -0.81323135 175 153 166
-0.2424894 0.013603816 -0.81622475 160 147 143
-0.24213393 0.012907716 -0.81361324 177 162 165
-0.24223666 0.012412042 -0.81298041 180 162 170
0.1751851 0.010425206 -0.81388575 208 210 226
0.17566487 0.012245449 -0.81539351 208 210 226
0.1765091 0.010621831 -0.81609184 207 210 224
0.17600435 0.012780507 -0.81615543 208 210 226
0.17585105 0.010905419 -0.81514978 208 210 225
0.17583017 0.012586789 -0.81579721 208 210 226
0.17427161 0.012913574 -0.81331557 211 212 228
0.1748949 0.013236554 -0.81448174 210 212 227
0.17523798 0.012246278 -0.81468004 209 211 227
0.1749121 0.010279655 -0.81338763 209 210 227
0.17445068 0.011942348 -0.81324649 210 212 227
0.17559817 0.012569403 -0.81540579 209 210 227
0.17500135 0.010779692 -0.81372696 209 210 227
0.17756756 0.0062537598 -0.81610918 206 208 223
0.17725427 0.0073604621 -0.81602901 206 209 223
0.17711899 0.0073467633 -0.81580794 206 209 223
0.17730539 0.0076438715 -0.81621796 206 209 223
0.17679691 0.0074160239 -0.81532049 207 209 223
0.17628375 0.0072856541 -0.81445241 207 209 223
0.17631787 0.0095826304 -0.81536931 207 210 224
0.17603722 0.0086925616 -0.81458485 207 210 224
0.17605653 0.0091592008 -0.81479084 207 210 224
0.17574425 0.0083344113 -0.8139801 208 210 224
0.17626962 0.0079387445 -0.81467551 207 210 223
0.17606698 0.0096432054 -0.81498903 207 210 224
0.17668563 0.0045012073 -0.81394917 207 209 223
0.17687996 0.0052164802 -0.8145771 207 208 223
0.17757352 0.0047288118 -0.81546664 206 208 222
0.17772543 0.0054550092 -0.81603175 206 208 222
0.17587994 0.0055205487 -0.81311697 207 209 223
0.17653753 0.0034236456 -0.81328964 208 209 223
0.17643873 0.0032220082 -0.81307048 208 209 223
0.17621988 0.0047585126 -0.81332231 208 209 223
0.17859611 0.0028902001 -0.81639844 207 208 222
0.17826739 0.0025762853 -0.81569022 207 208 222
0.17861687 0.0035730938 -0.81674659 207 208 222
0.1782667 0.0048609162 -0.81673467 206 208 222
0.17750926 0.001845862 -0.81411767 207 209 222
0.17724697 0.0016939901 -0.81367338 208 209 222
0.17752501 -0.00034135813 -0.81325537 208 209 223
0.1791632 -2.6595197e-05 -0.81606787 208 208 223
0.17839523 -0.0011830637 -0.81431675 208 209 223
0.17906775 0.001497412 -0.81658083 208 208 223
0.17862953 -0.00061383989 -0.81494582 207 209 223
0.17889014 -0.0017589682 -0.81486642 208 209 223
0.179288 0.0002964926 -0.81641161 208 208 223
0.17866337 -0.0013414351 -0.81468189 207 209 223
0.17779353 -0.0013837323 -0.81324065 208 209 223
0.17813402 -0.00014240784 -0.81432778 207 209 223
0.17804368 0.0010762863 -0.81466591 208 209 222
0.17779966 0.0018544834 -0.81456184 208 209 222
0.17916387 -0.0029573271 -0.81478012 209 210 224
0.17885837 -0.0053896778 -0.81320667 212 213 225
0.17886533 -0.0039899829 -0.8138386 210 211 224
0.17993417 -0.0021242762 -0.81639737 208 208 223
0.17867632 -0.0026294654 -0.81413573 208 210 224
0.17961706 -0.0023779382 -0.81577122 208 208 223
0.1798268 -0.0038634082 -0.81543064 210 210 224
0.18045478 -0.0051240255 -0.81582326 212 212 224
0.17957166 -0.0042093857 -0.81487232 210 211 224
0.18050823 -0.0038475471 -0.81649971 210 210 224
0.18118452 -0.0055965292 -0.81674063 212 213 224
0.17960766 -0.0057846862 -0.81419641 212 213 225
0.18160489 -0.0083092209 -0.81606042 213 214 226
0.18085131 -0.0076997718 -0.81529349 213 214 227
0.18106481 -0.0065118531 -0.81615865 213 214 225
0.18089707 -0.0086127268 -0.81492108 214 214 227
0.18121888 -0.0061027841 -0.81656885 213 214 225
0.18113628 -0.0085723968 -0.81527376 213 214 227
0.17910552 -0.0070132925 -0.81289893 213 214 227
0.17973776 -0.0074499641 -0.81370217 213 214 227
0.17932744 -0.0069073439 -0.81328881 213 214 226
0.17986234 -0.0075553386 -0.81385237 213 214 227
0.17939113 -0.0072389981 -0.81324995 213 214 227
0.17921305 -0.0068671852 -0.81312728 213 214 226
0.18176802 -0.0080194296 -0.81645387 213 214 226
0.18164265 -0.0096232798 -0.81547886 213 214 227
0.18086976 -0.010245802 -0.81413639 214 215 229
0.18010917 -0.0098707769 -0.81322908 214 215 229
0.18117973 -0.012062855 -0.81382787 216 216 229
0.1806269 -0.010238282 -0.81380093 214 215 229
0.18096323 -0.0099940356 -0.81436932 214 215 228
0.18040948 -0.011188447 -0.81311667 215 215 230
0.18068664 -0.012095377 -0.81314355 216 216 230
0.18248975 -0.012612878 -0.81561613 215 215 229
0.18233164 -0.012748724 -0.81530482 216 216 229
0.18239847 -0.011896854 -0.81574947 215 215 229
0.1831533 -0.01264907 -0.81668377 215 215 229
0.1832827 -0.013421259 -0.81659043 215 215 229
0.18196894 -0.010580796 -0.81558996 214 215 228
0.18213072 -0.0098419124 -0.81614524 214 214 228
0.18123969 -0.014654675 -0.81310564 218 218 231
0.18143764 -0.014211032 -0.81344807 217 217 230
0.18143423 -0.016800979 -0.81297421 221 221 233
0.18367982 -0.015338216 -0.81666511 217 217 230
0.18328997 -0.015506579 -0.81605244 218 218 230
0.18230833 -0.017188894 -0.81417918 221 221 232
0.18384029 -0.016527282 -0.81658661 218 219 230
0.18304329 -0.01705692 -0.81528538 220 220 231
0.18290532 -0.015437058 -0.81550992 218 218 231
0.18305179 -0.01420325 -0.81601852 217 217 230
0.18184999 -0.014400048 -0.81402326 218 218 230
0.18271917 -0.01440558 -0.81543934 217 217 230
0.18177132 -0.013721813 -0.81401843 217 217 230
0.18191585 -0.018477678 -0.81339031 223 223 234
0.18410249 -0.017601948 -0.81668973 219 220 230
0.18231671 -0.018058714 -0.81402797 222 222 233
0.181834 -0.020724593 -0.81297499 224 226 235
0.1833511 -0.01853059 -0.8154735 220 222 231
0.1824159 -0.019067736 -0.81404221 222 223 233
0.18370348 -0.018735373 -0.81592965 220 221 231
0.18317175 -0.02141385 -0.81465948 224 225 234
0.18426335 -0.018155754 -0.81679296 219 220 230
0.18434139 -0.019068882 -0.81670284 220 221 231
0.18378027 -0.021282531 -0.81549215 224 224 233
0.18390094 -0.018883226 -0.81615961 220 221 231
0.18417612 -0.017733205 -0.81676698 219 220 230
0.1840639 -0.023256727 -0.81568891 224 225 234
0.1848342 -0.022848053 -0.8167007 224 225 234
0.18374039 -0.023019465 -0.81530613 224 225 234
0.18478112 -0.02238209 -0.81668192 224 224 233
0.18442057 -0.023985818 -0.81606275 225 226 235
0.18457952 -0.024319572 -0.81622839 225 226 235
0.18398777 -0.022782996 -0.81564194 224 225 234
0.18331784 -0.022200475 -0.81479663 224 225 234
0.18212995 -0.023362659 -0.81315845 224 226 236
0.18280353 -0.023614991 -0.81403494 224 226 235
0.18363293 -0.022172697 -0.81521499 224 225 234
0.18201077 -0.022897623 -0.81302756 224 226 236
0.18312883 -0.023609415 -0.81446546 224 225 235
0.18215971 -0.021939823 -0.81327969 224 226 235
0.18506706 -0.026564594 -0.81664503 227 228 237
0.18502022 -0.028132679 -0.81646824 227 228 237
0.18490149 -0.02867062 -0.81628811 227 228 237
0.18521407 -0.027985815 -0.81670517 228 228 237
0.18482368 -0.027640725 -0.81627798 227 228 237
0.18497033 -0.02645498 -0.81654108 227 228 237
0.18456523 -0.026731495 -0.81604826 226 227 237
0.18327089 -0.027622284 -0.81446558 224 226 237
0.18204983 -0.027128536 -0.81292969 223 226 236
0.182721 -0.027579891 -0.81377351 224 226 237
0.1823726 -0.026467457 -0.81333745 224 226 237
0.18294859 -0.025441712 -0.8140648 224 227 237
0.18316306 -0.02573845 -0.81433415 225 227 237
0.18366703 -0.025463827 -0.81496912 225 227 237
0.18348242 -0.03187491 -0.8147608 228 228 237
0.18405022 -0.032198325 -0.81540871 228 229 237
0.18483414 -0.03266101 -0.81630379 228 229 237
0.18515542 -0.032742184 -0.81666678 228 229 237
0.18451308 -0.033090677 -0.81595922 228 229 237
0.18454637 -0.03027972 -0.81589651 228 228 237
0.18494712 -0.032370001 -0.81642002 228 229 237
0.18452926 -0.029817563 -0.81584519 228 228 237
0.18243527 -0.029963182 -0.81342036 224 226 237
0.18371592 -0.029960969 -0.81490982 226 227 237
0.18302146 -0.029792055 -0.81408942 225 227 237
0.18341739 -0.030070465 -0.81457078 226 227 237
0.18366431 -0.030881099 -0.81491858 228 228 237
0.18433578 -0.02976778 -0.81561643 227 228 237
0.18161237 -0.03516693 -0.81289643 228 228 237
0.18262903 -0.034707077 -0.81393659 227 227 237
0.18411697 -0.036227703 -0.81565362 227 227 237
0.18437681 -0.036573809 -0.81596065 227 227 237
0.18205513 -0.036220703 -0.81346363 227 227 237
0.18284522 -0.034842193 -0.81417829 227 227 237
0.18315698 -0.036278732 -0.81463885 227 227 236
0.18189952 -0.033562299 -0.81305885 227 227 237
0.18500124 -0.034339014 -0.81655532 228 229 237
0.18522382 -0.0335548 -0.81677377 228 229 237
0.18497744 -0.036204152 -0.81660253 227 227 237
0.18449993 -0.034386974 -0.8159954 228 228 237
0.18273196 -0.034145445 -0.81400424 227 227 237
0.18322763 -0.034208518 -0.81456232 227 228 237
0.18477114 -0.035947688 -0.81636113 227 227 237
0.18148966 -0.037763257 -0.81294507 227 228 237
0.18399265 -0.038782336 -0.8156305 226 227 237
0.18396214 -0.040092602 -0.81566215 226 228 237
0.18376826 -0.039728004 -0.81542873 226 228 237
0.18429169 -0.039153185 -0.81598097 226 227 237
0.18421264 -0.038616005 -0.81586635 226 227 237
0.18376951 -0.039869264 -0.8154372 226 228 237
0.18401994 -0.040626854 -0.81575304 226 228 237
0.18203421 -0.040089015 -0.81354284 226 228 236
0.18207057 -0.037980076 -0.81356633 227 228 236
0.18187597 -0.038842306 -0.81336594 227 228 236
0.18186924 -0.040076114 -0.81336761 226 228 237
0.18296452 -0.03901495 -0.81452298 226 228 236
0.18241851 -0.038743421 -0.8139413 226 228 236
0.18161094 -0.041971691 -0.81313342 225 228 237
0.18155158 -0.043593965 -0.81312668 226 227 237
0.18383624 -0.044239484 -0.81574214 227 227 237
0.18373021 -0.043845993 -0.81559473 227 227 237
0.18400028 -0.042951439 -0.81584501 226 227 237
0.18413921 -0.044460047 -0.81610364 227 227 237
0.18438436 -0.042404924 -0.81624883 227 227 237
0.18351039 -0.043430969 -0.8153156 226 227 237
0.18231709 -0.041074019 -0.8138845 226 228 237
0.18342873 -0.041074682 -0.81511843 226 228 237
0.18179217 -0.04115383 -0.81330472 226 228 237
0.18188211 -0.044332791 -0.81351936 226 227 237
0.18320681 -0.042028803 -0.81490648 226 228 237
0.18252818 -0.043518409 -0.81420708 226 227 237
0.1822634 -0.04110311 -0.81382596 226 228 237
-0.25771794 -0.048021182 -0.81678665 214 186 202
-0.25759792 -0.046312161 -0.81606734 204 174 193
-0.25746334 -0.047353365 -0.81589836 210 184 200
-0.25763547 -0.048180912 -0.81657994 215 188 203
-0.25647995 -0.048678063 -0.81330884 220 208 217
-0.25759366 -0.047786433 -0.81637263 212 185 202
-0.25627339 -0.045700289 -0.81346565 204 187 201
-0.25607571 -0.045029424 -0.81323719 201 184 199
-0.25659642 -0.048069805 -0.8135646 216 202 213
-0.25650641 -0.048158694 -0.81337559 217 204 214
0.18134232 -0.047211356 -0.81301618 225 226 238
0.18287317 -0.048686881 -0.81487536 226 227 238
0.18431528 -0.047648672 -0.81652427 227 228 238
0.18455142 -0.045262065 -0.81662351 227 227 238
0.18373203 -0.048252415 -0.81587154 227 227 238
0.1839892 -0.046766534 -0.81606537 227 227 237
0.18452911 -0.047644556 -0.81678033 227 228 238
0.18220411 -0.045193985 -0.81392741 226 226 237
0.18356535 -0.045051884 -0.81548142 227 226 237
0.18208458 -0.045592394 -0.81380433 226 226 237
0.18313415 -0.046555053 -0.81503993 226 226 237
0.18164244 -0.048644181 -0.81340426 225 226 237
0.18283652 -0.047277108 -0.81472415 226 226 237
-0.25638029 -0.052179486 -0.81409252 223 212 221
-0.25741187 -0.052558385 -0.81640428 213 194 209
-0.25673193 -0.051813729 -0.81471896 219 206 217
-0.25590217 -0.051904999 -0.81298566 228 221 226
-0.25718606 -0.051695812 -0.81564558 215 198 211
-0.25614622 -0.050846942 -0.81316203 225 216 223
-0.25736657 -0.05122536 -0.81609833 215 195 209
-0.25756022 -0.049457852 -0.8165428 218 194 208
-0.25685841 -0.05024863 -0.81454539 218 203 214
-0.25662732 -0.048903041 -0.81377715 221 207 217
-0.25676516 -0.04952348 -0.81422287 219 205 215
-0.25759497 -0.051608261 -0.81679243 214 192 207
0.18161236 -0.049675453 -0.81348509 225 226 237
0.1813387 -0.051967058 -0.81346107 226 227 237
0.18129428 -0.050718565 -0.8132506 225 226 237
0.18323213 -0.051049106 -0.81561643 227 228 237
0.18319193 -0.051110394 -0.81557631 226 228 237
0.1824272 -0.0521347 -0.81479049 226 228 237
0.1832085 -0.051036008 -0.8155852 227 228 237
0.18269153 -0.051994599 -0.81509542 226 228 237
0.18290202 -0.050014175 -0.81507355 226 227 237
0.18190031 -0.049516868 -0.81380856 225 226 237
0.1831397 -0.050147131 -0.81537563 226 228 237
0.18250899 -0.048899949 -0.81445885 225 226 237
0.18300624 -0.050308183 -0.81523639 226 228 237
0.18197238 -0.050240941 -0.81398821 225 227 237
-0.25693607 -0.053166393 -0.81548321 219 204 216
-0.2572788 -0.053198684 -0.81619805 215 198 211
-0.25721669 -0.055600666 -0.8161096 218 202 214
-0.25646171 -0.053796638 -0.81450528 225 214 222
-0.25749692 -0.053380474 -0.81665576 213 194 209
-0.25601888 -0.053608056 -0.81361783 230 223 227
-0.2571547 -0.056247562 -0.81602985 219 205 215
-0.25667536 -0.055339377 -0.81503135 224 213 221
-0.25709283 -0.056312803 -0.81591821 220 206 216
-0.25587994 -0.055568717 -0.8135379 231 231 232
-0.2557604 -0.05498492 -0.81333476 231 230 231
-0.25578207 -0.053067375 -0.81317741 231 225 229
0.18149893 -0.054253194 -0.81407869 225 227 237
0.18139897 -0.053645205 -0.81382853 226 227 237
0.18154243 -0.056431901 -0.81460619 225 227 237
0.18039571 -0.05580581 -0.81311387 226 227 237
0.1806473 -0.056347396 -0.81352854 226 227 237
0.18249141 -0.055437014 -0.81555575 225 227 238
0.18327862 -0.055364028 -0.81651479 225 227 238
0.18310918 -0.054417346 -0.81609601 226 228 238
0.18184637 -0.053670745 -0.81437105 225 227 237
0.18194108 -0.055834241 -0.81496215 225 227 237
0.18225712 -0.05400008 -0.81495094 225 227 237
0.18379462 -0.052960642 -0.81662369 226 228 237
0.1818123 -0.055623326 -0.81475681 225 227 237
-0.25651997 -0.056743205 -0.81483757 225 219 224
-0.25778067 -0.060104579 -0.81656671 201 185 197
-0.25699994 -0.058096357 -0.81548119 215 206 214
-0.25695729 -0.057724152 -0.81547439 217 208 215
-0.2572585 -0.059195094 -0.81575406 209 198 207
-0.25635925 -0.058650851 -0.814394 226 220 225
-0.25593141 -0.057097234 -0.81371862 231 231 233
-0.25697795 -0.059391003 -0.81532979 215 205 213
-0.25786734 -0.060495548 -0.81667626 199 182 195
-0.25597373 -0.05928693 -0.81384063 235 229 234
-0.25554487 -0.060003012 -0.81331366 238 231 238
-0.25551915 -0.058523968 -0.81324399 235 232 236
0.18160015 -0.058807082 -0.81548327 226 227 237
0.18053746 -0.05702861 -0.81359863 226 227 237
0.18026519 -0.056875054 -0.81322229 226 227 237
0.18017317 -0.059548151 -0.81401539 227 228 237
0.18020621 -0.058612593 -0.81374031 227 228 237
0.1797405 -0.059647691 -0.81352043 228 228 237
0.18089756 -0.058738858 -0.81462735 227 228 237
0.1806448 -0.05820103 -0.81413734 227 228 237
0.17937376 -0.060528181 -0.81336927 228 228 237
0.18193008 -0.059946224 -0.81629074 226 227 238
0.18172532 -0.057020552 -0.81500632 225 227 238
0.18183824 -0.058121722 -0.81553435 225 227 238
0.18169904 -0.058644932 -0.81554633 226 227 238
0.18241753 -0.057485834 -0.81602776 225 227 238
-0.2573168 -0.060984708 -0.81581736 210 194 207
-0.25737542 -0.060553525 -0.81594884 209 194 206
-0.25712904 -0.060600661 -0.8155793 214 200 211
-0.25749585 -0.060938578 -0.81608707 206 190 203
-0.25679654 -0.061679501 -0.81497508 220 205 217
-0.25662544 -0.06104276 -0.81478798 224 211 222
-0.25721335 -0.063101046 -0.81551123 211 191 207
-0.25761056 -0.063662536 -0.81602073 202 180 198
-0.25677624 -0.063943177 -0.81510836 220 201 214
-0.25668904 -0.062579185 -0.81486249 222 205 218
-0.25574037 -0.061590265 -0.81369221 239 229 237
-0.25526735 -0.063648209 -0.81341398 239 226 234
-0.25543165 -0.060951483 -0.8132534 240 230 238
-0.25514221 -0.062764667 -0.8131786 240 228 236
0.17856506 -0.061781205 -0.81295002 228 228 238
0.17938586 -0.061777435 -0.8139751 228 228 238
0.17932613 -0.06306652 -0.81450003 227 228 238
0.17876451 -0.061527528 -0.81308115 228 228 238
0.17806508 -0.064304136 -0.81349725 227 228 238
0.17970696 -0.063339032 -0.81510347 227 228 238
0.1784554 -0.063067287 -0.81341046 228 228 238
0.17860413 -0.063286118 -0.81369841 228 228 238
0.18071948 -0.061003719 -0.8152377 227 228 238
0.18035272 -0.063343398 -0.81590825 227 228 238
0.1806861 -0.063604824 -0.81644052 227 228 238
0.18004225 -0.062730983 -0.81523633 227 228 238
0.18006133 -0.062347118 -0.81507605 227 228 237
0.18152323 -0.060949568 -0.81619364 227 228 237
0.18164331 -0.061653778 -0.81668478 227 228 238
-0.25721699 -0.066251546 -0.81580764 225 213 220
-0.25709498 -0.064498559 -0.81552726 213 192 207
-0.25707442 -0.065729082 -0.81560403 223 210 218
-0.25741878 -0.064820141 -0.81591928 209 188 204
-0.25810987 -0.064459167 -0.81667084 192 165 187
-0.25678059 -0.066966929 -0.81526792 232 222 228
-0.25590384 -0.067804903 -0.8140139 235 216 230
-0.25596452 -0.067549296 -0.81411099 235 217 230
-0.25591859 -0.067592949 -0.81404525 235 217 230
-0.25624573 -0.065897718 -0.81458545 236 222 230
-0.25574732 -0.066622734 -0.81389791 236 219 230
-0.25564969 -0.067872889 -0.81373131 235 216 230
-0.25499824 -0.064784557 -0.81320059 239 224 233
-0.25525558 -0.066548757 -0.81339025 237 219 231
0.17770545 -0.066851817 -0.81424087 228 228 238
