ply
format ascii 1.0
comment PCL generated
element vertex 992
property float x
property float y
property float z
property uchar red
property uchar green
property uchar blue
element camera 0
property float view_px
property float view_py
property float view_pz
property float x_axisx
property float x_axisy
property float x_axisz
property float y_axisx
property float y_axisy
property float y_axisz
property float z_axisx
property float z_axisy
property float z_axisz
property float focal
property float scalex
property float scaley
property float centerx
property float centery
property int viewportx
property int viewporty
property float k1
property float k2
end_header
-0.026738169 0.10142619 -0.78310901 94 78 73
-0.025833925 0.10230779 -0.78230464 92 70 55
-0.026461495 0.099762768 -0.7825011 110 109 118
-0.026979394 0.10012338 -0.78312373 104 98 106
-0.026119573 0.10245002 -0.78263754 89 65 50
-0.0273185 0.10067666 -0.78359085 97 86 90
-0.025622731 0.10232395 -0.78208131 93 71 55
-0.027137481 0.10308841 -0.78388405 98 78 62
-0.027777428 0.10331502 -0.78463608 105 90 75
-0.0284092 0.10313198 -0.78529125 109 99 88
-0.028890397 0.10177763 -0.78552985 105 97 99
-0.02738061 0.10155259 -0.78382212 89 71 68
-0.028945254 0.10029207 -0.7852717 95 88 101
-0.025218436 0.10233623 -0.78166932 92 70 54
-0.048989903 0.098063052 -0.78360832 99 90 94
-0.04906759 0.096280374 -0.78294283 107 99 103
-0.049869057 0.097942986 -0.7823298 82 71 74
-0.048855472 0.097573519 -0.78364551 104 96 100
-0.049976777 0.097317852 -0.78196418 91 80 84
-0.050457064 0.098648451 -0.78170955 70 58 60
-0.049779881 0.097618572 -0.78235346 86 75 79
-0.048396517 0.095949687 -0.783894 113 105 110
-0.048283879 0.096583605 -0.78430742 111 103 108
-0.048243046 0.095865041 -0.78411359 112 104 109
-0.047774531 0.095977828 -0.78491849 110 102 106
-0.048723213 0.097063966 -0.78372902 109 101 106
-0.048236597 0.099568598 -0.78545558 103 95 102
-0.030045647 0.095979378 -0.78536522 101 89 113
-0.029802158 0.096501291 -0.78523153 99 89 113
-0.027639484 0.096386269 -0.78293896 97 85 116
-0.02900625 0.098850347 -0.78500736 94 88 110
-0.029075416 0.096436724 -0.7844128 98 89 116
-0.027146993 0.096303836 -0.78241551 97 84 116
-0.028154422 0.09576001 -0.78329003 99 87 117
-0.027148759 0.098811299 -0.78302038 104 100 118
-0.027018704 0.098846801 -0.78288937 105 101 118
-0.028280884 0.098926455 -0.78426123 98 92 113
-0.026969694 0.099245965 -0.78293121 107 105 119
-0.026858101 0.097756349 -0.7824592 103 95 118
-0.028611556 0.098926663 -0.78461576 96 89 111
-0.026219061 0.099129044 -0.78209889 111 110 123
-0.026963163 0.098655887 -0.78278464 105 100 119
-0.049131334 0.093971409 -0.78187311 115 106 114
-0.049069539 0.093838356 -0.78190327 115 106 114
-0.048742972 0.094745047 -0.78280586 115 107 113
-0.048823442 0.09548936 -0.78301167 115 107 113
-0.048167747 0.093930088 -0.78337479 111 103 111
-0.048347637 0.092805803 -0.78244591 110 102 111
-0.047379062 0.09385585 -0.78432661 107 100 106
-0.048093203 0.092202812 -0.7823875 109 101 109
-0.045583107 0.092050344 -0.78547227 100 94 100
-0.048148755 0.092005856 -0.7821939 109 101 109
-0.047167074 0.09494888 -0.78527904 107 100 104
-0.047084432 0.092813775 -0.78404784 106 98 105
-0.047758859 0.092458494 -0.78297108 108 100 108
-0.031154264 0.09404882 -0.78529185 100 88 109
-0.030480983 0.095193036 -0.78539658 101 89 112
-0.030267205 0.094388321 -0.78460312 99 90 114
-0.029847655 0.091864958 -0.78293347 98 97 122
-0.0298212 0.09245491 -0.78321522 98 96 121
-0.030470788 0.093456492 -0.78429925 99 91 115
-0.029410554 0.094952419 -0.78414726 99 91 118
-0.030803334 0.092930935 -0.78431785 99 92 114
-0.031910177 0.092695549 -0.78516173 99 88 107
-0.029135976 0.09211231 -0.78245169 98 100 126
-0.029261444 0.093401656 -0.7832185 98 96 122
-0.027432423 0.094057322 -0.78177732 99 93 124
-0.027517784 0.095403127 -0.78248799 98 86 119
-0.028601525 0.093304485 -0.78261697 101 100 127
-0.028142286 0.092299476 -0.7816841 101 104 131
-0.02739824 0.094750971 -0.78206414 99 89 121
-0.045053031 0.090930566 -0.78371072 96 88 90
-0.045587298 0.091668122 -0.78495806 100 93 99
-0.045637313 0.091651812 -0.78485036 100 93 99
-0.047265053 0.091678895 -0.78286171 105 98 105
-0.045533743 0.090754464 -0.78254193 97 86 89
-0.045293201 0.091029264 -0.78359383 97 88 91
-0.045317069 0.091396511 -0.78456199 98 90 95
-0.041492544 0.090483382 -0.78324717 93 81 85
-0.041659612 0.090628408 -0.78385335 93 82 86
-0.041316338 0.090650745 -0.78423053 93 81 85
-0.041415289 0.090303198 -0.78239375 93 80 84
-0.043732539 0.091069199 -0.78449214 98 89 94
-0.041526962 0.090660214 -0.78411651 93 82 86
-0.044657346 0.091248341 -0.78493541 99 92 96
-0.044548992 0.091111556 -0.78453428 98 91 94
-0.044859353 0.090222582 -0.78189337 93 81 82
-0.044619635 0.090753719 -0.78347307 96 87 89
-0.04408003 0.091023929 -0.78429061 98 89 93
-0.044080872 0.091093592 -0.78449672 98 90 94
-0.039863236 0.090789862 -0.78481358 98 88 94
-0.039693743 0.090925612 -0.78554529 99 89 97
-0.039794456 0.090870492 -0.78525662 98 88 96
-0.038939737 0.090641961 -0.78372437 103 93 100
-0.038323067 0.090809539 -0.78452033 106 96 108
-0.037630931 0.090343602 -0.78172916 110 100 109
-0.04037803 0.090722077 -0.78460121 95 85 89
-0.038682729 0.090402022 -0.78239065 104 94 101
-0.040227149 0.090441898 -0.78312939 96 84 90
-0.037983563 0.090302616 -0.78164411 108 98 107
-0.040545721 0.090783209 -0.78496921 94 84 88
-0.033243742 0.090827115 -0.78330755 102 94 108
-0.03457392 0.09080822 -0.78381765 106 97 113
-0.034394395 0.090795934 -0.78370762 105 97 113
-0.035203461 0.091205962 -0.78518802 107 97 115
-0.035145562 0.091157421 -0.78502882 107 97 114
-0.034334801 0.090905167 -0.78398561 105 96 112
-0.036674794 0.090527408 -0.78266895 111 102 115
-0.037065882 0.090662062 -0.78336519 112 103 117
-0.03648857 0.090905108 -0.78486419 111 102 120
-0.03654043 0.090876088 -0.78468847 111 102 120
-0.036576048 0.090460181 -0.78230321 111 102 114
-0.031201709 0.091787152 -0.78406209 98 93 114
-0.029452296 0.091287859 -0.78194219 98 101 125
-0.030108048 0.091350339 -0.78257346 99 99 122
-0.031242551 0.091195777 -0.78304166 100 97 117
-0.031203417 0.091306776 -0.78332442 100 97 116
-0.031670436 0.090855695 -0.78237522 101 98 115
-0.032892641 0.091597408 -0.78522736 100 91 107
-0.0321045 0.091197342 -0.78360534 100 95 112
-0.030762 0.091225147 -0.78281134 99 98 119
-0.044296492 0.10858428 -0.798132 65 51 53
-0.044390813 0.10822465 -0.79777181 68 53 55
-0.04421727 0.10739536 -0.79747236 72 56 61
-0.043638632 0.10705147 -0.7980684 71 57 62
-0.042916808 0.10534354 -0.79822385 70 61 65
-0.044217445 0.10734931 -0.79745096 72 56 61
-0.043942016 0.10623053 -0.79729551 72 59 63
-0.043560103 0.10529944 -0.79736513 72 61 64
-0.043507241 0.1063771 -0.79792958 71 58 63
-0.042656451 0.10341472 -0.79765111 70 63 64
-0.042670418 0.10250933 -0.79726696 73 67 65
-0.040721785 0.09979932 -0.79793805 81 73 62
-0.040688414 0.10064942 -0.798271 75 67 59
-0.03973826 0.10076597 -0.79764873 77 68 63
-0.039271016 0.101467 -0.7975893 77 66 66
-0.041097321 0.098701201 -0.79756039 85 78 70
-0.040935777 0.098197065 -0.79737455 87 80 75
-0.04110086 0.072639085 -0.74590218 106 96 100
-0.04268036 0.072266825 -0.74594402 110 99 107
-0.040759496 0.072517172 -0.7457068 107 97 102
-0.040190734 0.072272301 -0.74536049 110 100 107
-0.037472725 0.073720083 -0.74637413 122 113 121
-0.038601261 0.07341738 -0.74630117 117 107 114
-0.037768394 0.073468484 -0.74620384 121 111 120
-0.036752027 0.072811253 -0.745507 125 116 127
-0.036525834 0.072654046 -0.74536431 125 117 127
-0.03668052 0.072607763 -0.74532694 125 116 127
-0.03519477 0.07343325 -0.74600011 127 119 127
-0.034517109 0.073262855 -0.74582916 128 121 128
-0.033628017 0.073526233 -0.74600232 128 121 128
-0.032863975 0.073192626 -0.74571723 129 122 129
-0.032972872 0.073890455 -0.74628437 128 121 128
-0.032842774 0.073119313 -0.74565786 129 122 129
-0.030779745 0.073726691 -0.74626511 127 117 127
-0.030647757 0.073543094 -0.7461071 128 117 127
-0.030475423 0.073856793 -0.74640286 127 116 127
-0.028296789 0.072978869 -0.74580079 123 111 122
-0.028582953 0.072495826 -0.74532884 126 114 124
-0.027227687 0.072889961 -0.74584633 118 106 116
-0.025567975 0.073032126 -0.74617112 110 99 107
-0.025738349 0.072744258 -0.74588984 111 100 108
-0.02225988 0.072387248 -0.74629223 105 87 102
-0.024774341 0.072267823 -0.7456336 110 97 106
-0.051881712 0.068444498 -0.74574733 158 145 151
-0.04962226 0.069999434 -0.74639195 143 131 137
-0.049948197 0.069141574 -0.74547654 148 137 143
-0.049802106 0.068897724 -0.74506992 149 137 144
-0.051516291 0.068782039 -0.74597108 156 144 149
-0.049554229 0.069066927 -0.74513781 147 136 143
-0.048638958 0.068870276 -0.74438334 144 133 141
-0.047660887 0.068708427 -0.74389702 137 126 134
-0.048777174 0.070058458 -0.74596709 139 128 135
-0.048136175 0.068882138 -0.74425691 140 129 137
-0.04814814 0.069766589 -0.7454102 136 125 132
-0.048275936 0.07026998 -0.74606627 135 124 130
-0.047106385 0.070203401 -0.74548936 129 118 125
-0.046428803 0.070233084 -0.7452243 126 114 122
-0.04605633 0.069215931 -0.74403197 125 113 121
-0.047229465 0.070011109 -0.74534827 130 119 126
-0.044999428 0.068839662 -0.74319053 120 108 116
-0.046713125 0.071131848 -0.74625838 126 115 124
-0.041893996 0.070110343 -0.74368805 110 98 106
-0.044220872 0.068437979 -0.74261594 116 104 113
-0.043351166 0.068644822 -0.74264759 114 101 111
-0.041166559 0.071797773 -0.74505091 107 97 102
-0.041064139 0.071576901 -0.74483824 107 96 102
-0.044395223 0.068484329 -0.74268752 117 105 114
-0.04373784 0.07147418 -0.74546272 113 102 111
-0.043193139 0.070112348 -0.74391949 114 103 109
-0.044158474 0.070719585 -0.74482685 115 104 113
-0.043182023 0.070444278 -0.74425197 113 102 109
-0.044197183 0.07144054 -0.7455681 114 103 113
-0.043525916 0.071277313 -0.74519926 113 102 110
-0.043080766 0.070518687 -0.74429649 113 102 109
-0.044871937 0.072054468 -0.74639696 116 105 116
-0.04012759 0.069642842 -0.74303037 112 98 111
-0.038557898 0.070985548 -0.7440542 119 107 119
-0.039452597 0.069752567 -0.74305236 116 102 115
-0.038934864 0.070345469 -0.74352425 118 105 117
-0.037136961 0.070759483 -0.74369162 127 115 128
-0.039202649 0.070710346 -0.74387866 116 104 115
-0.037811223 0.071689196 -0.74459928 122 112 124
-0.038475625 0.071891434 -0.74484611 118 109 119
-0.040666811 0.069538124 -0.7429949 110 96 107
-0.040793307 0.070039362 -0.74345022 109 96 106
-0.037916802 0.072159089 -0.74502474 121 111 122
-0.034259245 0.07117632 -0.74402547 132 123 132
-0.034645505 0.070545837 -0.74349445 133 123 132
-0.034728438 0.069723271 -0.74281335 135 124 134
-0.034118131 0.071255669 -0.74409485 132 124 132
-0.035715774 0.069871895 -0.74290866 132 120 131
-0.03461102 0.071848534 -0.74461013 130 122 130
-0.034861945 0.071789466 -0.74456257 129 121 130
-0.034582954 0.071770772 -0.74453998 130 122 130
-0.034281254 0.072145954 -0.74486929 130 123 130
-0.036252741 0.072170176 -0.74493229 126 118 128
-0.032682046 0.069386318 -0.74258655 142 131 138
-0.029307593 0.070292369 -0.74339747 142 127 134
-0.030978961 0.069575422 -0.74277318 144 130 137
-0.030006545 0.07171686 -0.74456781 132 120 130
-0.030711219 0.069473565 -0.74269331 145 130 137
-0.030382093 0.070747003 -0.74375618 137 125 133
-0.032618247 0.069881901 -0.74299872 139 128 137
-0.032698076 0.071096137 -0.74399912 135 126 134
-0.031149726 0.071036652 -0.74398255 135 123 133
-0.030767057 0.071287267 -0.74419743 134 122 132
-0.031172352 0.071340881 -0.74423313 134 123 132
-0.025703862 0.071380064 -0.74476421 123 109 115
-0.025579963 0.069662437 -0.7434634 147 128 133
-0.026217073 0.070566021 -0.74405378 134 118 124
-0.027391927 0.069996536 -0.74342281 140 124 129
-0.027522454 0.069527946 -0.74304092 147 129 134
-0.026946327 0.069261238 -0.74293041 151 132 137
-0.028024403 0.070446961 -0.74367619 135 120 126
-0.028511917 0.070906095 -0.74399978 134 120 128
-0.028969966 0.070765309 -0.74382889 138 123 131
-0.028939001 0.0719328 -0.74480164 130 117 127
-0.028412169 0.070927344 -0.74402922 134 120 127
-0.025377793 0.069403157 -0.74329746 150 131 135
-0.023276484 0.070029624 -0.74416655 144 127 129
-0.024244038 0.068656169 -0.74293184 162 141 143
-0.02348268 0.07028161 -0.74432242 140 124 126
-0.023087533 0.069882788 -0.74408847 146 129 130
-0.022124998 0.068559691 -0.74324822 166 144 144
-0.024035867 0.072173774 -0.74571943 110 95 105
-0.022472281 0.070715643 -0.74488974 132 113 120
-0.02368913 0.071251839 -0.74505436 125 109 116
-0.022934144 0.071821116 -0.74567711 114 97 108
-0.023286041 0.070718072 -0.7447136 133 116 121
-0.023585659 0.071409009 -0.74520332 122 106 114
-0.023072626 0.071247831 -0.74518609 124 107 115
-0.018709011 0.07019309 -0.74545175 154 136 139
-0.019254122 0.070359819 -0.74542826 146 127 132
-0.018432725 0.069911867 -0.74530041 160 143 143
-0.018949052 0.070733853 -0.74582905 146 129 134
-0.020718031 0.071700007 -0.74610734 118 97 111
-0.019406242 0.068927445 -0.7442295 167 148 146
-0.018968711 0.068755642 -0.74420947 172 153 149
-0.021015614 0.070120417 -0.74475402 142 121 127
-0.018596772 0.068644315 -0.74422038 175 157 152
-0.021189738 0.068756104 -0.7436105 164 142 142
-0.018639974 0.068854831 -0.74437791 171 153 149
-0.019760787 0.069113053 -0.74428302 163 144 143
-0.017334195 0.068460017 -0.74443328 184 167 160
-0.05713091 0.064591996 -0.74440056 184 174 170
-0.057259854 0.065342359 -0.74574161 178 169 168
-0.057147879 0.06554307 -0.74595606 177 168 168
-0.057313219 0.064743839 -0.74482584 182 173 169
-0.05335575 0.066629499 -0.74440062 170 156 159
-0.053532537 0.065844767 -0.74355048 175 160 162
-0.053617511 0.066593871 -0.74450123 171 158 160
-0.053079262 0.067040533 -0.74474508 167 153 157
-0.053080041 0.067975029 -0.74588245 162 149 154
-0.054268643 0.066373497 -0.74462289 173 160 161
-0.055196792 0.064614803 -0.74300861 185 172 168
-0.055569727 0.065307394 -0.74409699 181 169 166
-0.054863691 0.065191627 -0.74352044 181 168 166
-0.054582361 0.066643558 -0.74518734 172 160 161
-0.055266924 0.066882722 -0.74625021 170 160 162
-0.055280544 0.066858537 -0.74622464 171 160 162
-0.055478554 0.06614843 -0.74527377 175 165 164
-0.056291424 0.066391096 -0.74647921 173 164 165
-0.049137823 0.067446046 -0.74299026 155 143 151
-0.049244758 0.067568481 -0.74316353 154 142 150
-0.0524063 0.06601169 -0.74311465 170 154 160
-0.05179029 0.066771626 -0.74365729 164 149 156
-0.051016748 0.067153074 -0.74364734 160 146 154
-0.049206674 0.068195365 -0.74380469 149 138 147
-0.050622135 0.067594871 -0.74394059 157 144 151
-0.051306784 0.068094254 -0.74495965 156 144 151
-0.051508021 0.066361725 -0.74299097 165 150 157
-0.048768926 0.067443907 -0.74282861 155 143 150
-0.048025746 0.067951791 -0.74313331 145 134 142
-0.047058973 0.068225779 -0.74313802 136 124 133
-0.023090228 0.068014033 -0.74266428 170 148 149
-0.021874454 0.067882359 -0.74279165 173 151 150
-0.018385023 0.066514917 -0.74262094 194 179 176
-0.017796095 0.067529522 -0.74356359 189 173 167
-0.021077825 0.067515954 -0.74270201 178 157 156
-0.019719228 0.067907363 -0.74335796 179 160 156
-0.016572524 0.067244478 -0.7437427 195 180 177
-0.015869699 0.067586526 -0.74424976 195 180 178
-0.015860656 0.067625962 -0.74428356 195 180 177
-0.017096443 0.067309156 -0.7436136 193 178 173
-0.08650849 0.060663264 -0.74645406 95 77 75
-0.063975424 0.060900886 -0.74577624 166 159 164
-0.06180995 0.061882176 -0.74525166 171 163 170
-0.062497649 0.062179282 -0.74619579 167 160 165
-0.060615323 0.062672392 -0.74529451 175 167 175
-0.062623695 0.061501909 -0.74542606 168 160 166
-0.061846562 0.062737219 -0.74638307 168 163 168
-0.062195897 0.06191377 -0.74560744 169 161 167
-0.063053116 0.061458658 -0.74572086 166 158 163
-0.059416801 0.063926488 -0.74574387 176 170 172
-0.056929071 0.064428575 -0.74394506 185 175 170
-0.056920916 0.063551925 -0.74306148 190 180 176
-0.056890104 0.063565388 -0.7430464 190 180 176
-0.056758646 0.064399965 -0.7437489 186 175 170
-0.058764111 0.062716104 -0.743698 184 174 177
-0.057146423 0.063209035 -0.74288398 190 181 178
-0.059367418 0.063322917 -0.74502015 179 172 175
-0.058278218 0.063026294 -0.74366236 185 176 177
-0.060187809 0.062909052 -0.74522185 176 169 175
-0.060089312 0.061658736 -0.74352294 180 169 178
-0.059615202 0.062442511 -0.74410796 180 171 177
-0.059163112 0.061851051 -0.74294102 184 172 179
-0.056021098 0.064081259 -0.74294621 188 177 172
-0.086954005 0.059571404 -0.74614817 113 95 93
-0.086570457 0.060372632 -0.74638891 100 82 79
-0.069575123 0.057313208 -0.74631172 193 181 187
-0.068733148 0.057149228 -0.74560881 185 172 177
-0.065115593 0.057885878 -0.74341083 179 170 175
-0.06448663 0.05878954 -0.74391222 177 167 175
-0.066800356 0.057830662 -0.74481374 181 171 176
-0.067075223 0.056814987 -0.74392235 183 173 176
-0.06639909 0.057449844 -0.7440291 181 171 176
-0.065072276 0.059836473 -0.7455157 175 167 173
-0.06608963 0.05731719 -0.74360424 181 171 175
-0.065999374 0.058728267 -0.74510312 178 169 175
-0.065366782 0.059719879 -0.74562657 175 166 173
-0.067962348 0.057089765 -0.74500912 183 172 176
-0.0657757 0.060172666 -0.74628365 169 158 163
-0.067285158 0.058295157 -0.74563634 176 165 169
-0.067261592 0.058897242 -0.74620211 171 158 163
-0.064185284 0.060278118 -0.74524862 175 166 173
-0.063861474 0.060463026 -0.74517548 175 166 174
-0.063994974 0.060067438 -0.74486572 175 166 174
-0.064252302 0.059666917 -0.74465406 176 166 174
-0.063177653 0.059558596 -0.74364275 178 166 176
-0.064399615 0.060318742 -0.74547052 174 166 173
-0.06094078 0.060400333 -0.74267352 180 166 179
-0.068734273 0.055789046 -0.74432129 189 179 183
-0.068684131 0.055292569 -0.74380291 191 181 185
-0.070392326 0.053080149 -0.74292332 206 197 202
-0.070654191 0.052919284 -0.74297988 207 198 203
-0.069120124 0.055679273 -0.74452752 191 180 185
-0.071046762 0.053480223 -0.74389386 205 196 201
-0.070748046 0.054423094 -0.7445792 201 192 197
-0.07199046 0.053190988 -0.74436069 210 202 207
-0.069773301 0.056058783 -0.745305 198 189 193
-0.069314346 0.055965561 -0.74493134 192 182 187
-0.070532098 0.055952154 -0.74570662 206 198 203
-0.068289898 0.056513704 -0.74468881 185 174 178
-0.067194231 0.056162111 -0.7433691 185 175 179
-0.06819047 0.055181816 -0.74330753 190 180 184
-0.071385354 0.052704401 -0.74337894 209 201 206
-0.037368666 0.084614903 -0.76140761 109 103 110
-0.037172548 0.084039964 -0.76003975 108 101 108
-0.037583608 0.084745951 -0.7618289 110 103 110
-0.036678098 0.084006205 -0.75992745 108 100 108
-0.035716962 0.084558681 -0.76112407 109 100 110
-0.035578664 0.084264994 -0.76049036 108 99 109
-0.03625799 0.084939875 -0.76192331 110 102 110
-0.034848541 0.084721088 -0.76143277 109 100 110
-0.034220181 0.084763087 -0.76149458 109 100 109
-0.032120641 0.08413469 -0.76029736 106 95 109
-0.031181462 0.084362648 -0.76084453 106 96 109
-0.030446973 0.08426816 -0.76072425 104 96 109
-0.032627881 0.084409587 -0.76080185 108 97 109
-0.03101391 0.0848042 -0.7618311 106 98 110
-0.031322058 0.08488819 -0.76196998 107 98 110
-0.028696215 0.084012896 -0.76067698 102 93 108
-0.027688313 0.084129117 -0.76152605 101 92 106
-0.064939767 0.08105576 -0.76147807 63 42 40
-0.066511728 0.080615357 -0.76021266 52 32 32
-0.066868007 0.081546813 -0.76019639 48 29 28
-0.064408779 0.081193596 -0.76189947 64 44 41
-0.049219191 0.080151826 -0.76176786 116 107 114
-0.048190627 0.08030463 -0.7611599 114 105 112
-0.045542251 0.080194421 -0.75868636 118 110 118
-0.04679409 0.080535494 -0.76042855 115 106 114
-0.045029778 0.080236703 -0.75831652 118 110 119
-0.046465255 0.080635659 -0.76035529 115 106 114
-0.045000479 0.080765285 -0.75937831 117 109 118
-0.045382261 0.081214212 -0.7606253 116 106 116
-0.045699652 0.080767751 -0.75997692 116 107 116
-0.046453141 0.081302457 -0.76171583 114 104 113
-0.04186511 0.082712144 -0.76078111 108 103 111
-0.042911846 0.08290378 -0.76193428 111 104 113
-0.042416524 0.082829319 -0.76141751 110 104 112
-0.04154722 0.083154157 -0.76132143 108 103 112
-0.04149906 0.082393572 -0.75993001 106 103 111
-0.04124539 0.082501478 -0.75992537 105 102 111
-0.044485934 0.08220011 -0.76190263 114 104 114
-0.042571977 0.08162006 -0.75932741 108 103 112
-0.041454285 0.081543475 -0.75834173 104 102 110
-0.044276673 0.080650195 -0.75859684 115 108 117
-0.044243034 0.081881359 -0.76110291 113 104 114
-0.044370845 0.081729092 -0.76088458 113 105 115
-0.044196904 0.081331246 -0.75993782 114 106 115
-0.040595278 0.083941698 -0.76204413 109 104 112
-0.037146721 0.083587937 -0.75927955 107 100 107
-0.038267337 0.08325991 -0.75947434 107 100 107
-0.037395854 0.083083861 -0.75864542 106 99 106
-0.038210519 0.083115913 -0.75919986 106 100 107
-0.040579036 0.082421198 -0.75934881 105 102 110
-0.040918622 0.082863189 -0.76033437 106 103 110
-0.040918428 0.083802246 -0.76200604 108 103 111
-0.037522048 0.082920305 -0.75844878 106 99 106
-0.038997594 0.08332146 -0.76002628 107 101 108
-0.039168768 0.083278239 -0.76004946 107 101 109
-0.034256347 0.083689287 -0.75942564 107 96 108
-0.033617601 0.083122052 -0.75858855 107 94 109
-0.033959929 0.083335526 -0.7589013 107 95 108
-0.036973312 0.083671488 -0.75938743 107 100 107
-0.034499198 0.083904706 -0.75976276 107 96 108
-0.035901997 0.083780736 -0.75956297 107 98 107
-0.031180352 0.082990445 -0.75856233 105 94 109
-0.029717755 0.082937583 -0.7585904 104 94 109
-0.030281004 0.083659165 -0.75967842 104 94 109
-0.029689882 0.083387241 -0.75929713 103 94 109
-0.030870866 0.083863489 -0.75993198 105 94 109
-0.03074733 0.083745904 -0.75976717 104 94 109
-0.027160792 0.083947614 -0.76144844 101 91 105
-0.028618241 0.083566442 -0.76000285 102 93 108
-0.029221274 0.083606847 -0.75971514 103 94 109
-0.028059341 0.083036914 -0.75949007 102 93 107
-0.027016697 0.082678847 -0.75916302 100 90 105
-0.026179468 0.08321093 -0.76065797 100 90 104
-0.02775234 0.082924902 -0.75939107 102 92 107
-0.027289597 0.082842268 -0.75940341 101 91 106
-0.026131336 0.082958996 -0.7601335 99 89 104
-0.02299634 0.082177684 -0.76013619 104 97 110
-0.023217287 0.082356408 -0.76041049 103 96 110
-0.023316775 0.082831591 -0.76156527 106 97 109
-0.021609247 0.081842311 -0.76046956 110 102 115
-0.02270617 0.081976794 -0.75986439 104 97 111
-0.021762677 0.081403822 -0.75919014 106 100 115
-0.024377672 0.082292117 -0.75955355 100 90 106
-0.02355184 0.082031861 -0.75944388 101 93 109
-0.025218576 0.082227573 -0.75895333 97 86 103
-0.02456978 0.082975902 -0.76092553 100 92 105
-0.023443822 0.081649743 -0.75867754 101 93 109
-0.024335071 0.081806116 -0.75852698 99 89 106
-0.019106422 0.080303587 -0.75964171 130 117 133
-0.020201648 0.080467463 -0.7587167 116 108 125
-0.020580685 0.080742247 -0.75884593 115 106 122
-0.020591075 0.080876619 -0.75903136 112 103 119
-0.019695185 0.081091844 -0.76047027 120 106 121
-0.019808644 0.081510767 -0.76144725 122 107 121
-0.020784123 0.081508636 -0.76043165 114 104 118
-0.020831313 0.081186868 -0.75954211 111 103 118
-0.020742983 0.081452161 -0.76032668 114 104 118
-0.019799236 0.081494614 -0.76141483 122 107 121
-0.017227903 0.080421612 -0.76168644 144 123 139
-0.066440791 0.076460831 -0.75927198 88 67 75
-0.065795861 0.076201387 -0.75962287 104 83 91
-0.065790333 0.077255227 -0.75980657 104 82 88
-0.066655375 0.076836556 -0.75920451 82 62 69
-0.067097887 0.077858858 -0.75910974 70 49 54
-0.066412628 0.079566486 -0.75999498 63 41 42
-0.065371774 0.077159531 -0.76005471 114 91 98
-0.064739376 0.079693593 -0.76125634 76 55 54
-0.065560438 0.079323873 -0.76054776 75 54 54
-0.066433534 0.078754969 -0.75974303 76 55 58
-0.064959154 0.077496566 -0.76045489 112 90 95
-0.064795814 0.078366995 -0.7608282 99 77 79
-0.063161045 0.07715334 -0.76133615 136 119 123
-0.063801937 0.078129336 -0.76139265 116 97 100
-0.06388326 0.078947403 -0.76163787 103 84 86
-0.062139485 0.076881453 -0.76168627 148 136 139
-0.063770652 0.077980258 -0.76135516 119 99 103
-0.06324558 0.0764843 -0.76107007 145 128 133
-0.064125702 0.079787098 -0.76172125 84 65 64
-0.058937032 0.076287858 -0.76190042 158 152 156
-0.057197336 0.076752558 -0.76205063 148 140 146
-0.055801291 0.076291062 -0.76059437 133 122 130
-0.053587094 0.076180205 -0.7583794 118 103 113
-0.054391559 0.076575138 -0.75970185 128 116 125
-0.055813614 0.076848567 -0.76134098 139 130 137
-0.054458216 0.077078357 -0.76077276 133 123 131
-0.054354005 0.077218302 -0.76098436 134 124 132
-0.053295143 0.077769421 -0.76131618 133 122 131
-0.053050876 0.076826952 -0.7591598 123 110 120
-0.053226329 0.07718648 -0.76004606 127 115 125
-0.051524702 0.07899937 -0.76202422 128 119 127
-0.050143231 0.079811133 -0.7620554 120 112 119
-0.04927114 0.079288714 -0.76030278 123 114 120
-0.049883645 0.079522774 -0.76132613 121 112 119
-0.049893264 0.079533137 -0.76135397 121 112 119
-0.050606005 0.078606211 -0.76042843 130 121 128
-0.049923558 0.078378186 -0.75934613 131 124 129
-0.050246373 0.079379052 -0.7614339 123 114 121
-0.052199725 0.076795571 -0.75831729 121 108 117
-0.050879981 0.07750921 -0.75849301 125 115 122
-0.049888566 0.078210719 -0.75897038 130 122 128
-0.049305975 0.078257583 -0.75848812 130 123 127
-0.051151108 0.077447228 -0.75863361 125 114 122
-0.051307872 0.077448264 -0.75879186 125 114 122
-0.050533734 0.077801749 -0.75875896 128 118 125
-0.048671495 0.079154439 -0.7594918 124 116 121
-0.048771132 0.079550169 -0.76027447 120 112 117
-0.048746601 0.079186849 -0.75961256 123 115 120
-0.048710797 0.078896448 -0.7590698 126 118 123
-0.048024584 0.08004117 -0.76050889 116 108 114
-0.018497832 0.079525933 -0.75888532 136 125 140
-0.017939433 0.079692595 -0.75982976 144 129 144
-0.017582526 0.07996127 -0.76072437 149 129 146
-0.017426491 0.0800023 -0.76090974 149 130 146
-0.017089004 0.080017768 -0.7611748 150 131 147
-0.066085599 0.07594917 -0.75934827 98 78 86
-0.066959605 0.076033227 -0.75884879 74 56 64
-0.06461627 0.072796434 -0.75893825 165 149 154
-0.065330043 0.074994288 -0.75941402 127 107 114
-0.065811776 0.075350873 -0.75926745 111 92 99
-0.066741578 0.074845031 -0.75848901 91 74 81
-0.067351595 0.075005047 -0.75823396 79 61 69
-0.065931186 0.0725886 -0.75822943 152 134 141
-0.060565662 0.074174955 -0.76022857 179 176 176
-0.060833234 0.074520729 -0.76044148 176 171 171
-0.060896415 0.075329915 -0.76118267 172 166 168
-0.061948773 0.073710062 -0.75918734 170 160 162
-0.062925145 0.074758805 -0.75975972 158 143 147
-0.060696032 0.076017126 -0.76192236 170 166 167
-0.062510364 0.075312629 -0.7604658 159 146 150
-0.060993634 0.072937898 -0.7588684 181 176 176
-0.062563978 0.072686404 -0.75880194 177 167 169
-0.063684724 0.073123753 -0.75909644 169 154 159
-0.063700199 0.074971907 -0.75986505 153 134 140
-0.063641801 0.074204773 -0.75954074 160 143 148
-0.06345734 0.073266022 -0.75913256 169 154 159
-0.064038262 0.074338846 -0.7596364 157 139 145
-0.058120083 0.073850252 -0.75872159 155 146 147
-0.057633221 0.074582666 -0.75949788 149 139 143
-0.056935158 0.074510485 -0.75868249 137 124 125
-0.059093505 0.073510297 -0.75910157 170 165 166
-0.05804259 0.074519075 -0.75979406 156 148 152
-0.058939263 0.075944126 -0.76154935 158 152 156
-0.059994303 0.073294558 -0.75927466 178 174 175
-0.058171839 0.075799868 -0.76123905 152 144 150
-0.060136143 0.073933333 -0.75991261 177 173 174
-0.059415046 0.074406751 -0.76019865 169 163 166
-0.0603204 0.07500726 -0.76097286 174 170 171
-0.060310155 0.074871123 -0.76084143 175 171 171
-0.055136818 0.075682759 -0.75898874 126 112 119
-0.056255378 0.075970165 -0.76053607 134 122 131
-0.056015808 0.075323239 -0.75919884 131 117 122
-0.055631202 0.075341016 -0.75886714 128 114 120
-0.063483194 0.072040908 -0.75851691 179 167 170
-0.053538512 0.095151074 -0.77647555 61 48 52
-0.052820463 0.093223661 -0.77668238 92 78 82
-0.053794172 0.094770409 -0.77602035 61 49 53
-0.053664926 0.093654558 -0.77578253 75 62 66
-0.052936699 0.093380392 -0.77659333 89 75 79
-0.052884445 0.093010455 -0.77652621 93 80 84
-0.053924728 0.093124285 -0.77527696 76 64 67
-0.053153791 0.092034385 -0.77585453 100 86 89
-0.053147182 0.091926686 -0.77582884 101 87 90
-0.054513667 0.093581013 -0.77471858 63 51 53
-0.052265968 0.092579842 -0.77713513 104 92 97
-0.052491613 0.092019632 -0.77665704 108 95 100
-0.052351691 0.092791982 -0.77710652 101 88 94
-0.053713284 0.0909499 -0.7747649 96 82 85
-0.053341165 0.090940014 -0.77520353 102 88 91
-0.053150807 0.091665938 -0.77572995 102 88 91
-0.053684775 0.091176733 -0.77489257 96 82 84
-0.054671135 0.091561668 -0.77387822 79 64 64
-0.051589906 0.089911416 -0.77669239 116 107 115
-0.049817733 0.088461265 -0.77738774 106 99 109
-0.051734932 0.089343779 -0.77626932 117 107 115
-0.051012512 0.088330008 -0.77632725 112 104 113
-0.049566731 0.088695511 -0.77772081 105 98 109
-0.050198425 0.089167364 -0.77744889 108 101 111
-0.050695047 0.088421196 -0.7766391 110 103 112
-0.052711215 0.089584298 -0.77539361 115 104 110
-0.052155506 0.090614103 -0.77649987 117 106 113
-0.052161485 0.091186106 -0.77672887 115 104 110
-0.045991924 0.088220902 -0.77768427 106 98 107
-0.046049494 0.088009238 -0.77739316 106 98 109
-0.043930307 0.088170059 -0.77651405 106 98 108
-0.043324783 0.088228688 -0.77610499 105 98 107
-0.04274359 0.088260807 -0.77577198 104 98 107
-0.041600261 0.089277416 -0.77760482 100 93 103
-0.042586759 0.088858008 -0.7772122 103 95 105
-0.043588389 0.088598676 -0.77724594 105 97 106
-0.041646082 0.088791192 -0.77637446 101 95 105
-0.041067261 0.089388959 -0.77751815 99 92 102
-0.037886232 0.089367509 -0.7755841 97 89 96
-0.039525583 0.089471415 -0.77687246 98 90 99
-0.038675725 0.089603893 -0.77692735 97 89 98
-0.039004508 0.08966063 -0.77732497 97 90 98
-0.040928833 0.089477092 -0.77765238 98 91 101
-0.040987145 0.088419572 -0.77494448 101 96 106
-0.040082172 0.08928936 -0.77657712 99 91 100
-0.039734785 0.088740505 -0.77491134 100 93 102
-0.039828736 0.088977531 -0.77559191 99 92 101
-0.037845936 0.089038782 -0.77437896 99 89 96
-0.04038452 0.08919894 -0.77655149 99 92 101
-0.033887096 0.089519523 -0.77587008 91 83 102
-0.033700943 0.089607209 -0.77660078 91 82 101
-0.034740813 0.089785881 -0.77730179 92 83 98
-0.035058148 0.08985661 -0.7776317 92 83 97
-0.034599796 0.089553043 -0.7757144 91 85 102
-0.036037162 0.089607783 -0.77592808 94 87 99
-0.036693268 0.089606106 -0.77602458 95 88 96
-0.036868814 0.089938372 -0.77734089 94 87 96
-0.035863891 0.08949694 -0.77547097 94 87 99
-0.03640284 0.089366734 -0.77505052 96 88 97
-0.034757063 0.089243211 -0.77431315 93 87 102
-0.029951056 0.089027248 -0.77472585 89 73 98
-0.02935053 0.089648202 -0.77711815 88 82 99
-0.030862687 0.089740895 -0.77760261 89 82 99
-0.030131962 0.089255571 -0.77563739 89 76 98
-0.03041964 0.089728251 -0.77751768 88 82 99
-0.030045234 0.089649618 -0.77717894 88 81 99
-0.033174604 0.089665577 -0.77731377 90 79 99
-0.03250229 0.08938165 -0.77573699 90 79 101
-0.032466765 0.089397959 -0.77587765 90 79 101
-0.032279447 0.089130372 -0.77408999 89 81 105
-0.032431461 0.089126624 -0.77396053 89 82 105
-0.026437731 0.090135336 -0.77755982 96 91 98
-0.025766071 0.089139678 -0.7754451 91 88 109
-0.025781848 0.090196848 -0.77749276 98 93 97
-0.026699735 0.09003336 -0.77743703 95 90 99
-0.025579054 0.08984936 -0.77676368 96 92 101
-0.028420821 0.089604169 -0.7770955 88 85 102
-0.028789109 0.089024469 -0.77489489 88 76 101
-0.028411841 0.089391783 -0.7765106 87 84 104
-0.028443171 0.088715412 -0.77383846 88 74 102
-0.027806774 0.088959843 -0.77508962 87 81 106
-0.028546987 0.088772953 -0.77401716 88 74 102
-0.023781158 0.090109214 -0.7763437 105 100 107
-0.025077678 0.089282341 -0.77554196 94 91 109
-0.023681825 0.089242943 -0.77514267 101 99 113
-0.024882715 0.089099512 -0.77514344 94 92 111
-0.024532745 0.08961349 -0.77605581 100 96 106
-0.053071171 0.087520033 -0.77407223 121 111 117
-0.051100787 0.087295212 -0.77559388 111 103 113
-0.052068759 0.087262526 -0.77476811 116 107 116
-0.051639963 0.087212972 -0.77508813 114 105 114
-0.049775176 0.086534418 -0.77442837 101 96 106
-0.049095981 0.087021925 -0.77583748 99 94 105
-0.051630124 0.086861335 -0.77455872 113 104 114
-0.050375786 0.087167434 -0.77573538 107 100 110
-0.049986023 0.086512104 -0.77430052 102 96 107
-0.047952022 0.08781191 -0.77757466 102 96 107
-0.045562655 0.087578841 -0.77628714 106 97 109
-0.046907607 0.087328382 -0.77597296 102 96 106
-0.047866933 0.087688975 -0.77723408 102 96 107
-0.045448564 0.08779496 -0.77685052 107 98 110
-0.046095602 0.086726531 -0.77420616 101 94 105
-0.047008291 0.087170698 -0.77561158 101 95 106
-0.048341196 0.086355314 -0.77415144 96 92 102
-0.047791637 0.086571887 -0.77446645 98 93 103
-0.046779595 0.086657681 -0.77429557 99 94 104
-0.047463104 0.086578839 -0.77436084 98 93 104
-0.043352116 0.087290391 -0.77396023 102 96 107
-0.044478115 0.087577999 -0.77572316 106 98 109
-0.043494035 0.08737237 -0.77430838 103 97 107
-0.042810388 0.087478064 -0.77401006 102 97 107
-0.046178747 0.10466891 -0.7921592 81 70 69
-0.046243452 0.10369838 -0.79146701 89 78 75
-0.046995427 0.10449914 -0.7904762 76 63 58
-0.046000112 0.10479444 -0.79257894 82 71 71
-0.046973519 0.10457135 -0.79056084 75 63 58
-0.046346717 0.10422182 -0.79157239 84 72 70
-0.046565205 0.10680558 -0.79265183 59 48 48
-0.046773054 0.10602313 -0.79178691 64 52 51
-0.034176454 0.10539027 -0.79312497 68 57 61
-0.034175657 0.10517967 -0.79306573 67 57 62
-0.033400573 0.10362951 -0.79141319 75 71 81
-0.033551257 0.10583797 -0.79227501 68 58 57
-0.033657737 0.10566487 -0.79239309 68 58 58
-0.034538087 0.10370777 -0.7932204 68 60 76
-0.032511938 0.10494711 -0.79062593 77 72 71
-0.032817591 0.10470121 -0.79093242 76 70 72
-0.032874063 0.10486756 -0.79104894 75 69 70
-0.032257039 0.1053711 -0.79044867 77 70 66
-0.03212826 0.10560592 -0.79036999 76 69 63
-0.032494631 0.10605463 -0.79093409 73 65 58
-0.031264201 0.10664763 -0.78967935 73 65 49
-0.032117184 0.10679525 -0.79071939 71 61 48
-0.044925109 0.10221487 -0.7933538 97 89 91
-0.046024181 0.10017676 -0.79007465 105 98 99
-0.045318052 0.10063671 -0.79178274 100 92 94
-0.045956187 0.10015466 -0.79020786 105 97 99
-0.04506366 0.10120687 -0.79258829 98 90 92
-0.045942288 0.10223456 -0.79128623 98 89 89
-0.045546338 0.10304289 -0.79246944 99 89 90
-0.045400236 0.10287654 -0.79266733 100 92 93
-0.046900321 0.10293315 -0.78978717 88 75 70
-0.046173207 0.10178614 -0.79060799 98 89 88
-0.046213459 0.10015097 -0.78968984 104 97 97
-0.044454843 0.099659421 -0.79299986 93 85 88
-0.034744971 0.1017983 -0.79300094 81 73 83
-0.0336699 0.10274822 -0.79158473 80 75 84
-0.034865014 0.10092457 -0.79294014 88 79 86
-0.033650447 0.10114821 -0.79123068 88 80 86
-0.033626039 0.10081031 -0.79112846 90 80 86
-0.033551097 0.10287152 -0.79143494 80 75 83
-0.033956509 0.10205613 -0.7918458 84 78 85
-0.034081198 0.099757351 -0.79156226 95 83 88
-0.033170812 0.1013624 -0.79060239 87 78 85
-0.032582417 0.10207752 -0.79003608 86 79 87
-0.032907736 0.1025815 -0.79053146 82 76 85
-0.032369263 0.1021943 -0.78979588 87 81 88
-0.045263764 0.097243942 -0.78996682 100 91 93
-0.044928737 0.096038759 -0.7899372 97 88 91
-0.045547239 0.098348677 -0.79004395 102 94 96
-0.044972055 0.099585645 -0.79201597 97 90 92
-0.045657724 0.097737722 -0.7894609 103 94 96
-0.044677597 0.096047468 -0.79036713 97 87 90
-0.044515785 0.097618632 -0.79163718 94 85 89
-0.043702684 0.096696146 -0.79238081 95 87 89
-0.044242576 0.097705334 -0.79214072 94 85 88
-0.043929476 0.097258545 -0.79236847 94 86 89
-0.04411722 0.098963767 -0.79315102 92 83 87
-0.044794954 0.097261235 -0.79092789 96 87 90
-0.03433283 0.099432334 -0.79182875 96 84 89
-0.033982661 0.098054811 -0.79086375 97 86 95
-0.033366945 0.097858213 -0.78992498 98 85 96
-0.034118388 0.099391192 -0.79151106 96 84 89
-0.034573127 0.098808423 -0.79195648 97 86 92
-0.034844618 0.097223796 -0.79170567 99 89 99
-0.033726484 0.09571559 -0.78967679 100 89 106
-0.035006572 0.098128535 -0.79228556 98 88 95
-0.035952229 0.097575903 -0.79323947 101 91 96
-0.03377882 0.096108109 -0.78990591 99 88 105
-0.0351802 0.096106663 -0.79166031 102 92 103
-0.035188515 0.097584575 -0.79228669 99 89 97
-0.033118419 0.098093383 -0.78971571 97 84 95
-0.043343667 0.095615141 -0.79224926 96 89 91
-0.041376915 0.094353333 -0.79334098 98 89 95
-0.041304074 0.094225049 -0.79325408 98 89 96
-0.042802393 0.094887778 -0.79195625 98 89 94
-0.041977789 0.09296377 -0.78968567 105 94 103
-0.041097295 0.093286633 -0.79181373 102 92 101
-0.042340089 0.094026878 -0.79115278 101 91 98
-0.042351462 0.094201021 -0.79147458 100 90 97
-0.042582791 0.09400256 -0.79069287 101 91 98
-0.041261993 0.093789443 -0.79251891 100 91 98
-0.04135862 0.09231893 -0.78947425 107 96 106
-0.042801961 0.094204724 -0.79071665 100 91 97
-0.038970016 0.093381174 -0.79148144 104 93 99
-0.037877992 0.093010731 -0.79042089 106 94 100
-0.037659746 0.094701417 -0.79295838 106 96 101
-0.038519021 0.093849801 -0.79201192 104 94 100
-0.037805755 0.094901361 -0.79333454 105 96 101
-0.03792543 0.092949077 -0.79034585 106 94 100
-0.037649438 0.093899801 -0.79170489 106 96 101
-0.040443785 0.092788443 -0.79080468 105 94 103
-0.037620649 0.092604376 -0.78959906 108 95 101
-0.040044431 0.0931371 -0.79136807 103 93 100
-0.039384611 0.093215324 -0.79132384 104 93 99
-0.037750889 0.092728913 -0.789882 107 95 100
-0.038792226 0.092725836 -0.79018766 106 95 101
-0.035646461 0.095468074 -0.79185683 104 94 104
-0.035009705 0.094952367 -0.79025966 103 92 104
-0.03420689 0.095555767 -0.79011142 101 90 106
-0.036977023 0.093101755 -0.79004341 108 96 101
-0.036415409 0.094001517 -0.79068387 106 95 102
-0.035017714 0.094561346 -0.78966129 103 91 104
-0.03609883 0.094961181 -0.79174989 105 95 103
-0.034649402 0.095132634 -0.79005212 102 91 105
-0.044972297 0.058335286 -0.73379076 206 195 193
-0.045158584 0.059434611 -0.73465848 200 186 183
-0.044006608 0.058207076 -0.73365569 207 196 194
-0.043231059 0.058869608 -0.73411691 202 191 187
-0.042362917 0.058681663 -0.73393774 203 192 188
-0.042754047 0.059514146 -0.73456132 198 186 179
-0.041985307 0.059270915 -0.73434693 200 188 181
-0.041048586 0.059166301 -0.7342248 200 188 181
-0.040992662 0.058641415 -0.7338413 203 193 186
-0.039301135 0.058560174 -0.73372972 201 189 182
-0.039571688 0.059718467 -0.73467487 196 183 175
-0.038091861 0.058890369 -0.73406208 199 187 181
-0.040013213 0.059549596 -0.73451352 197 184 175
-0.037400872 0.059446488 -0.73455602 197 184 179
-0.03628096 0.059151791 -0.73444051 200 187 184
-0.035881374 0.059476595 -0.73468506 200 189 185
-0.041224379 0.076548554 -0.75035924 108 105 114
-0.039859582 0.07642293 -0.74971783 108 104 113
-0.039229382 0.076413862 -0.74950993 109 104 113
-0.03760663 0.077250302 -0.75002062 110 103 112
-0.039884374 0.076758072 -0.75015181 108 104 113
-0.038453877 0.076716438 -0.74963492 109 103 113
-0.038127385 0.076356046 -0.74908227 110 103 113
-0.03400505 0.076195687 -0.74824798 114 106 113
-0.034540668 0.07654012 -0.74872714 113 105 113
-0.034396734 0.07661166 -0.74880165 113 105 113
-0.03391993 0.076485313 -0.74860209 114 106 113
-0.033355732 0.077389985 -0.74978191 113 103 112
-0.03647007 0.077674195 -0.75034571 111 102 112
-0.03327737 0.076468401 -0.74854171 114 106 113
-0.031821121 0.076278768 -0.74843735 113 103 112
-0.031611439 0.076805569 -0.74916708 112 101 111
-0.029761564 0.076285616 -0.74867648 110 97 109
-0.030105824 0.076228999 -0.74856216 110 98 109
-0.03063789 0.077415392 -0.75001377 110 99 110
-0.031818725 0.077764958 -0.75036949 111 100 111
-0.030451868 0.077548318 -0.75018734 110 99 110
-0.025502909 0.076181553 -0.74913257 101 91 99
-0.027475508 0.076890744 -0.74971545 105 95 104
-0.029207591 0.076596133 -0.74910688 109 97 109
-0.027706159 0.077181064 -0.75010496 105 95 105
-0.025916392 0.0763961 -0.7493481 102 92 100
-0.024481397 0.076562338 -0.75001055 101 91 102
-0.022933384 0.076414853 -0.75007564 101 92 106
-0.021465877 0.076355889 -0.75038636 101 95 111
-0.050333858 0.072402798 -0.75033283 147 134 146
-0.048093613 0.072454266 -0.74852091 130 121 129
-0.047462177 0.072776988 -0.74874002 129 119 128
-0.046501115 0.072490439 -0.74778545 123 113 123
-0.048235465 0.073409617 -0.75011241 134 125 133
-0.045080319 0.074447878 -0.74970269 117 109 118
-0.046256106 0.074318886 -0.75020832 124 115 124
-0.04514024 0.072929695 -0.74765986 117 107 117
-0.045104846 0.072756201 -0.74740189 117 106 117
-0.046092872 0.073544301 -0.7490536 122 113 122
-0.047060221 0.072988823 -0.7488547 128 118 127
-0.041589569 0.075427778 -0.7490924 108 104 112
-0.041494347 0.073043726 -0.74649608 107 96 100
-0.041337807 0.074179582 -0.74767691 107 99 104
-0.043221228 0.072603121 -0.7465018 111 100 108
-0.041079178 0.075586118 -0.74912107 107 103 110
-0.043344911 0.073311418 -0.74729967 111 102 112
-0.043245528 0.073916927 -0.7479316 112 104 114
-0.043391198 0.07449203 -0.7487703 112 106 115
-0.043197818 0.074232258 -0.7483204 112 105 115
-0.042619202 0.075010963 -0.7490477 111 105 114
-0.043791678 0.075317673 -0.75013578 113 107 117
-0.044172738 0.075249933 -0.75026739 115 108 117
-0.043910969 0.074119024 -0.74856567 113 106 116
-0.044761643 0.074511953 -0.74960411 116 108 117
-0.037686091 0.074569389 -0.74717599 116 107 116
-0.037240896 0.074440703 -0.74698138 120 111 120
-0.038024221 0.074000664 -0.74672139 118 108 116
-0.037350509 0.075863302 -0.74828643 111 103 112
-0.039906688 0.075357616 -0.74851304 108 101 108
-0.038195774 0.075661562 -0.74830991 109 101 110
-0.03986628 0.074715622 -0.74780846 107 99 105
-0.040397786 0.074003622 -0.74720585 107 97 102
-0.038795702 0.07507401 -0.74786264 108 100 107
-0.038549796 0.075240359 -0.74796575 109 100 108
-0.038715359 0.075702168 -0.74851483 109 102 110
-0.034210823 0.075315893 -0.74748927 119 110 118
-0.03367703 0.074423231 -0.74673635 125 118 125
-0.034515314 0.075205296 -0.7474134 119 111 118
-0.034935094 0.074779876 -0.74708623 121 113 121
-0.036765769 0.075893119 -0.74823725 112 104 114
-0.036734074 0.0748851 -0.7473231 118 110 119
-0.0362022 0.075831316 -0.74812615 113 105 114
-0.035188194 0.076099485 -0.74826908 113 105 113
-0.029841155 0.074549943 -0.7470718 122 110 122
-0.030953538 0.074287184 -0.74676186 125 114 125
-0.030129818 0.075635448 -0.74803621 114 102 113
-0.032457374 0.074161708 -0.74655098 127 119 127
-0.031178797 0.076049894 -0.7482664 113 102 112
-0.032088783 0.074936897 -0.74725729 121 112 121
-0.030152367 0.0758119 -0.74818689 113 101 112
-0.025974672 0.073916122 -0.74694175 110 99 107
-0.026594723 0.074058548 -0.74699992 112 102 111
-0.027002959 0.074312992 -0.74718946 114 103 112
-0.027055627 0.075179808 -0.74799907 112 100 110
-0.026315341 0.074387252 -0.74734354 110 99 108
-0.028931031 0.074564286 -0.74717253 120 108 120
-0.028924532 0.074653305 -0.74725413 120 107 119
-0.025662769 0.076146759 -0.74907506 101 91 99
-0.028147342 0.074829489 -0.74752527 117 105 116
-0.024022032 0.073341832 -0.74677896 107 94 105
-0.021802507 0.072793551 -0.74677056 104 86 102
-0.023587739 0.073544122 -0.74706244 106 93 105
-0.021698684 0.073263332 -0.74722642 104 86 103
-0.021507513 0.073613629 -0.74759173 103 87 104
-0.022587432 0.072985567 -0.74677181 105 89 103
-0.021624804 0.073927611 -0.74785465 103 88 105
-0.022785284 0.076069072 -0.74958426 101 93 107
-0.024346109 0.075343005 -0.74857473 103 94 104
-0.024948845 0.075856201 -0.748932 101 92 101
-0.022006683 0.0759691 -0.7496528 101 94 109
-0.024957092 0.075532362 -0.7486254 102 93 101
-0.021404039 0.074410781 -0.7484017 103 89 106
-0.020872546 0.073216513 -0.74761641 109 91 107
-0.020849358 0.073898509 -0.74828535 108 93 108
-0.019045984 0.074844092 -0.75023353 123 113 125
-0.021005735 0.075835951 -0.75005776 102 95 111
-0.018028148 0.074123673 -0.75012749 135 123 132
-0.021007592 0.074417837 -0.74869341 105 92 108
-0.020469256 0.074010253 -0.74861181 111 97 112
-0.017887589 0.073973097 -0.75005668 137 124 133
-0.019856332 0.072617337 -0.74737412 120 101 116
-0.0178266 0.073595524 -0.74949121 139 125 134
-0.018452147 0.073309824 -0.74886322 133 118 128
-0.018800907 0.0726979 -0.74781054 131 114 126
-0.016191881 0.073007874 -0.74955595 153 139 147
-0.017273264 0.072723038 -0.74840903 147 131 140
-0.017455807 0.073543072 -0.7495628 143 129 138
-0.015557377 0.073090784 -0.75009823 157 144 151
-0.017187558 0.072385564 -0.74794114 149 132 142
-0.014570817 0.072747849 -0.75023049 166 152 158
-0.057341371 0.068891905 -0.75028372 168 153 149
-0.054759666 0.068575948 -0.74794638 168 155 156
-0.056459945 0.068898335 -0.74957931 175 162 158
-0.052946948 0.06864693 -0.74669605 162 149 153
-0.053334288 0.070671819 -0.75031006 168 153 161
-0.052750047 0.069204606 -0.74749571 163 149 155
-0.054712515 0.070097238 -0.75024211 172 158 159
-0.052939508 0.070349514 -0.74952036 166 151 159
-0.054913245 0.069158755 -0.74881172 171 158 156
-0.056389913 0.069389358 -0.75014526 177 163 157
-0.053038225 0.070067756 -0.74911565 166 151 158
-0.049846597 0.071931101 -0.74906164 141 131 139
-0.050948732 0.071837455 -0.75002801 152 138 149
-0.050785109 0.07120759 -0.74902529 151 138 146
-0.050685689 0.070797428 -0.74846947 151 138 146
-0.05148226 0.070977814 -0.74935442 157 142 152
-0.049179006 0.070900261 -0.74730563 139 128 135
-0.050433829 0.070459992 -0.7477681 149 136 144
-0.050834261 0.069560222 -0.74658674 150 138 143
-0.052221097 0.069032937 -0.74679798 159 146 151
-0.051840317 0.06920629 -0.74678743 156 144 149
-0.051013533 0.069452785 -0.74654877 151 139 144
-0.051308874 0.069620416 -0.74705899 153 141 147
-0.050499748 0.070460476 -0.74782056 149 137 144
-0.047553446 0.071617194 -0.74719399 129 118 126
-0.048084669 0.071302183 -0.74709743 132 121 129
-0.04764485 0.071621008 -0.747244 129 119 127
-0.048743386 0.07078854 -0.74683636 136 126 132
-0.01839719 0.071432374 -0.74657172 146 131 138
-0.019544762 0.072183982 -0.74685305 126 107 120
-0.016385349 0.071352184 -0.74750865 164 151 154
-0.016252438 0.071653008 -0.74785942 162 148 153
-0.016839208 0.071917124 -0.74769479 155 140 147
-0.061343804 0.064756982 -0.74853456 163 157 159
-0.062017467 0.064831577 -0.74921191 158 152 154
-0.061283529 0.064730063 -0.7484464 163 157 160
-0.06056508 0.064514577 -0.74753916 170 164 168
-0.063225731 0.064723 -0.75009716 154 149 148
-0.058671091 0.065016568 -0.74657124 175 169 170
-0.057114676 0.067695573 -0.74859393 174 162 161
-0.057459034 0.06678123 -0.74777067 174 164 164
-0.058284961 0.065593071 -0.74697006 175 167 168
-0.059300952 0.064965196 -0.74699497 174 168 169
-0.058849581 0.065666124 -0.74750298 174 166 167
-0.05926507 0.065024607 -0.74704009 174 168 169
-0.059880435 0.065281108 -0.74791169 169 162 165
-0.057245493 0.067824826 -0.7488727 172 160 159
-0.058174692 0.068192013 -0.75009924 158 142 141
-0.057431005 0.06786821 -0.74908054 170 157 156
-0.05978746 0.065913461 -0.74863619 163 154 156
-0.05901029 0.067103155 -0.7494458 160 147 147
-0.06044066 0.065669946 -0.74898428 156 146 150
-0.058989465 0.067701668 -0.75023806 153 137 137
-0.056322917 0.066584624 -0.74672937 173 164 165
-0.054184094 0.068164356 -0.74703068 165 153 156
-0.056570172 0.067210101 -0.74763864 174 163 163
-0.054936297 0.068292066 -0.74772298 168 155 157
-0.05527636 0.068013385 -0.74764293 169 157 158
-0.086111538 0.060721286 -0.74657333 98 81 78
-0.085765161 0.06094934 -0.74670702 99 82 79
-0.085751645 0.060761862 -0.74668014 101 84 81
-0.080432326 0.061407708 -0.74876279 144 127 120
-0.081863463 0.061418395 -0.74816436 127 110 105
-0.080712996 0.063197091 -0.74892867 102 83 81
-0.080774404 0.062569581 -0.7488035 115 96 93
-0.080675147 0.060654853 -0.74854171 158 141 133
-0.082427807 0.0608343 -0.74783516 133 116 110
-0.082890101 0.062856093 -0.74800432 95 79 77
-0.081826553 0.06302686 -0.74844605 95 77 76
-0.081748925 0.063106067 -0.74849117 94 76 75
-0.076988339 0.062689967 -0.75035703 155 139 143
-0.076579578 0.061334454 -0.75020868 188 175 179
-0.076749124 0.061236583 -0.75010782 188 175 179
-0.079649158 0.06137966 -0.74906331 154 137 131
-0.078709923 0.060961999 -0.74933952 173 158 154
-0.079717644 0.06158521 -0.74907088 149 131 126
-0.079881288 0.061323557 -0.74896979 153 135 129
-0.07675612 0.060922861 -0.7500456 195 182 186
-0.079495974 0.061598156 -0.74915379 151 134 129
-0.07590384 0.061149474 -0.75035751 198 185 191
-0.068692341 0.061054464 -0.74923664 174 157 162
