ply
format ascii 1.0
comment PCL generated
element vertex 1019
property float x
property float y
property float z
property uchar red
property uchar green
property uchar blue
element camera 0
property float view_px
property float view_py
property float view_pz
property float x_axisx
property float x_axisy
property float x_axisz
property float y_axisx
property float y_axisy
property float y_axisz
property float z_axisx
property float z_axisy
property float z_axisz
property float focal
property float scalex
property float scaley
property float centerx
property float centery
property int viewportx
property int viewporty
property float k1
property float k2
end_header
-0.027896214 -0.12308457 -0.7141934 100 76 80
-0.070118733 -0.13025403 -0.71519357 107 76 72
-0.068387106 -0.1307568 -0.71463543 107 77 77
-0.068043247 -0.13078524 -0.71454918 107 77 76
-0.067935474 -0.13051017 -0.71464384 108 78 76
-0.067102998 -0.13041258 -0.7145052 109 79 75
-0.066168405 -0.12873614 -0.71504486 113 82 75
-0.064783163 -0.12925397 -0.71452248 114 83 71
-0.064591609 -0.12998271 -0.714158 113 82 70
-0.064899914 -0.13012917 -0.71415782 112 82 70
-0.066816486 -0.12944475 -0.71486622 111 81 76
-0.061827801 -0.12769169 -0.71477723 101 72 67
-0.061960556 -0.12738934 -0.71493047 102 73 68
-0.063304357 -0.12900124 -0.71440321 108 78 68
-0.063578479 -0.1276706 -0.71503371 112 80 71
-0.063200466 -0.12862924 -0.71455401 108 78 69
-0.061960693 -0.12989873 -0.71379131 100 70 64
-0.061967116 -0.13069519 -0.71342605 99 70 62
-0.061524242 -0.12963995 -0.71384209 98 69 63
-0.061335329 -0.12855865 -0.71430981 98 69 65
-0.063188404 -0.1307659 -0.7135843 105 75 65
-0.06122081 -0.12847382 -0.71433097 97 68 64
-0.058115009 -0.13060971 -0.71295166 80 53 51
-0.056774892 -0.12871762 -0.71364373 77 50 49
-0.05683244 -0.12783092 -0.71404964 79 52 51
-0.059786275 -0.13062252 -0.7131449 89 60 56
-0.058890775 -0.12927841 -0.71364319 87 58 55
-0.059792198 -0.12866758 -0.71403944 91 62 60
-0.058064725 -0.1274855 -0.71436048 85 57 56
-0.058324836 -0.12789741 -0.71420455 85 58 56
-0.060465392 -0.12706585 -0.71486259 94 66 65
-0.059613563 -0.12844753 -0.71411759 90 62 59
-0.060342219 -0.12951645 -0.7137199 92 63 60
-0.053438835 -0.12889598 -0.71314549 76 51 48
-0.054308899 -0.13012159 -0.71267265 74 50 46
-0.053991482 -0.1286424 -0.71335506 75 50 48
-0.054172315 -0.13025826 -0.71258426 74 50 46
-0.053553659 -0.13036257 -0.71243834 75 51 46
-0.056124624 -0.13060601 -0.7127102 72 47 46
-0.055967685 -0.12988274 -0.71303034 73 48 47
-0.055999756 -0.12726529 -0.71421182 79 52 51
-0.053611178 -0.12750529 -0.7138446 77 52 49
-0.055569571 -0.12754966 -0.71403718 78 52 50
-0.055566557 -0.12821145 -0.71373904 76 51 49
-0.056598503 -0.12775871 -0.7140547 78 51 50
-0.051133011 -0.12945332 -0.71254015 79 54 49
-0.050003234 -0.13063782 -0.71186817 83 59 54
-0.050930146 -0.13049226 -0.71203792 80 56 51
-0.051676355 -0.13047175 -0.71212989 78 54 48
-0.05108358 -0.12997791 -0.71229237 79 55 50
-0.049011718 -0.12862372 -0.71268868 84 59 54
-0.052119888 -0.13010859 -0.71235108 77 52 47
-0.052671004 -0.12785576 -0.71354294 77 52 49
-0.052530929 -0.1295318 -0.71269482 76 52 47
-0.052215632 -0.12816058 -0.71332729 78 53 49
-0.051051483 -0.12912148 -0.71268618 79 54 49
-0.051062681 -0.12826911 -0.71310896 79 54 49
-0.044952564 -0.12830015 -0.71234411 85 58 49
-0.045216087 -0.1299492 -0.71166086 86 60 53
-0.045583572 -0.12809534 -0.7124964 85 58 50
-0.045862097 -0.1301721 -0.71163052 86 61 54
-0.047929246 -0.13026926 -0.71179861 86 61 56
-0.047063112 -0.13049752 -0.71161234 86 61 56
-0.0471083 -0.12750809 -0.71295518 84 58 51
-0.047636453 -0.12847346 -0.71257949 85 59 53
-0.046589732 -0.12829287 -0.71252376 85 59 51
-0.04614279 -0.12736328 -0.71289372 85 57 49
-0.045909062 -0.12787876 -0.71262461 85 58 49
-0.048179246 -0.13018289 -0.71186209 86 61 56
-0.04281757 -0.12914366 -0.71180129 82 54 51
-0.042350795 -0.12941647 -0.71163815 82 52 51
-0.042096451 -0.12826139 -0.71212459 80 52 50
-0.042930901 -0.12946782 -0.71166861 83 54 51
-0.041634656 -0.12785789 -0.71226031 79 51 49
-0.043563318 -0.12809598 -0.7123183 83 55 50
-0.042240601 -0.12784286 -0.71231955 80 53 50
-0.04273862 -0.12794769 -0.71231496 81 54 50
-0.042390972 -0.12731232 -0.71256024 80 52 49
-0.043277185 -0.12782671 -0.71241093 82 54 49
-0.043192465 -0.12712236 -0.71270728 81 54 48
-0.039534666 -0.12940982 -0.71141613 79 47 50
-0.040848751 -0.12978046 -0.71134341 80 47 49
-0.038194798 -0.12892935 -0.71153378 77 47 51
-0.040995445 -0.12814069 -0.7120772 79 49 49
-0.039348561 -0.12733424 -0.71230626 78 49 52
-0.039301988 -0.12712048 -0.71239704 78 49 52
-0.040621258 -0.12893969 -0.71169585 80 48 49
-0.034112956 -0.12835778 -0.71153784 84 63 64
-0.033684757 -0.12777522 -0.71175307 87 67 68
-0.033880077 -0.1284273 -0.71149766 85 63 65
-0.036726374 -0.12841161 -0.71166009 77 50 54
-0.037049629 -0.12804608 -0.71183491 77 48 54
-0.035412312 -0.12736948 -0.71202159 82 59 62
-0.03153827 -0.12827271 -0.71153057 94 73 74
-0.02998437 -0.12793459 -0.71166468 101 80 81
-0.032764304 -0.12808853 -0.71160716 89 69 70
-0.032763142 -0.12756352 -0.7118209 90 72 72
-0.032482971 -0.12696052 -0.71207029 92 75 75
-0.026852652 -0.12763485 -0.7120232 95 72 74
-0.026602356 -0.12869537 -0.71158236 96 71 74
-0.027703037 -0.12833199 -0.71162492 98 76 78
-0.025795253 -0.12942949 -0.71134502 95 68 72
-0.028633134 -0.12757692 -0.71188408 102 81 81
-0.028232904 -0.12748839 -0.71196318 100 79 79
-0.075449847 -0.13449997 -0.71472466 122 90 82
-0.075326972 -0.1347422 -0.71460193 120 87 81
-0.073129848 -0.13368854 -0.71450418 111 82 73
-0.074186653 -0.13377611 -0.71471566 118 88 78
-0.073145688 -0.13419963 -0.71431732 111 83 74
-0.072688259 -0.13289903 -0.71469641 107 78 70
-0.072292767 -0.13395064 -0.71421307 105 78 70
-0.070317626 -0.13092601 -0.71494848 105 75 71
-0.071028523 -0.13220713 -0.71461189 105 76 71
-0.0714228 -0.13238671 -0.71462297 105 76 70
-0.06944222 -0.13135047 -0.71461719 106 76 74
-0.07067734 -0.13233794 -0.71449363 105 77 72
-0.071577549 -0.13365148 -0.71418214 105 78 72
-0.069605321 -0.13110361 -0.71474153 106 76 73
-0.070321709 -0.13337764 -0.71402717 104 76 73
-0.071354941 -0.13389239 -0.71404773 106 78 73
-0.06863898 -0.13382247 -0.71349579 99 70 71
-0.069135599 -0.13232107 -0.71418428 104 75 74
-0.070807949 -0.13351355 -0.71407813 105 77 73
-0.068538323 -0.1327775 -0.71387982 102 73 73
-0.065806679 -0.13448782 -0.71266115 101 71 64
-0.065067962 -0.13432868 -0.7125721 102 73 63
-0.06677781 -0.13454768 -0.71283382 99 70 66
-0.065759219 -0.13323794 -0.71311647 104 74 66
-0.067101486 -0.1345638 -0.71289277 98 70 66
-0.065681472 -0.13336156 -0.7130549 104 74 66
-0.067335591 -0.13266866 -0.71366191 103 74 71
-0.066538945 -0.13146231 -0.71395725 107 77 72
-0.067567378 -0.13378057 -0.71328068 99 71 69
-0.067549884 -0.1337768 -0.71327835 99 71 69
-0.066014722 -0.1323393 -0.71350324 105 76 69
-0.066401161 -0.13134287 -0.7139737 108 78 71
-0.063400775 -0.13411246 -0.71235096 99 69 58
-0.062017109 -0.13466392 -0.71186286 90 60 48
-0.061530259 -0.13443609 -0.71186262 88 58 47
-0.061470352 -0.13446951 -0.71183765 88 58 47
-0.061585333 -0.1341304 -0.71199739 89 59 49
-0.060660545 -0.13299555 -0.71228224 88 58 49
-0.063753709 -0.1324338 -0.71304411 104 74 63
-0.064174324 -0.13235995 -0.71313727 107 77 65
-0.062113423 -0.13186941 -0.71299785 98 68 60
-0.064446263 -0.13184792 -0.71337014 109 79 66
-0.06266655 -0.13262662 -0.71280259 99 69 60
-0.062119391 -0.13156524 -0.71311194 99 69 61
-0.05768102 -0.13341981 -0.71172446 69 45 43
-0.05836546 -0.13381273 -0.71165025 72 46 42
-0.056692235 -0.13248977 -0.71198422 66 43 44
-0.058231048 -0.13291496 -0.71201062 74 48 43
-0.059278995 -0.13427795 -0.71157664 76 49 42
-0.058379412 -0.13336717 -0.71183991 74 47 43
-0.059862696 -0.13221507 -0.71249634 85 56 50
-0.058485538 -0.13096271 -0.71284145 81 54 51
-0.060473476 -0.1329115 -0.712286 87 57 49
-0.057923544 -0.13102876 -0.71274769 78 51 49
-0.059105158 -0.13248697 -0.71229565 81 52 46
-0.053605385 -0.13178681 -0.71181113 72 49 45
-0.055596057 -0.13336965 -0.71144819 65 43 44
-0.054085139 -0.13235718 -0.71164483 70 47 45
-0.054832716 -0.13181789 -0.7119844 70 47 45
-0.056416724 -0.13285488 -0.71178943 65 42 44
-0.056295551 -0.13342848 -0.71152943 63 41 44
-0.055376366 -0.1328679 -0.71162522 66 44 44
-0.056589317 -0.13389818 -0.71137649 61 40 44
-0.048855212 -0.1310458 -0.71155912 86 62 58
-0.050578486 -0.13109617 -0.7117306 82 58 53
-0.051490963 -0.13148408 -0.71166962 79 55 49
-0.052005425 -0.13125283 -0.71182305 78 54 48
-0.047404151 -0.13092421 -0.71146345 87 62 57
-0.077761218 -0.13861893 -0.71384996 119 86 82
-0.077049263 -0.13619213 -0.71451283 123 89 84
-0.077187806 -0.13829552 -0.71381378 118 84 81
-0.076232389 -0.13634118 -0.71424824 120 86 81
-0.078460209 -0.13814999 -0.71419561 122 90 85
-0.07742995 -0.13751532 -0.71414948 121 87 83
-0.074036382 -0.1375698 -0.71330482 104 73 71
-0.073183887 -0.13740979 -0.71315718 99 69 69
-0.072360404 -0.13639833 -0.71332824 99 69 68
-0.074073456 -0.13794379 -0.71317691 103 71 71
-0.073721707 -0.13631254 -0.71368903 108 78 73
-0.072466463 -0.13668139 -0.71325028 98 68 68
-0.073284753 -0.13478293 -0.71412665 110 81 75
-0.072628304 -0.13506845 -0.71387893 106 79 72
-0.074304804 -0.13591175 -0.71396196 112 81 76
-0.074221931 -0.13561395 -0.71404731 112 82 76
-0.075911045 -0.13783991 -0.71364999 114 81 77
-0.073375396 -0.13522448 -0.71399271 109 80 74
-0.069434583 -0.13606539 -0.71282518 93 63 66
-0.068964958 -0.13752155 -0.71220523 89 58 61
-0.069302656 -0.13800225 -0.71210223 88 56 60
-0.068963051 -0.13607274 -0.71272522 92 63 65
-0.068822153 -0.1354187 -0.7129311 94 65 67
-0.070771404 -0.13630365 -0.7130214 95 65 67
-0.06896919 -0.13498043 -0.71312159 96 68 68
-0.071161367 -0.13674539 -0.71294284 94 64 66
-0.072021566 -0.13592102 -0.71342808 100 71 69
-0.071036763 -0.13674988 -0.71291459 93 63 66
-0.071616001 -0.13679193 -0.71302271 95 65 66
-0.064513624 -0.13501519 -0.71220374 101 71 60
-0.065973014 -0.13800171 -0.71138591 87 57 53
-0.065611683 -0.1373802 -0.7115429 90 60 54
-0.068105794 -0.13844563 -0.7116968 86 55 57
-0.067066185 -0.13790174 -0.71167165 89 57 56
-0.067236751 -0.13856176 -0.71145719 85 54 54
-0.065865949 -0.135676 -0.71224272 98 67 61
-0.066862591 -0.13551407 -0.71250099 96 67 63
-0.06762097 -0.13591823 -0.71250796 94 64 63
-0.068045028 -0.13499638 -0.71292424 95 67 67
-0.067342237 -0.13508768 -0.71275032 96 68 65
-0.068227239 -0.1357514 -0.71268958 93 64 65
-0.063309543 -0.13662241 -0.71135455 87 58 48
-0.061294928 -0.13522986 -0.71150476 84 54 43
-0.063305885 -0.13557993 -0.71175331 92 63 52
-0.06234638 -0.13589521 -0.71144873 86 56 46
-0.076400697 -0.14161688 -0.7124691 107 77 68
-0.078218326 -0.14111498 -0.71311659 116 85 78
-0.079236142 -0.14191769 -0.71310794 119 89 81
-0.077400438 -0.14018598 -0.71322078 115 83 77
-0.076680906 -0.13938445 -0.71330714 114 81 77
-0.076850064 -0.14026625 -0.71304929 112 80 74
-0.077532925 -0.13917424 -0.71360075 117 84 80
-0.078868121 -0.1394172 -0.71386516 121 89 84
-0.072658956 -0.14216818 -0.71137631 80 49 54
-0.075454272 -0.14248839 -0.7119379 99 69 62
-0.07353998 -0.14049591 -0.71215713 91 60 61
-0.073188677 -0.14007683 -0.7122156 90 59 61
-0.072819866 -0.14022629 -0.71207583 87 56 60
-0.074156821 -0.14128181 -0.71203738 93 63 61
-0.074671544 -0.14009027 -0.71256918 100 68 66
-0.075506091 -0.13923132 -0.71306527 108 75 72
-0.072993174 -0.13934979 -0.71241677 91 59 63
-0.075888321 -0.14007451 -0.71286893 108 76 71
-0.075626336 -0.14063728 -0.71261281 105 74 68
-0.075376131 -0.13893007 -0.71313703 108 74 73
-0.068372175 -0.13915949 -0.71149379 85 53 56
-0.069942147 -0.14052849 -0.71135181 82 51 54
-0.071764231 -0.14068452 -0.71168506 81 50 56
-0.071138836 -0.14061055 -0.71158123 81 50 55
-0.070966952 -0.14053495 -0.71157151 81 50 55
-0.071582288 -0.13917291 -0.7121616 86 54 60
-0.070027724 -0.13885784 -0.71194804 86 54 59
-0.088879257 -0.14641316 -0.71432412 110 74 83
-0.084665164 -0.14532676 -0.71352518 110 82 73
-0.085410155 -0.14475067 -0.71387386 114 82 80
-0.08438281 -0.14478101 -0.71360683 114 86 74
-0.084942609 -0.1444799 -0.71383196 116 85 79
-0.080222234 -0.14283593 -0.71306533 119 90 81
-0.080188625 -0.14318526 -0.71295142 115 87 77
-0.081744753 -0.14602612 -0.71253854 96 71 57
-0.080145992 -0.14292495 -0.71301728 118 89 80
-0.081344962 -0.1457113 -0.71252054 97 71 58
-0.08079458 -0.14350632 -0.71302545 115 87 77
-0.0827481 -0.14438218 -0.71329504 114 87 74
-0.082904205 -0.14531085 -0.713076 108 83 69
-0.083411112 -0.14467938 -0.71338522 114 87 73
-0.076292582 -0.14454474 -0.71150434 92 62 52
-0.077040769 -0.14484616 -0.71161395 91 61 51
-0.079110608 -0.14570795 -0.71191084 87 60 49
-0.077121876 -0.14459153 -0.7117148 92 63 52
-0.078151248 -0.1449274 -0.71189129 91 63 52
-0.077699043 -0.14543578 -0.71161044 88 58 48
-0.079240836 -0.1453297 -0.71206009 91 64 52
-0.076867923 -0.14260355 -0.71225441 106 77 67
-0.0795739 -0.14295551 -0.71285719 115 86 76
-0.078428119 -0.14306833 -0.7125237 109 80 70
-0.078207508 -0.14375488 -0.71226066 101 73 62
-0.077867851 -0.14299165 -0.71240002 107 78 68
-0.074911073 -0.14276482 -0.71171874 94 64 59
-0.075622715 -0.14391044 -0.71153563 92 62 54
-0.092220418 -0.14694585 -0.71518701 127 99 86
-0.092537731 -0.15033157 -0.71450663 107 83 70
-0.092495456 -0.14979844 -0.71461612 110 86 73
-0.091972396 -0.14939451 -0.71454465 112 87 73
-0.093624793 -0.14975639 -0.71498102 111 87 76
-0.093239024 -0.14857127 -0.71513271 118 92 81
-0.091511063 -0.15023842 -0.71420723 105 80 68
-0.08911638 -0.14791819 -0.71403629 102 69 76
-0.088885255 -0.14971219 -0.71349561 92 57 67
-0.088614248 -0.14916493 -0.71355015 93 57 69
-0.08854828 -0.15014002 -0.71327555 88 51 64
-0.088378765 -0.1488491 -0.71355611 93 56 70
-0.091692813 -0.15020922 -0.71427125 106 82 68
-0.09158136 -0.14904243 -0.71450728 112 87 74
-0.09048298 -0.14765878 -0.71450353 113 83 79
-0.091121003 -0.14748883 -0.71473002 119 90 81
-0.091524176 -0.14854048 -0.71460617 115 89 77
-0.086003996 -0.14900281 -0.71286803 89 56 61
-0.084897421 -0.14756697 -0.71297306 97 69 62
-0.085610889 -0.14918661 -0.71270305 88 55 60
-0.085293435 -0.14823133 -0.71289158 93 64 61
-0.085077025 -0.14893952 -0.71262383 89 58 59
-0.084589414 -0.14831972 -0.71266639 92 64 60
-0.085575916 -0.14737855 -0.71319813 98 68 66
-0.086353265 -0.14723797 -0.71343017 99 66 70
-0.087869041 -0.14905082 -0.71334064 89 50 68
-0.085814938 -0.14780332 -0.71314788 96 65 65
-0.080632553 -0.14817859 -0.71161914 80 53 48
-0.080672927 -0.14841612 -0.71156508 80 53 48
-0.080548018 -0.14732093 -0.7118299 82 55 47
-0.081717305 -0.14978762 -0.71146727 77 49 50
-0.081401356 -0.14860706 -0.7117039 80 52 49
-0.083846942 -0.14682095 -0.71289331 100 76 61
-0.08364851 -0.14917827 -0.71215039 84 56 55
-0.082699567 -0.14813627 -0.71218789 86 59 53
-0.083054788 -0.14768352 -0.71241957 91 64 56
-0.083590373 -0.14691779 -0.71279311 98 74 60
-0.0824183 -0.14774403 -0.71222335 87 60 53
-0.079840608 -0.14771104 -0.71153462 81 54 46
-0.079261653 -0.14744824 -0.71144849 81 53 45
-0.097048976 -0.15416531 -0.71515882 92 55 63
-0.09510152 -0.15097353 -0.71516967 105 80 74
-0.094507933 -0.15299682 -0.7145319 92 62 62
-0.093394659 -0.15182425 -0.71444309 98 71 65
-0.092831373 -0.15092616 -0.71446609 103 79 68
-0.094426341 -0.15191045 -0.7147485 99 71 68
-0.094192676 -0.15299073 -0.71443409 92 62 62
-0.094256416 -0.15333161 -0.71437812 90 60 61
-0.093921117 -0.15321313 -0.71429902 90 62 62
-0.093139812 -0.15272857 -0.71416128 92 66 62
-0.092703812 -0.15306917 -0.71394813 89 66 62
-0.093363166 -0.15207402 -0.71437746 97 69 64
-0.088084526 -0.15280895 -0.71252191 77 46 57
-0.088036738 -0.15305914 -0.71245074 77 46 56
-0.087922797 -0.15210959 -0.71262544 79 44 58
-0.090204343 -0.15403593 -0.712933 78 55 57
-0.088641666 -0.15214449 -0.7128498 80 47 59
-0.088685304 -0.15327594 -0.71261185 77 49 57
-0.090615772 -0.15201215 -0.71351683 88 62 62
-0.090451777 -0.15087539 -0.71371734 94 66 64
-0.090729058 -0.15073341 -0.71383858 97 70 65
-0.089251868 -0.15091339 -0.71332121 87 54 62
-0.089111753 -0.1506272 -0.71333969 88 54 63
-0.089287773 -0.15117529 -0.71327436 86 53 62
-0.08478862 -0.15307571 -0.71149123 81 51 56
-0.084642559 -0.1513734 -0.71185374 78 48 54
-0.086449131 -0.15293613 -0.71202135 75 47 54
-0.084037848 -0.15055242 -0.71186864 79 48 54
-0.085381359 -0.154191 -0.71140325 81 52 56
-0.087212823 -0.15132982 -0.71259671 80 44 58
-0.086951077 -0.15112466 -0.71256822 80 44 58
-0.086041607 -0.1523007 -0.71204865 76 47 54
-0.085892521 -0.1514605 -0.71219349 78 46 55
-0.08781819 -0.15284094 -0.71243167 77 45 56
-0.087493524 -0.15261295 -0.71239048 77 45 56
-0.082610197 -0.1506349 -0.71147621 77 48 52
-0.082936302 -0.1510012 -0.71147144 78 49 53
-0.098558314 -0.15656717 -0.71518499 93 55 62
-0.097672425 -0.15576188 -0.7150321 91 54 62
-0.098538466 -0.15646788 -0.71520007 93 55 62
-0.097684957 -0.1564685 -0.71488363 89 53 61
-0.096074164 -0.15623058 -0.71437925 83 50 56
-0.097100079 -0.15719111 -0.71454757 85 51 57
-0.095813535 -0.15497071 -0.71452844 84 51 58
-0.095789582 -0.15751512 -0.7140395 78 48 52
-0.094157293 -0.15780737 -0.71344715 74 47 50
-0.092702836 -0.15643166 -0.71324807 75 52 53
-0.092922203 -0.15692131 -0.71321958 74 50 52
-0.092514619 -0.15550454 -0.71337759 78 57 56
-0.092020221 -0.15780774 -0.7127353 70 45 50
-0.094965003 -0.15523091 -0.71420938 82 52 57
-0.094908886 -0.15731409 -0.71379811 77 50 52
-0.093093008 -0.15446742 -0.71376455 81 58 58
-0.094130017 -0.15514204 -0.71396339 81 55 57
-0.094647415 -0.15649001 -0.71387154 79 52 54
-0.092977025 -0.15545999 -0.71354055 79 57 56
-0.088027574 -0.15741296 -0.71148413 66 38 49
-0.088634536 -0.15578358 -0.71204931 71 44 51
-0.089786194 -0.1579781 -0.71195138 67 40 48
-0.088826232 -0.15752949 -0.71172726 67 39 49
-0.088412382 -0.15562159 -0.71201032 71 44 52
-0.08916121 -0.15784392 -0.71177047 67 39 48
-0.091490038 -0.15551883 -0.71303648 76 54 55
-0.090131611 -0.15536639 -0.71262962 74 50 54
-0.088735737 -0.15432763 -0.7123943 75 50 55
-0.089245752 -0.15563345 -0.71228826 72 45 52
-0.091020562 -0.15598626 -0.71278805 74 50 53
-0.085554488 -0.15439673 -0.71140772 80 51 56
-0.086655714 -0.15557915 -0.71147543 74 46 53
-0.08741568 -0.15654965 -0.71148801 69 41 50
-0.08705239 -0.15622735 -0.7114507 71 43 51
-0.095809869 -0.15971407 -0.71362889 83 51 54
-0.097471237 -0.16041051 -0.71412569 88 57 56
-0.096746251 -0.16051479 -0.71383011 88 55 56
-0.096001185 -0.15930972 -0.71377969 81 51 53
-0.097051129 -0.16011406 -0.71402329 86 55 55
-0.098987088 -0.15873669 -0.71491766 91 56 60
-0.097082198 -0.15901327 -0.71422541 84 52 54
-0.097710095 -0.15890476 -0.71445626 86 53 56
-0.093556769 -0.16196936 -0.71238518 92 57 54
-0.092893437 -0.16097522 -0.71236485 86 53 52
-0.092612959 -0.15918031 -0.71265793 75 46 51
-0.093248524 -0.16117974 -0.71244764 87 54 53
-0.092228957 -0.16197622 -0.71190643 92 58 50
-0.091996931 -0.15949558 -0.7123673 76 48 49
-0.094348446 -0.15985246 -0.71311045 80 49 54
-0.093506701 -0.15957801 -0.71288306 78 48 53
-0.094759732 -0.15957955 -0.71330011 80 49 53
-0.09423542 -0.15966138 -0.71310967 79 49 53
-0.095019199 -0.15923627 -0.71345276 79 49 52
-0.095021784 -0.15941809 -0.7134186 80 49 53
-0.09173844 -0.16042808 -0.71207398 82 51 48
-0.091456249 -0.1614439 -0.71176988 86 53 47
-0.089449167 -0.16028364 -0.71136731 74 43 45
-0.090189196 -0.15847546 -0.71198225 68 40 48
-0.089139715 -0.15890937 -0.71154088 68 40 47
-0.09138567 -0.15864213 -0.71235162 70 43 48
-0.090149395 -0.16138239 -0.71138108 79 46 44
-0.0921176 -0.16407865 -0.711492 112 80 57
-0.093223989 -0.16586204 -0.71158367 128 98 69
-0.094466746 -0.16551095 -0.71209925 121 90 72
-0.093907624 -0.16432799 -0.71210295 110 78 66
-0.094331458 -0.16530752 -0.7120856 120 88 71
-0.094635963 -0.16362831 -0.71248424 105 71 65
-0.094561674 -0.16282615 -0.71259385 98 63 60
-0.095430858 -0.16416006 -0.71267962 109 75 70
-0.095532037 -0.16446686 -0.71266383 111 78 71
-0.094054855 -0.16262558 -0.7124458 97 62 58
-0.090917774 -0.16212946 -0.71146536 86 52 45
-0.09465424 -0.16922721 -0.7115584 125 98 92
-0.095166162 -0.168798 -0.71182579 122 93 89
-0.094405115 -0.16650106 -0.71190906 127 97 77
-0.095358677 -0.16659595 -0.71224183 124 94 81
-0.093578152 -0.16666041 -0.71158111 129 99 74
-0.09390232 -0.16625386 -0.71176565 128 98 73
-0.097256199 -0.17224637 -0.71223325 104 76 74
-0.095758162 -0.17081138 -0.71178317 115 86 88
-0.097518407 -0.17235593 -0.71232891 102 74 72
-0.096136399 -0.17093304 -0.71192545 112 83 85
-0.096655481 -0.17131311 -0.71209532 108 79 81
-0.096782282 -0.17036307 -0.71226841 107 75 81
-0.09568648 -0.17164108 -0.71165484 115 89 86
-0.094915517 -0.17159307 -0.71135497 120 98 88
-0.095610544 -0.17005593 -0.71181351 116 86 90
-0.030014927 -0.099339046 -0.72359872 70 48 60
-0.031142429 -0.099426322 -0.72338974 72 50 60
-0.028215934 -0.099513836 -0.72424197 75 51 58
-0.028558375 -0.099478014 -0.72413564 73 50 58
-0.026118601 -0.099031672 -0.72384977 73 54 64
-0.027785245 -0.098902985 -0.72340024 67 48 65
-0.027032811 -0.098912477 -0.72353095 69 50 65
-0.023143262 -0.099413574 -0.72508126 82 61 56
-0.02198129 -0.098158725 -0.72348863 60 46 67
-0.021549452 -0.098350488 -0.72388196 64 48 64
-0.022771802 -0.099101014 -0.7247048 77 57 59
-0.024402643 -0.098689809 -0.72369266 69 53 66
-0.023704281 -0.098751776 -0.72395331 70 53 64
-0.025093591 -0.098740198 -0.72360086 70 54 67
-0.020928552 -0.097746737 -0.72317094 54 41 68
-0.020650132 -0.097793341 -0.72332925 56 41 67
-0.065000661 -0.10347149 -0.7232883 89 66 98
-0.060865641 -0.10325245 -0.72352654 96 71 94
-0.059345461 -0.10341697 -0.72382802 98 73 86
-0.0588306 -0.10294703 -0.72321224 98 77 97
-0.053337421 -0.10304763 -0.72365171 105 80 83
-0.052991953 -0.10295626 -0.72356594 105 80 83
-0.056191053 -0.10320013 -0.72365659 102 79 84
-0.053239744 -0.10256732 -0.72312027 101 77 87
-0.050292604 -0.10280865 -0.72351336 95 70 77
-0.048829883 -0.10273293 -0.72342068 91 66 76
-0.049345136 -0.10277522 -0.72346735 93 68 77
-0.052011628 -0.10263098 -0.72325176 100 75 84
-0.049192965 -0.10235196 -0.72306937 86 61 77
-0.045945372 -0.10345837 -0.72386223 102 79 81
-0.046730392 -0.10243747 -0.72308576 88 64 79
-0.048413381 -0.10314323 -0.72377545 98 73 76
-0.047483202 -0.10306296 -0.72367257 98 73 78
-0.041134398 -0.10323252 -0.72356915 109 86 90
-0.043865208 -0.10331184 -0.72368491 103 80 84
-0.043859139 -0.10243821 -0.72306114 93 69 83
-0.04382237 -0.10248389 -0.72309601 94 70 83
-0.039454315 -0.10324359 -0.72366077 110 88 92
-0.039265178 -0.10340288 -0.72373247 111 90 92
-0.039661609 -0.10322905 -0.72364831 110 88 92
-0.040890992 -0.10245856 -0.72314501 102 77 87
-0.040045138 -0.1028492 -0.72345197 106 83 90
-0.034330279 -0.10260478 -0.72374463 102 81 84
-0.036801778 -0.10332171 -0.72381127 111 92 93
-0.03396624 -0.10141583 -0.72346205 92 70 74
-0.03448448 -0.10236228 -0.72367644 100 79 82
-0.033548631 -0.10055404 -0.72326428 84 62 66
-0.036088407 -0.10149605 -0.7232222 94 72 82
-0.036445942 -0.10234299 -0.72349834 102 82 87
-0.036589313 -0.10292525 -0.72370934 108 88 89
-0.030561861 -0.10067954 -0.72410548 83 59 66
-0.032682724 -0.10019617 -0.72334635 80 57 62
-0.033172648 -0.10127192 -0.72347009 89 67 72
-0.031712405 -0.10051187 -0.72371751 82 59 65
-0.032906894 -0.10175917 -0.72367263 93 71 76
-0.033188995 -0.10312911 -0.72393286 104 83 87
-0.030611804 -0.10111307 -0.72416568 86 63 69
-0.03011186 -0.10163996 -0.72426409 89 65 72
-0.030813938 -0.10118306 -0.72414631 87 64 70
-0.029887049 -0.10117885 -0.72425801 85 62 68
-0.029580312 -0.10141321 -0.72431201 86 63 69
-0.025705585 -0.10127682 -0.7249096 92 72 73
-0.027828308 -0.10327431 -0.7247234 100 80 85
-0.026075233 -0.10228799 -0.72493339 97 78 80
-0.027700618 -0.10337887 -0.72475368 100 81 86
-0.027038418 -0.10309955 -0.72484088 100 81 85
-0.025586352 -0.10336588 -0.7251066 103 86 90
-0.029189099 -0.1017824 -0.72438955 88 65 72
-0.026926752 -0.099826753 -0.72459882 81 59 60
-0.027994713 -0.10055467 -0.72448593 83 60 64
-0.02824113 -0.10236768 -0.72457862 95 73 76
-0.026200259 -0.10032423 -0.72474724 86 65 64
-0.026681641 -0.10018637 -0.72466272 84 62 62
-0.024222825 -0.103499 -0.72527969 108 89 88
-0.024437768 -0.10292313 -0.72528666 102 84 84
-0.024623228 -0.10180262 -0.72519571 96 77 76
-0.024571892 -0.10166633 -0.72519678 95 76 74
-0.025290901 -0.10238124 -0.72508049 98 80 82
-0.024912084 -0.10092083 -0.72504997 91 71 69
-0.0245347 -0.099619977 -0.72503251 84 63 58
-0.096351154 -0.10739668 -0.72684264 82 68 88
-0.097867325 -0.10731272 -0.72633177 85 74 104
-0.092504032 -0.10673064 -0.72614491 97 79 106
-0.093656518 -0.10673418 -0.72605997 99 85 108
-0.09285941 -0.10671408 -0.72608918 98 82 107
-0.089980923 -0.10683487 -0.7265839 97 75 100
-0.08939261 -0.10694252 -0.72687018 97 76 96
-0.091340311 -0.10691716 -0.72653461 90 65 96
-0.084545426 -0.10601752 -0.72556907 124 115 134
-0.086270407 -0.10613634 -0.72579283 115 103 124
-0.087480307 -0.10672413 -0.72672391 107 90 105
-0.086640939 -0.10647885 -0.72632736 112 98 114
-0.084630415 -0.10599759 -0.72554058 124 114 134
-0.085689254 -0.10654026 -0.72639883 117 103 116
-0.087217003 -0.10613332 -0.7257148 114 102 123
-0.083763264 -0.10685433 -0.72683918 126 109 114
-0.081579961 -0.1063987 -0.72607774 121 98 111
-0.082913317 -0.10646602 -0.72626108 121 101 114
-0.083660543 -0.10625372 -0.72594041 124 110 126
-0.077503115 -0.10608846 -0.72561318 105 84 99
-0.076499507 -0.10667229 -0.72620034 117 90 93
-0.076797284 -0.10607406 -0.72555029 104 82 96
-0.076410942 -0.10414955 -0.72337019 59 52 104
-0.077313215 -0.10510702 -0.72450185 83 69 103
-0.076983027 -0.10468484 -0.72400737 72 62 103
-0.079163365 -0.10666639 -0.7263701 121 96 102
-0.076250054 -0.10678613 -0.72631127 119 91 91
-0.078463808 -0.10425329 -0.72329128 77 58 113
-0.078406639 -0.10453382 -0.72367239 81 63 111
-0.078119457 -0.10412427 -0.72315818 73 56 112
-0.077203967 -0.10436729 -0.72358692 68 57 106
-0.079894379 -0.10696251 -0.72674626 129 103 103
-0.078287221 -0.1041483 -0.72317117 74 56 113
-0.077040717 -0.10423917 -0.72343445 65 55 106
-0.073992811 -0.10675703 -0.72607148 119 90 87
-0.07320521 -0.10674582 -0.72593606 120 91 89
-0.074479677 -0.10674375 -0.72613722 118 88 86
-0.076069862 -0.10581387 -0.72522432 97 76 95
-0.075469196 -0.10488308 -0.72422171 74 59 93
-0.074468456 -0.10526237 -0.72471201 81 61 81
-0.075095527 -0.10549884 -0.72493559 88 67 86
-0.069607593 -0.10396647 -0.72345585 61 36 80
-0.070882805 -0.10599975 -0.72519284 108 78 90
-0.068858474 -0.1038101 -0.72335392 61 34 82
-0.070881233 -0.10696932 -0.72585183 129 97 95
-0.068603113 -0.10552858 -0.72450924 98 68 90
-0.068515994 -0.10539408 -0.72440463 95 65 90
-0.0717187 -0.10724629 -0.72617579 135 103 95
-0.068411447 -0.10440738 -0.72372496 74 46 85
-0.069543734 -0.10673746 -0.72547573 124 92 95
-0.069592997 -0.10609955 -0.72505563 110 79 92
-0.06544026 -0.10479909 -0.72411728 108 82 99
-0.065591343 -0.10564816 -0.72452974 117 91 100
-0.066110849 -0.10742056 -0.72541988 136 110 103
-0.065453209 -0.10644918 -0.72487909 125 100 102
-0.066763841 -0.10735988 -0.72548473 136 107 101
-0.06565097 -0.10649446 -0.72492802 126 101 102
-0.067250304 -0.10397588 -0.72350281 76 49 88
-0.067448542 -0.10623446 -0.72500527 122 91 97
-0.067951821 -0.10534939 -0.72437668 98 69 91
-0.065470301 -0.10385592 -0.72354436 91 66 96
-0.066793181 -0.10525098 -0.72439009 108 79 96
-0.067113034 -0.10488734 -0.72412407 97 69 93
-0.060751755 -0.10442889 -0.72416538 106 80 90
-0.06220904 -0.10689808 -0.72487944 132 109 102
-0.062039196 -0.10684252 -0.72485244 131 108 102
-0.061469108 -0.10577609 -0.72454882 120 96 97
-0.06155384 -0.10513215 -0.72439957 113 88 94
-0.064144611 -0.1047093 -0.7239784 106 84 100
-0.062562764 -0.10534187 -0.72448921 114 90 95
-0.063354447 -0.1057413 -0.72456336 118 95 99
-0.063771412 -0.10552426 -0.72440553 115 92 100
-0.061305236 -0.1039786 -0.72403586 101 75 89
-0.064440578 -0.10429075 -0.72374457 102 79 100
-0.058437999 -0.10702425 -0.72466999 130 106 96
-0.058785301 -0.10688539 -0.72467345 131 107 97
-0.05718594 -0.10684089 -0.72455674 125 101 91
-0.056678973 -0.10448018 -0.72417307 109 84 82
-0.057538871 -0.10651437 -0.72453272 124 100 91
-0.060459521 -0.10446592 -0.72416025 107 81 90
-0.05918714 -0.10562504 -0.7244736 122 98 93
-0.059528857 -0.1037611 -0.72401339 101 75 85
-0.059999965 -0.10476778 -0.72424519 111 86 91
-0.05713509 -0.10379445 -0.72408277 105 80 81
-0.055236619 -0.10628758 -0.72444844 122 96 87
-0.05352002 -0.10542177 -0.72424281 115 89 82
-0.053834606 -0.10526964 -0.724289 116 90 83
-0.052992024 -0.10605527 -0.72415489 113 88 82
-0.052993536 -0.10619953 -0.72415119 113 88 82
-0.054333337 -0.1066315 -0.72431833 118 93 85
-0.055557065 -0.10356583 -0.72408026 105 80 79
-0.056124285 -0.10510295 -0.72428387 114 89 83
-0.056236058 -0.10426285 -0.72415507 108 83 81
-0.055197567 -0.10568967 -0.72440898 120 94 85
-0.055671029 -0.10602985 -0.72443956 121 95 86
-0.051466923 -0.10705831 -0.72397375 109 86 83
-0.050608475 -0.10649986 -0.72394204 108 84 82
-0.051107973 -0.10656425 -0.72399586 109 85 82
-0.049317442 -0.10640008 -0.72379392 106 82 82
-0.05054795 -0.10683187 -0.72388941 108 85 83
-0.049166817 -0.10688281 -0.72370958 106 82 83
-0.052486263 -0.10463285 -0.72415525 111 85 80
-0.051376771 -0.10538851 -0.72411579 109 84 80
-0.052646626 -0.10453412 -0.72416061 111 85 80
-0.051292703 -0.10358626 -0.72416371 109 82 77
-0.04997408 -0.10404624 -0.72412884 106 81 77
-0.051463041 -0.10500029 -0.72412789 109 84 79
-0.046276376 -0.10608014 -0.72348809 105 82 86
-0.046470605 -0.10628822 -0.72347349 105 83 86
-0.047747906 -0.10637594 -0.72365123 105 82 84
-0.045277022 -0.10663243 -0.72321659 106 84 90
-0.045873228 -0.10589839 -0.72346485 105 83 87
-0.047351569 -0.10564712 -0.72372258 104 81 83
-0.046895977 -0.10417155 -0.72388816 103 80 80
-0.048473999 -0.10367355 -0.72407568 103 79 76
-0.046578333 -0.10397553 -0.7238906 103 80 81
-0.047849841 -0.10519158 -0.7238223 104 80 81
-0.044137653 -0.10643324 -0.7231819 108 86 91
-0.042061016 -0.10516833 -0.72333515 110 88 91
-0.0413929 -0.10429001 -0.72352958 111 89 91
-0.044163004 -0.10367492 -0.72377318 104 82 85
-0.043474443 -0.10541841 -0.72338212 108 86 91
-0.044073313 -0.10473534 -0.72354388 106 84 87
-0.042588778 -0.10452472 -0.72355026 109 87 90
-0.044359729 -0.10659613 -0.72315323 108 86 91
-0.037449781 -0.10420542 -0.72356391 113 93 93
-0.037538987 -0.10527521 -0.72311032 111 92 91
-0.037235826 -0.1041411 -0.72358364 113 94 93
-0.039302949 -0.10388619 -0.7236641 112 91 92
-0.037994027 -0.10369763 -0.72376269 113 93 94
-0.040618412 -0.10398212 -0.72359383 111 90 91
-0.035303701 -0.10535866 -0.72305155 112 92 93
-0.034929335 -0.10468924 -0.72340786 110 90 92
-0.034007918 -0.10400096 -0.72377104 109 88 91
-0.036045935 -0.10375132 -0.72379452 112 92 93
-0.035746492 -0.10407766 -0.72366893 111 91 92
-0.035396922 -0.10386875 -0.72377431 110 91 92
-0.030088698 -0.10410005 -0.72408885 103 81 87
-0.030389003 -0.10572968 -0.72317535 109 88 93
-0.030833937 -0.10512855 -0.72344595 108 86 92
-0.029459741 -0.10520184 -0.72357059 106 85 90
-0.031977341 -0.10436207 -0.72372103 107 86 91
-0.032054845 -0.10444594 -0.72366667 108 86 91
-0.031082857 -0.10405026 -0.7239961 105 83 88
-0.02618067 -0.10468359 -0.72433859 108 91 95
-0.02548901 -0.10451234 -0.72452098 109 92 96
-0.027486678 -0.1049867 -0.72400689 107 88 93
-0.027464123 -0.10591489 -0.72343147 112 93 98
-0.027069431 -0.10557687 -0.72368515 111 92 97
-0.02903997 -0.1044345 -0.72404629 103 82 87
-0.029169433 -0.10389894 -0.72431308 101 79 85
-0.029125946 -0.10549052 -0.72346318 107 86 91
-0.028584719 -0.10439248 -0.72414517 103 83 88
-0.025365509 -0.10610024 -0.72354579 118 100 105
-0.024425171 -0.10535653 -0.72410864 114 96 98
-0.024396596 -0.10634292 -0.72349757 120 101 103
-0.025374783 -0.10533379 -0.72402197 114 96 101
-0.024123147 -0.1066988 -0.72330505 122 102 104
-0.023183145 -0.10424504 -0.72493601 113 93 89
-0.024302186 -0.10438731 -0.72472566 110 92 93
-0.023648437 -0.10457931 -0.72467661 112 93 92
-0.021465652 -0.10703534 -0.7233783 126 103 97
-0.076241694 -0.11094861 -0.72640043 135 113 102
-0.076322533 -0.11040434 -0.72651553 135 111 100
-0.078118123 -0.11066105 -0.72690022 133 106 99
-0.074307792 -0.10746499 -0.72670138 136 103 92
-0.074936546 -0.10878867 -0.72656757 136 107 96
-0.074738838 -0.10840069 -0.72660446 136 106 95
-0.072939239 -0.10756698 -0.7264654 138 106 95
-0.075245269 -0.1090209 -0.72657573 135 108 97
-0.075921588 -0.10982597 -0.72654152 135 109 98
-0.072276987 -0.10809078 -0.7261979 139 108 99
-0.073229447 -0.10954365 -0.72604007 138 111 103
-0.07401108 -0.11101168 -0.7258327 138 113 108
-0.072852567 -0.10987084 -0.72584754 139 111 105
-0.073247358 -0.10918868 -0.72614521 138 110 101
-0.07298214 -0.10987033 -0.72588211 139 111 105
-0.06995634 -0.11074414 -0.72499365 139 114 110
-0.06874992 -0.11044331 -0.72484273 138 114 109
-0.068525121 -0.1093231 -0.72515899 138 111 105
-0.070817612 -0.11005604 -0.72539353 140 111 109
-0.068984978 -0.11126493 -0.72462517 138 117 112
-0.06914261 -0.11051004 -0.72490191 138 114 109
-0.072263002 -0.10821709 -0.7261588 139 108 99
-0.072194517 -0.11010056 -0.72561514 140 111 108
-0.072010271 -0.11066756 -0.72542447 140 112 111
-0.069237329 -0.1082155 -0.7256605 139 106 101
-0.071957119 -0.11042694 -0.72548372 140 112 110
-0.070826508 -0.10840424 -0.72586912 139 108 101
-0.065186091 -0.10846068 -0.72493333 135 114 107
-0.06626498 -0.11092147 -0.72420114 134 112 110
-0.06508211 -0.1084888 -0.72490096 134 113 107
-0.064728215 -0.10877562 -0.72471648 133 112 107
-0.065077864 -0.11012365 -0.72426552 132 110 108
-0.067196853 -0.11105824 -0.72434062 135 114 110
-0.065944076 -0.10880601 -0.72494894 136 115 107
-0.067961693 -0.10993806 -0.72486931 137 114 108
-0.067520797 -0.11000282 -0.72478575 137 115 109
-0.06712997 -0.11001389 -0.72472662 137 116 109
-0.066887118 -0.10916453 -0.72496694 137 114 107
-0.062495593 -0.11126888 -0.72345394 128 105 107
-0.063329436 -0.1112906 -0.7235471 128 105 108
-0.061899487 -0.10956095 -0.72411746 133 110 106
-0.063101992 -0.11019536 -0.72399163 132 109 107
-0.061911218 -0.11061801 -0.72366297 129 107 107
-0.06382411 -0.11075851 -0.72383738 131 107 108
-0.063524462 -0.10862195 -0.72464532 134 112 106
-0.063537471 -0.10858367 -0.72466123 134 112 106
-0.063485809 -0.10800922 -0.72488004 135 113 106
-0.061834354 -0.10861347 -0.72451407 136 113 106
-0.062095013 -0.10807052 -0.72474557 137 114 105
-0.058777034 -0.11076661 -0.72317666 124 102 99
-0.056985844 -0.10798944 -0.72435951 127 102 92
-0.057283022 -0.11012662 -0.72325319 122 100 92
-0.057863727 -0.10960488 -0.72364169 125 102 95
-0.059849542 -0.11097042 -0.72325861 125 103 104
-0.060077321 -0.1098812 -0.72378081 129 107 104
-0.059901107 -0.10829013 -0.724455 134 111 103
-0.057784129 -0.10753924 -0.72463316 131 106 95
-0.058518205 -0.10747506 -0.72471142 133 109 97
-0.059170131 -0.10922889 -0.72399968 129 106 100
-0.058742628 -0.10849213 -0.72428817 130 106 99
-0.053241774 -0.10889041 -0.72338152 110 88 84
-0.052903682 -0.10877238 -0.72340375 109 87 84
-0.055381954 -0.10990197 -0.72310412 117 94 87
-0.055001225 -0.10782897 -0.72416496 120 96 87
-0.05354058 -0.10798398 -0.72388572 113 91 85
-0.05647457 -0.10986747 -0.72325528 121 98 88
-0.055490248 -0.10852065 -0.72385484 120 97 88
-0.051559735 -0.10886239 -0.72319049 107 85 84
-0.050672058 -0.10884765 -0.7230857 106 83 83
-0.050416388 -0.10796411 -0.72351229 107 84 84
-0.052087978 -0.10842586 -0.72348267 109 86 84
-0.05234424 -0.1075706 -0.7239573 111 88 84
-0.047224957 -0.10769646 -0.72320473 106 84 87
-0.085964069 -0.11504997 -0.72683281 132 103 99
-0.083921097 -0.11457746 -0.72656661 128 98 96
-0.083558999 -0.11417212 -0.72666979 129 100 97
-0.0806484 -0.11282084 -0.72661108 134 104 99
-0.081954554 -0.113942 -0.72636801 133 104 98
-0.08170633 -0.11383212 -0.72636062 133 104 98
-0.08363992 -0.11370593 -0.72692811 129 100 98
-0.081705965 -0.11298631 -0.72679967 132 102 98
-0.077339925 -0.11145507 -0.72652739 135 111 102
-0.078153491 -0.11199588 -0.72643745 135 110 101
-0.078323901 -0.11192459 -0.7265147 135 109 101
-0.076906942 -0.11181345 -0.72623825 136 113 103
-0.078735948 -0.11207487 -0.72653383 135 108 100
-0.079382218 -0.11431988 -0.72552055 138 110 100
-0.076892309 -0.11285194 -0.72564703 134 109 100
-0.077362999 -0.11517552 -0.72443968 130 99 95
-0.078056604 -0.11435381 -0.72512144 135 106 98
-0.079053327 -0.11444298 -0.72536498 138 110 100
-0.077507846 -0.11395721 -0.72518879 134 106 98
-0.077600278 -0.11368314 -0.725375 135 108 99
-0.072464734 -0.11288384 -0.72449106 135 108 107
-0.072829917 -0.11448477 -0.72371483 130 103 99
-0.073527507 -0.11461172 -0.7238012 129 101 98
-0.072276786 -0.11336827 -0.72419018 134 107 105
-0.073244914 -0.11293839 -0.72463447 135 107 105
-0.072493784 -0.11373927 -0.72403955 132 106 103
-0.073715501 -0.112509 -0.72498029 136 108 106
-0.075883359 -0.11284378 -0.72536176 132 107 100
-0.074469022 -0.11322051 -0.72476792 133 104 103
-0.075150922 -0.11395027 -0.72452599 130 101 99
-0.073546983 -0.11178708 -0.72535396 138 111 109
-0.074989155 -0.11395805 -0.72447854 130 101 99
-0.075995721 -0.11334337 -0.72510207 131 104 98
-0.068907872 -0.11218809 -0.72411895 135 114 108
-0.06851846 -0.11367884 -0.72318184 131 105 101
-0.069816746 -0.11306591 -0.72383726 133 110 105
-0.069262549 -0.11414274 -0.7230956 130 103 100
-0.070835158 -0.11408725 -0.72350001 130 106 101
-0.072129406 -0.11347267 -0.72410381 133 107 104
-0.071236096 -0.11186804 -0.72477895 138 113 111
-0.071813278 -0.1125617 -0.72452641 136 110 108
-0.070598729 -0.1113939 -0.72490162 139 115 112
-0.071383588 -0.11417612 -0.72357374 130 106 101
-0.070981368 -0.11350575 -0.72384983 132 108 103
-0.070279583 -0.11141973 -0.7248221 139 115 112
-0.067474164 -0.11348486 -0.72307372 130 103 102
-0.064586163 -0.11143364 -0.72363693 130 105 108
-0.066308841 -0.11193714 -0.72370732 132 108 107
-0.066833571 -0.11198431 -0.72378898 133 109 107
-0.067105643 -0.11250506 -0.72355014 132 107 105
-0.06805215 -0.11200445 -0.7240293 135 113 108
-0.063812532 -0.11165557 -0.72340888 129 104 107
-0.06351389 -0.11165748 -0.72337109 128 104 107
-0.08855287 -0.11902137 -0.72533703 142 101 92
-0.088161938 -0.11639476 -0.72666073 138 108 99
-0.087934107 -0.11855059 -0.72542036 139 98 91
-0.089370601 -0.11734442 -0.72647703 143 112 101
-0.089315958 -0.11768194 -0.72627759 143 110 100
-0.088397264 -0.11833516 -0.72566634 141 102 93
-0.089782692 -0.11707953 -0.72673589 145 115 104
-0.085002631 -0.11604379 -0.72606725 130 96 94
-0.087127864 -0.11643665 -0.72637516 135 103 96
-0.087501436 -0.11785246 -0.72569382 137 99 92
-0.087405801 -0.11717907 -0.7260381 137 101 94
-0.087379217 -0.11610594 -0.72661757 136 105 98
-0.084445544 -0.11791915 -0.724886 125 91 90
-0.086978354 -0.11846268 -0.72522992 136 95 90
-0.087037191 -0.11882307 -0.72504479 136 94 89
-0.084243283 -0.11845099 -0.72453916 123 89 88
-0.08462964 -0.11646953 -0.72573763 128 94 93
-0.085009873 -0.11758643 -0.72521454 128 93 91
-0.080195911 -0.11732116 -0.72402292 126 99 96
-0.081875727 -0.11779176 -0.72424942 126 96 93
-0.080867022 -0.1189663 -0.72325927 116 90 93
-0.08114215 -0.11831331 -0.72372425 121 93 93
-0.081007876 -0.11718591 -0.72434461 128 99 95
-0.080658033 -0.1177622 -0.72390229 124 96 95
-0.081269354 -0.11773531 -0.72410101 125 96 94
-0.082505547 -0.11733685 -0.72469455 128 96 92
-0.083410628 -0.11816017 -0.72448051 124 92 89
-0.083518341 -0.11684175 -0.72524136 126 94 92
-0.083267257 -0.11625824 -0.7254979 127 96 94
-0.082214154 -0.11595698 -0.72538227 131 100 96
-0.080609262 -0.11531335 -0.7253086 138 107 99
-0.078470767 -0.11767773 -0.72331196 119 92 93
-0.077798381 -0.11726089 -0.72336376 121 93 93
-0.076295935 -0.1169271 -0.72314858 123 94 91
-0.077857733 -0.11562525 -0.72432333 129 99 95
-0.07816691 -0.11651853 -0.72389203 124 96 94
-0.078213364 -0.11673298 -0.72378021 123 95 94
-0.078826636 -0.11605483 -0.72435886 130 100 96
-0.079262763 -0.11589769 -0.72458005 132 103 97
-0.078861974 -0.11754807 -0.72349519 120 93 94
-0.077565514 -0.11611996 -0.72394717 125 95 94
-0.074651048 -0.11572459 -0.72344494 125 97 94
-0.075508393 -0.11576691 -0.72361118 125 96 93
-0.075464293 -0.11669454 -0.72308785 123 96 92
-0.084893085 -0.12038817 -0.7236796 131 99 91
-0.084803373 -0.12038736 -0.72365779 130 98 91
-0.085255668 -0.12043364 -0.72374618 135 104 94
-0.084802516 -0.11974277 -0.72398758 128 96 90
-0.085721903 -0.11988396 -0.72414899 134 99 91
-0.086942546 -0.1195832 -0.72461557 138 98 90
-0.08549504 -0.12059531 -0.72372347 137 107 95
-0.082998499 -0.1195617 -0.7235806 119 88 88
-0.08148317 -0.11933 -0.72324502 116 89 91
-0.082410708 -0.11974834 -0.72330952 118 88 89
-0.041720316 -0.13021755 -0.711227 82 50 50
-0.040016867 -0.13029553 -0.71107352 79 47 48
-0.039954454 -0.13071233 -0.71088648 79 48 48
-0.037914161 -0.13035189 -0.71092486 75 46 48
-0.037728101 -0.12985051 -0.71111953 76 46 49
-0.035364404 -0.13001134 -0.71091789 78 49 55
-0.034706157 -0.1303183 -0.71075499 79 50 56
-0.034623623 -0.13082653 -0.71054131 79 50 55
-0.034598641 -0.13026863 -0.71076953 79 50 57
-0.035341192 -0.12977605 -0.71101481 79 50 56
-0.035608612 -0.12983346 -0.71100485 78 49 54
-0.0327335 -0.13076454 -0.71046782 84 56 63
-0.029895045 -0.13065723 -0.71038783 95 75 79
-0.033085108 -0.12970938 -0.71092504 84 60 64
-0.031993899 -0.12910785 -0.71114403 90 69 71
-0.032360632 -0.12887834 -0.71125787 89 68 70
-0.029804062 -0.12873109 -0.71128398 100 80 81
-0.026618244 -0.13017046 -0.71091622 99 74 76
-0.029213088 -0.12930594 -0.71101558 101 81 83
-0.026336938 -0.13065338 -0.71072286 98 72 75
-0.027019117 -0.13010697 -0.7108987 99 75 77
-0.02565079 -0.13011768 -0.71104753 96 69 72
-0.025945373 -0.13034426 -0.71091157 98 71 74
-0.025288453 -0.12999299 -0.71114522 95 67 71
-0.025179904 -0.13040088 -0.71097183 96 68 71
-0.057919197 -0.13449904 -0.71130079 67 43 42
-0.055767551 -0.13456625 -0.71096247 62 41 43
-0.055905543 -0.1341323 -0.7111727 63 42 44
-0.053412337 -0.13336889 -0.71111721 73 50 44
-0.053731158 -0.13328467 -0.71120197 72 49 44
-0.051254019 -0.1345783 -0.71032625 79 54 47
-0.051025297 -0.13462745 -0.71027887 80 55 47
-0.052249964 -0.1334497 -0.71092308 77 53 45
-0.049132608 -0.132935 -0.71078336 86 59 54
-0.051998384 -0.13255364 -0.71127671 78 53 47
-0.049650714 -0.13305961 -0.71078986 84 58 52
-0.051278368 -0.13327511 -0.71088547 80 54 47
-0.047653072 -0.13131252 -0.71132237 87 61 57
-0.047380608 -0.13213773 -0.71094203 87 60 55
-0.048574757 -0.13288885 -0.71074229 87 60 54
-0.04681734 -0.1314445 -0.7111811 87 61 55
-0.047823686 -0.13284811 -0.71068352 87 59 54
-0.047209624 -0.13183415 -0.71105444 87 60 55
-0.047771931 -0.13374291 -0.71029663 86 58 52
-0.045587644 -0.13268031 -0.71055001 86 59 54
-0.045385256 -0.13159981 -0.71097463 86 60 54
-0.045432333 -0.13221526 -0.71072716 86 59 54
-0.046826329 -0.13467245 -0.70983869 85 57 54
-0.046260227 -0.13273548 -0.71058315 86 59 53
-0.042382069 -0.13461508 -0.70941985 80 51 52
-0.042083815 -0.13470577 -0.70934701 79 50 51
-0.04131021 -0.13241142 -0.71024585 80 49 49
-0.043376803 -0.13415429 -0.7097308 82 53 54
-0.0424436 -0.134249 -0.70958424 80 51 52
-0.043442741 -0.13229142 -0.71051788 84 54 53
-0.042544283 -0.13094662 -0.71098465 83 53 51
-0.042607095 -0.13186339 -0.71061593 83 52 51
-0.043357048 -0.13287446 -0.71027184 83 54 53
-0.044331666 -0.13128345 -0.71101135 85 58 54
-0.044714525 -0.13120064 -0.71108031 86 60 54
-0.037523255 -0.13392843 -0.7094273 73 44 44
-0.038154025 -0.13323723 -0.70972997 74 45 46
-0.038268898 -0.13214198 -0.71018058 75 46 47
-0.039378606 -0.13463913 -0.70919812 75 46 47
-0.040425882 -0.1346799 -0.70921582 77 47 49
-0.040965445 -0.13463977 -0.70925152 78 47 49
-0.039933443 -0.13136233 -0.71060425 79 48 48
-0.04008241 -0.13380754 -0.70956099 77 47 49
-0.040705871 -0.13346858 -0.70974088 78 48 49
-0.039774526 -0.13100073 -0.71075106 79 48 48
-0.040612351 -0.13390012 -0.7095502 78 47 49
-0.036389604 -0.13461082 -0.70909506 73 45 44
-0.034101613 -0.13252111 -0.70982039 78 50 54
-0.034972787 -0.13316999 -0.7096042 76 48 51
-0.035282042 -0.13466306 -0.70901161 74 47 46
-0.035011895 -0.13433933 -0.70912868 75 48 47
-0.034517046 -0.13283031 -0.70971739 77 49 52
-0.036734976 -0.1322397 -0.71008188 74 45 46
-0.036362443 -0.13316844 -0.70968229 74 46 47
-0.035637952 -0.132046 -0.71009994 76 48 51
-0.035723068 -0.13176394 -0.7102198 76 48 51
-0.035383239 -0.1318028 -0.71018505 77 48 52
-0.035502691 -0.13202059 -0.7101028 76 48 51
-0.03017435 -0.13181894 -0.70992416 93 71 74
-0.030163737 -0.13414052 -0.7089926 90 66 69
-0.029582206 -0.1328188 -0.70950145 94 72 75
-0.030884236 -0.1340736 -0.70904583 87 63 64
-0.029926253 -0.13287637 -0.7094909 92 70 73
-0.029709585 -0.13145953 -0.71005124 95 74 78
-0.033188138 -0.13142276 -0.71021801 81 52 59
-0.031865116 -0.13157676 -0.7100969 86 61 65
-0.031009955 -0.13101627 -0.71028823 90 66 72
-0.032767642 -0.13198817 -0.70996857 82 55 59
-0.032706626 -0.13322905 -0.70945901 81 55 56
-0.032848887 -0.13167995 -0.71009803 82 55 60
-0.026192088 -0.13392134 -0.70926589 101 79 74
-0.027299669 -0.1328811 -0.70969427 95 69 73
-0.025413722 -0.13420068 -0.70917588 103 83 74
-0.02835067 -0.13389367 -0.70916665 94 69 73
-0.025728509 -0.13194521 -0.71021312 98 72 73
-0.027452841 -0.13354251 -0.70937735 96 72 73
-0.028172184 -0.13211662 -0.70990539 96 72 76
-0.029270118 -0.13408905 -0.70898467 93 70 74
-0.028391626 -0.1310728 -0.71029812 97 75 79
-0.028988454 -0.13245632 -0.70967281 95 73 77
-0.028231036 -0.13141678 -0.71017909 97 74 78
-0.025778593 -0.13116828 -0.71056825 97 70 73
-0.022825228 -0.13252415 -0.71026194 92 72 68
-0.022096612 -0.13463107 -0.70937192 91 69 68
-0.023080193 -0.13436083 -0.70937902 95 74 70
-0.024697836 -0.13242909 -0.71008587 98 75 72
-0.023554303 -0.13290897 -0.70999575 96 76 69
-0.023593303 -0.13165797 -0.71057558 93 70 69
-0.024702519 -0.13109766 -0.71070719 96 70 71
-0.065191053 -0.13781083 -0.71128035 87 58 51
-0.063890681 -0.13864407 -0.71069217 82 52 46
-0.064026542 -0.13805501 -0.71094358 85 55 48
-0.06059102 -0.13569605 -0.71121192 81 51 41
-0.061866499 -0.136884 -0.71100289 83 52 44
-0.061816286 -0.13600293 -0.711317 84 54 44
-0.060615774 -0.13594376 -0.71112549 81 50 41
-0.062737301 -0.13708606 -0.71108341 85 55 47
-0.059756581 -0.13515458 -0.71129411 77 49 41
-0.059361253 -0.13647544 -0.71075499 72 44 41
-0.060346022 -0.13779658 -0.7104063 76 44 41
-0.060220525 -0.13808863 -0.71028191 74 43 42
-0.05877417 -0.13578585 -0.71092689 69 43 42
-0.059433095 -0.13842565 -0.71002525 72 41 41
-0.057148181 -0.13847683 -0.70962536 66 39 39
-0.057623949 -0.13795885 -0.70990902 66 39 40
-0.057914004 -0.13715075 -0.71027648 65 39 41
-0.056673381 -0.13760957 -0.70988911 63 38 40
-0.052924871 -0.13529661 -0.71024054 74 52 45
-0.052786376 -0.13535893 -0.71019757 75 52 45
-0.053691447 -0.1365173 -0.70987988 73 48 44
-0.053659219 -0.13779917 -0.70938551 74 48 45
-0.05312698 -0.1380146 -0.70922959 76 49 47
-0.053193904 -0.13679899 -0.70970345 75 50 45
-0.056433082 -0.13776574 -0.70979065 64 39 40
-0.05632177 -0.13559194 -0.7106325 60 39 42
-0.053718921 -0.13560045 -0.71023613 72 49 43
-0.056139834 -0.13709369 -0.71001184 64 40 40
-0.0561396 -0.13594943 -0.71046382 62 40 42
-0.049493138 -0.1357704 -0.70966309 85 56 50
-0.051031291 -0.138391 -0.70885265 81 52 49
-0.049975865 -0.13625781 -0.70953262 84 55 50
-0.049774989 -0.13742897 -0.70907903 84 54 49
-0.049182698 -0.1366192 -0.70931739 85 56 50
-0.050350431 -0.13656752 -0.70945674 83 54 50
-0.052215535 -0.13605052 -0.70986611 77 52 47
-0.051157303 -0.13645113 -0.70959085 81 53 49
-0.050747398 -0.13584095 -0.7097767 82 54 49
-0.05106888 -0.13689584 -0.70941067 82 53 49
-0.05228373 -0.13820401 -0.70905089 79 50 49
-0.05272055 -0.13842779 -0.70901579 78 50 48
-0.045218199 -0.13625561 -0.70909148 84 55 53
-0.047189198 -0.13834175 -0.70848078 84 54 49
-0.046086248 -0.13825069 -0.70840168 84 54 48
-0.04605427 -0.13743797 -0.70871615 84 55 50
-0.046761837 -0.13792539 -0.70859915 84 55 49
-0.047031719 -0.13833085 -0.70846868 84 54 48
