ply
format ascii 1.0
comment PCL generated
element vertex 657
property float x
property float y
property float z
property uchar red
property uchar green
property uchar blue
element camera 1
property float view_px
property float view_py
property float view_pz
property float x_axisx
property float x_axisy
property float x_axisz
property float y_axisx
property float y_axisy
property float y_axisz
property float z_axisx
property float z_axisy
property float z_axisz
property float focal
property float scalex
property float scaley
property float centerx
property float centery
property int viewportx
property int viewporty
property float k1
property float k2
end_header
-0.1120773 -0.13411221 -0.72628397 151 124 109
-0.11255723 -0.13419947 -0.72643751 150 122 109
-0.11279643 -0.13356963 -0.72674948 151 121 110
-0.1132445 -0.13377826 -0.72684836 149 120 110
-0.1136242 -0.13411501 -0.72687626 148 119 108
-0.11065692 -0.13353361 -0.72597712 153 125 113
-0.1101094 -0.1343165 -0.72549349 150 123 109
-0.11033831 -0.13423072 -0.72561091 150 124 110
-0.11584638 -0.13691126 -0.72684032 150 118 105
-0.11425323 -0.13501684 -0.72680944 145 117 106
-0.11379785 -0.13512433 -0.72660029 147 119 106
-0.1126578 -0.13593772 -0.72590756 149 120 104
-0.11388066 -0.13586482 -0.72639757 147 117 104
-0.11104015 -0.13547209 -0.72543973 149 123 105
-0.11071228 -0.134911 -0.7254957 150 124 106
-0.12001328 -0.14247231 -0.7268905 172 157 136
-0.11893129 -0.14079544 -0.72691619 173 156 126
-0.118811 -0.14189337 -0.72652835 175 160 130
-0.11853179 -0.1407847 -0.72675335 171 152 123
-0.1185985 -0.14252286 -0.72626626 178 164 132
-0.12069876 -0.1443727 -0.72678345 154 132 122
-0.12047672 -0.14345159 -0.72688168 162 144 129
-0.11981334 -0.14416488 -0.72643512 162 142 128
-0.1194907 -0.14641352 -0.72585589 147 117 130
-0.11994901 -0.14433292 -0.72646081 160 139 126
-0.12077707 -0.14477265 -0.72673261 151 127 118
-0.11980814 -0.14392097 -0.72648054 164 145 128
-0.11853413 -0.14266916 -0.72620958 178 163 132
-0.11736549 -0.14282188 -0.72574151 178 157 127
-0.11907962 -0.14495966 -0.72596616 160 137 134
-0.11902956 -0.14462352 -0.72601312 163 141 134
-0.118487 -0.14346972 -0.7260353 172 153 132
-0.11888856 -0.14591917 -0.72570682 153 124 133
-0.13113162 -0.11761555 -0.73879057 162 139 141
-0.1322425 -0.1168333 -0.73874229 152 131 141
-0.13198023 -0.11749425 -0.73893392 155 132 139
-0.13052188 -0.11907259 -0.73914522 167 140 133
-0.13535921 -0.12299717 -0.74041569 159 130 121
-0.13104196 -0.12110168 -0.73884058 159 129 124
-0.13267358 -0.12297381 -0.73911059 154 123 117
-0.13200793 -0.12138362 -0.73923433 159 130 124
-0.13453519 -0.1229312 -0.74002469 157 128 119
-0.13250686 -0.12135471 -0.73948419 160 131 125
-0.13458718 -0.12253125 -0.74012923 158 129 120
-0.13435484 -0.12182239 -0.74016905 159 130 123
-0.12999818 -0.11989256 -0.73874605 164 136 127
-0.13618711 -0.12506893 -0.74004394 152 117 112
-0.1359251 -0.12525156 -0.7398454 150 116 110
-0.13591678 -0.12488291 -0.7399804 152 118 112
-0.13532194 -0.12381613 -0.74008876 155 124 116
-0.13584127 -0.12556092 -0.73968714 148 115 108
-0.13654487 -0.12333562 -0.74089783 162 133 124
-0.13624331 -0.12345943 -0.74069542 160 130 122
-0.13564205 -0.12369028 -0.74029815 157 125 118
-0.13405426 -0.1245967 -0.73917496 147 118 110
-0.13393752 -0.12375564 -0.73943543 152 122 114
-0.13442694 -0.1244567 -0.73940831 149 119 111
-0.13378742 -0.12392801 -0.73929769 151 121 113
-0.13889788 -0.12986641 -0.73959839 165 134 115
-0.13881032 -0.12848291 -0.74006706 159 121 112
-0.13916974 -0.12847492 -0.74027193 161 123 115
-0.13821106 -0.12955135 -0.73936826 161 127 110
-0.13832323 -0.12976934 -0.73934048 162 130 111
-0.13745914 -0.12898545 -0.73920822 155 122 108
-0.13812429 -0.12934741 -0.73940301 159 125 110
-0.13804607 -0.13117038 -0.73870862 164 137 112
-0.14262412 -0.13799664 -0.73924106 177 159 155
-0.14333615 -0.13788962 -0.73968947 181 165 163
-0.14301591 -0.13842626 -0.7393657 177 160 157
-0.14161459 -0.1372849 -0.73888743 172 153 147
-0.14262752 -0.14000793 -0.73878068 168 152 142
-0.14292641 -0.13991371 -0.7389878 166 149 143
-0.1354613 -0.11407957 -0.73691785 147 135 164
-0.13559845 -0.11481144 -0.73815751 134 120 146
-0.13520166 -0.11464076 -0.73780113 138 124 152
-0.13766538 -0.11431457 -0.73771411 137 126 149
-0.13717067 -0.1144516 -0.73785031 136 124 148
-0.13098462 -0.11386029 -0.73578566 154 148 171
-0.13299553 -0.11438146 -0.73703891 140 129 157
-0.13224405 -0.11482634 -0.73748195 147 134 154
-0.13163108 -0.114888 -0.73741412 152 139 156
-0.13306412 -0.11397674 -0.73639709 145 137 165
-0.13232994 -0.11357259 -0.73563075 150 145 173
-0.13164614 -0.11311007 -0.73477417 156 154 182
-0.13462487 -0.11434263 -0.73720777 144 131 160
-0.13183011 -0.11353429 -0.73550206 149 145 173
-0.12723088 -0.11430568 -0.73581535 145 126 140
-0.12859567 -0.11484705 -0.73676336 152 133 145
-0.12832654 -0.11445778 -0.73623103 148 131 145
-0.12903291 -0.11339289 -0.73486936 146 138 161
-0.13006133 -0.1135306 -0.7351886 151 145 168
-0.12850441 -0.1138453 -0.73545069 145 133 151
-0.12908511 -0.11380531 -0.7354632 148 137 157
-0.12990046 -0.11469725 -0.73683161 153 139 153
-0.12477766 -0.11508647 -0.736323 147 121 125
-0.12398286 -0.1149403 -0.73602396 144 119 122
-0.12399556 -0.11517537 -0.73625869 147 122 122
-0.12674052 -0.11371048 -0.73500574 140 123 140
-0.12469861 -0.1139259 -0.73504162 136 113 128
-0.12548815 -0.11423022 -0.73550159 141 117 131
-0.12634119 -0.11366519 -0.7349059 138 121 138
-0.11989319 -0.11515813 -0.73530555 136 110 106
-0.12288722 -0.11516298 -0.73602873 144 120 117
-0.12290725 -0.1140986 -0.7349816 134 107 119
-0.12207977 -0.11481357 -0.73551619 138 114 114
-0.11868425 -0.11490472 -0.73486573 131 104 100
-0.13137957 -0.11678525 -0.73851204 159 138 145
-0.13155407 -0.11638647 -0.73838443 156 137 146
-0.1303563 -0.11674081 -0.73812973 162 143 145
-0.12970014 -0.11679161 -0.73787183 163 142 143
-0.12923703 -0.11754107 -0.73798877 164 142 137
-0.1290082 -0.11862914 -0.73834425 167 142 131
-0.13030203 -0.11614332 -0.7378549 161 143 148
-0.12926348 -0.11595106 -0.73752403 159 139 144
-0.12795088 -0.11543738 -0.73714304 155 131 139
-0.12808686 -0.11751468 -0.73759907 164 139 133
-0.12823485 -0.11614208 -0.73734766 158 135 138
-0.1286058 -0.11594782 -0.73738545 158 136 141
-0.12703077 -0.11620778 -0.73710871 157 130 132
-0.12571159 -0.11845642 -0.73723012 164 135 121
-0.12356668 -0.1191249 -0.73652905 159 129 117
-0.12336886 -0.11564932 -0.73626614 148 123 118
-0.1238919 -0.11767911 -0.73655999 156 128 118
-0.12525748 -0.11846989 -0.73707455 162 134 120
-0.12434343 -0.11540376 -0.7364192 149 123 123
-0.12589933 -0.11717135 -0.7370857 159 132 124
-0.1259294 -0.11646809 -0.73694682 156 129 126
-0.12612087 -0.11644994 -0.73698032 156 129 127
-0.12583485 -0.11746547 -0.73713368 160 133 123
-0.12180066 -0.1179485 -0.73597211 151 122 113
-0.12039256 -0.11691409 -0.73551893 145 117 109
-0.12082807 -0.11774176 -0.73561853 150 121 111
-0.1222471 -0.11897779 -0.73605973 157 127 115
-0.12144201 -0.11759788 -0.73586363 149 120 112
-0.11957464 -0.11697168 -0.73520321 146 117 108
-0.12132378 -0.1154286 -0.73572159 142 116 112
-0.12049679 -0.11548129 -0.73552233 140 113 109
-0.12135394 -0.11702964 -0.73581868 147 119 111
-0.12204831 -0.11663192 -0.73596621 147 120 114
-0.11990323 -0.11546159 -0.73537612 138 111 107
-0.11905324 -0.11731748 -0.73498535 148 119 107
-0.11829883 -0.11687852 -0.73489577 145 115 104
-0.11887243 -0.11737189 -0.73493963 148 119 106
-0.11805575 -0.11571252 -0.73496473 138 108 101
-0.13109557 -0.12266567 -0.738419 153 120 117
-0.1298005 -0.12056745 -0.73846662 162 132 123
-0.12915941 -0.11991235 -0.73839182 165 136 125
-0.13050444 -0.12228978 -0.73826039 154 121 117
-0.12905961 -0.12035222 -0.73822004 163 133 122
-0.12956391 -0.12273868 -0.73770213 154 120 114
-0.12752086 -0.12187209 -0.73705876 160 128 115
-0.12900379 -0.12283835 -0.73741525 154 121 114
-0.1292398 -0.12256113 -0.7376132 155 122 115
-0.12910204 -0.1229872 -0.73741102 153 120 113
-0.12721063 -0.12284812 -0.73659807 157 124 112
-0.12590784 -0.1224477 -0.73621321 156 124 112
-0.12401045 -0.12150889 -0.7357831 156 126 111
-0.12392847 -0.12166193 -0.7356841 156 126 111
-0.12482005 -0.12208425 -0.73589396 156 125 111
-0.12466123 -0.12242284 -0.73568451 155 125 110
-0.12572189 -0.12263389 -0.73605537 156 124 111
-0.12424618 -0.11945187 -0.73666209 160 130 117
-0.12564039 -0.12154099 -0.73645753 157 126 114
-0.12468912 -0.11930457 -0.73686284 162 132 119
-0.12507741 -0.11967309 -0.73687583 162 132 118
-0.12501621 -0.12093208 -0.73644215 158 126 114
-0.12640652 -0.12014244 -0.7371797 164 134 119
-0.12215441 -0.12159132 -0.73499179 155 126 108
-0.12132205 -0.11919416 -0.73567265 158 128 113
-0.12141138 -0.11968572 -0.73550206 157 128 112
-0.12085747 -0.11968546 -0.73529148 157 128 111
-0.12223984 -0.11934235 -0.73596013 157 128 114
-0.12237114 -0.12132306 -0.73518586 155 127 109
-0.13233143 -0.12401563 -0.73855382 148 116 111
-0.13217553 -0.12383176 -0.73854727 149 117 112
-0.13153404 -0.12383935 -0.73821837 148 115 112
-0.13310795 -0.12620884 -0.73807871 144 114 104
-0.13098575 -0.125018 -0.73746818 154 121 112
-0.13100137 -0.12534888 -0.73734421 154 122 112
-0.13175529 -0.12403837 -0.73825216 147 115 111
-0.13361563 -0.12642132 -0.73825365 142 112 103
-0.12826464 -0.12530459 -0.73611969 156 123 109
-0.12795694 -0.12527265 -0.73599517 155 122 108
-0.12784471 -0.12654178 -0.73545033 154 120 105
-0.1282396 -0.12574518 -0.73593676 155 122 108
-0.12795304 -0.1253403 -0.73596704 155 122 108
-0.12907711 -0.12581564 -0.73628211 157 124 109
-0.12769394 -0.12450607 -0.73617697 156 123 110
-0.1282897 -0.12322257 -0.73695272 155 122 112
-0.13027498 -0.12579133 -0.73682994 157 125 111
-0.12850587 -0.12386898 -0.73679322 156 123 112
-0.12834083 -0.1232446 -0.73696721 155 122 112
-0.12908353 -0.12455411 -0.73678231 156 124 112
-0.13077994 -0.12652452 -0.73676693 158 126 111
-0.12622672 -0.12589349 -0.73500353 153 119 104
-0.12480191 -0.12419547 -0.73504269 154 123 106
-0.12441777 -0.12382864 -0.73501813 154 124 106
-0.12638873 -0.12666841 -0.73477453 153 118 103
-0.12384364 -0.12321115 -0.73500818 154 125 106
-0.12623203 -0.1245693 -0.73551679 154 121 107
-0.13724862 -0.13056685 -0.73852456 159 130 108
-0.13657792 -0.12950468 -0.73858339 153 124 105
-0.13504815 -0.1297157 -0.73778701 143 108 97
-0.13645166 -0.12992454 -0.73837543 153 123 104
-0.13324276 -0.13073543 -0.73652327 147 112 100
-0.13138145 -0.12922552 -0.73610705 154 122 108
-0.13131011 -0.12897411 -0.73615825 155 122 108
-0.13225177 -0.12986198 -0.7363258 151 117 104
-0.13264613 -0.13048039 -0.73631036 149 115 102
-0.1333928 -0.12951018 -0.73702443 148 112 99
-0.133718 -0.12724146 -0.73799217 143 112 101
-0.1347447 -0.12977044 -0.73762369 141 105 95
-0.13300209 -0.12799948 -0.73735821 148 115 103
-0.13425273 -0.12774502 -0.73808771 141 109 99
-0.13242032 -0.12840873 -0.73691612 152 118 104
-0.1314951 -0.12721072 -0.73686624 155 123 108
-0.13035935 -0.1308164 -0.73506695 154 123 108
-0.12998831 -0.12944669 -0.73537868 154 122 108
-0.129317 -0.12845217 -0.73542506 154 121 107
-0.12887485 -0.12717229 -0.73567247 155 122 106
-0.13035266 -0.12872645 -0.73579091 155 124 109
-0.12828037 -0.12782077 -0.7351827 153 120 105
-0.12995888 -0.12913063 -0.73547524 154 122 108
-0.1372458 -0.13127457 -0.73830044 159 128 107
-0.13654643 -0.1309513 -0.73806345 155 122 104
-0.13735899 -0.13270269 -0.73793948 156 124 109
-0.13723466 -0.13196306 -0.73809642 157 125 108
-0.13755868 -0.13325106 -0.73787403 156 124 110
-0.13681033 -0.13203803 -0.73787367 154 121 105
-0.13533509 -0.13249058 -0.73701584 146 111 99
-0.13482983 -0.13235207 -0.73680758 144 109 96
-0.13764131 -0.1347568 -0.73744738 156 127 113
-0.13766837 -0.13422699 -0.73762918 155 125 112
-0.13718951 -0.13344595 -0.73763824 153 121 109
-0.13493758 -0.13197874 -0.73697996 144 108 96
-0.13651565 -0.13313769 -0.7373997 150 118 105
-0.13091591 -0.13104446 -0.73524737 153 122 109
-0.1324119 -0.13451025 -0.73492515 146 115 99
-0.13183646 -0.13212083 -0.73537236 151 120 106
-0.13228568 -0.13253038 -0.7354688 150 119 105
-0.13243428 -0.1340124 -0.73508859 147 116 100
-0.13437906 -0.13114034 -0.73696512 144 107 96
-0.13427781 -0.13358557 -0.73613727 145 114 100
-0.13351673 -0.13294132 -0.73595738 147 116 102
-0.13226593 -0.1319195 -0.73565 150 119 106
-0.13298811 -0.13087402 -0.73634696 148 113 101
-0.13435163 -0.1321919 -0.73661727 144 110 98
-0.13035132 -0.13088593 -0.73504031 154 123 108
-0.14067255 -0.13659719 -0.73856187 168 146 137
-0.14123915 -0.13801438 -0.73850673 166 144 140
-0.14039093 -0.13762632 -0.73815298 160 136 131
-0.14101803 -0.13781336 -0.73843974 165 143 138
-0.14112031 -0.13850622 -0.7383194 163 140 138
-0.1387656 -0.13563383 -0.73778999 156 127 117
-0.13553961 -0.13861753 -0.73533493 144 117 107
-0.13735597 -0.13796617 -0.73647738 141 111 108
-0.13544698 -0.135454 -0.73617524 144 114 102
-0.13695827 -0.13732849 -0.73644656 142 112 107
-0.13700956 -0.1383758 -0.73617923 142 113 108
-0.13773185 -0.13814348 -0.73662603 141 111 109
-0.1373605 -0.13560393 -0.73709297 150 121 110
-0.13819912 -0.13582566 -0.73745573 152 123 114
-0.1368819 -0.13618709 -0.73670697 145 116 107
-0.13779262 -0.13604374 -0.73719776 150 120 111
-0.13858439 -0.13763598 -0.73719156 144 114 112
-0.13836816 -0.1367512 -0.73730671 148 118 113
-0.13745137 -0.13693823 -0.73680186 144 114 108
-0.13278073 -0.1349594 -0.73497474 145 115 98
-0.13432336 -0.137523 -0.735017 145 118 104
-0.13361265 -0.13649398 -0.73495483 145 116 102
-0.14265816 -0.14190361 -0.73838246 158 149 128
-0.1409732 -0.13895032 -0.73813629 159 137 133
-0.14218538 -0.14003307 -0.73853654 165 149 138
-0.14114863 -0.13987517 -0.73802114 156 136 128
-0.14226465 -0.14139125 -0.73827893 158 147 128
-0.14071977 -0.13982831 -0.73780429 152 131 124
-0.1421138 -0.14028463 -0.7384423 163 147 135
-0.13960613 -0.14183201 -0.73672312 133 107 102
-0.13987844 -0.14241669 -0.73673171 133 108 101
-0.14073679 -0.14204952 -0.73729497 142 123 110
-0.13941541 -0.1420505 -0.73656476 131 103 99
-0.14176674 -0.14247143 -0.73776162 148 137 116
-0.14025928 -0.14135167 -0.73720062 141 119 110
-0.14013715 -0.14106253 -0.7372033 141 119 110
-0.13527247 -0.140128 -0.73483866 136 108 100
-0.13647412 -0.14054912 -0.73535997 134 105 99
-0.13556553 -0.14022784 -0.73496634 136 107 100
-0.13630719 -0.13892031 -0.73566478 142 114 107
-0.1378784 -0.13951889 -0.73634928 137 106 105
-0.1363939 -0.13954547 -0.73555881 139 110 104
-0.13685597 -0.13969053 -0.73576766 138 108 103
-0.13779095 -0.14082004 -0.73598737 132 100 99
-0.13865095 -0.14229655 -0.73608315 124 90 92
-0.13690172 -0.14024813 -0.7356565 135 105 101
-0.14112861 -0.14281686 -0.7373367 140 123 108
-0.12791735 -0.1104003 -0.73078656 195 205 223
-0.12768279 -0.11011975 -0.73044872 196 205 222
-0.1289575 -0.1094214 -0.72982568 214 221 233
-0.12784477 -0.10946414 -0.72970647 208 215 228
-0.12611163 -0.10875124 -0.72856998 221 227 236
-0.12638183 -0.10966996 -0.7297073 203 211 226
-0.12517546 -0.10894931 -0.72868568 217 222 234
-0.12603852 -0.10979617 -0.72981399 200 208 224
-0.12673119 -0.10967448 -0.7297582 203 211 226
-0.12348981 -0.11033088 -0.73034847 151 137 195
-0.12464372 -0.10898385 -0.72866684 214 219 233
-0.12530005 -0.11002897 -0.73006231 184 186 215
-0.12390895 -0.10999189 -0.72993279 169 160 205
-0.12452754 -0.11066946 -0.73084885 151 143 195
-0.12456675 -0.11002801 -0.7300182 175 172 210
-0.12279508 -0.11063374 -0.73069364 134 115 184
-0.11170289 -0.12254266 -0.73083854 160 125 95
-0.1106516 -0.12279947 -0.73036897 158 121 91
-0.11050275 -0.12270749 -0.73036343 157 119 90
-0.10759335 -0.12175095 -0.72988117 134 89 71
-0.10832603 -0.12279804 -0.72961026 147 101 78
-0.10754368 -0.12145382 -0.73000926 132 87 70
-0.10649852 -0.12129404 -0.72976607 131 87 74
-0.10741661 -0.12237386 -0.72952193 139 91 72
-0.10594518 -0.12251256 -0.72896558 137 88 77
-0.10631017 -0.12201586 -0.72935504 137 91 77
-0.11638456 -0.12638295 -0.73083609 175 141 127
-0.11612532 -0.12679075 -0.73055428 179 145 132
-0.11514948 -0.12600395 -0.73051387 181 150 134
-0.1141047 -0.12504819 -0.73056751 176 144 123
-0.11333469 -0.12677214 -0.72955537 177 149 135
-0.11221763 -0.126188 -0.72942454 172 143 127
-0.11134005 -0.12334418 -0.73034996 164 131 99
-0.11206212 -0.1263466 -0.72930288 172 143 128
-0.11480886 -0.12694573 -0.72998548 184 154 140
-0.11279713 -0.12596056 -0.72972113 174 144 126
-0.10742771 -0.12373312 -0.72890139 150 104 82
-0.10914084 -0.12369072 -0.72948146 154 113 90
-0.11007649 -0.12311801 -0.73003423 158 119 90
-0.11073796 -0.12453926 -0.72963774 163 129 107
-0.1084036 -0.12305659 -0.72951382 149 104 79
-0.11057113 -0.12443382 -0.72962862 162 128 105
-0.10606246 -0.12371041 -0.72843629 144 97 84
-0.1073832 -0.12306071 -0.72917759 144 95 74
-0.11950579 -0.13039786 -0.73051137 149 116 108
-0.11611113 -0.12993309 -0.72929382 172 144 128
-0.11417057 -0.13044111 -0.72834814 173 146 129
-0.11328575 -0.12914175 -0.728576 173 146 131
-0.11242169 -0.12850627 -0.72853065 171 143 130
-0.11238627 -0.12761918 -0.72888476 172 145 133
-0.11482652 -0.12716377 -0.7299037 183 154 139
-0.11334911 -0.12877589 -0.72874963 174 147 132
-0.11233617 -0.1278317 -0.72878212 172 145 133
-0.11249917 -0.12708247 -0.72913915 174 146 135
-0.11474939 -0.12858166 -0.72930735 180 152 136
-0.11120562 -0.12741286 -0.7285552 169 141 130
-0.12043887 -0.13161251 -0.73047018 149 116 107
-0.12177796 -0.13287753 -0.73060071 151 114 104
-0.12132041 -0.13271011 -0.73046356 150 115 104
-0.11924648 -0.1321988 -0.72975916 146 110 103
-0.1206914 -0.13382581 -0.72980946 147 107 99
-0.12140971 -0.13358797 -0.73019665 150 112 101
-0.1213917 -0.13390085 -0.73008072 149 110 100
-0.12007903 -0.13251686 -0.73000252 148 112 103
-0.12025084 -0.13269845 -0.73001254 148 111 103
-0.11936927 -0.13243149 -0.72973073 146 109 102
-0.1165766 -0.13390802 -0.7280854 150 116 107
-0.11703281 -0.13417131 -0.72818053 147 112 104
-0.11676407 -0.13355552 -0.72827691 153 119 109
-0.11838142 -0.13458769 -0.72858149 143 101 96
-0.11718389 -0.13375375 -0.72837901 151 115 106
-0.11834608 -0.13281062 -0.729173 150 113 105
-0.1184875 -0.13186336 -0.72955948 151 117 108
-0.1186466 -0.13234557 -0.72945857 149 113 105
-0.11817732 -0.13226673 -0.72929126 153 117 108
-0.11884394 -0.13410163 -0.72893274 144 102 97
-0.1177413 -0.1319323 -0.72922617 156 123 112
-0.11252674 -0.1326706 -0.7269606 154 122 113
-0.11479 -0.13474697 -0.72710192 144 116 107
-0.11429189 -0.13375513 -0.72725701 148 119 110
-0.12609868 -0.13815737 -0.73083693 151 114 114
-0.12337825 -0.13660669 -0.73007792 162 127 112
-0.1259491 -0.13859531 -0.73063761 154 119 117
-0.12336602 -0.13680655 -0.73001206 163 129 114
-0.12405825 -0.13836129 -0.72985506 168 137 123
-0.12344622 -0.13602163 -0.73028517 157 121 108
-0.12157956 -0.13765632 -0.72899252 167 136 118
-0.11970714 -0.1367054 -0.72849256 157 123 106
-0.12058336 -0.13823648 -0.72840786 171 145 119
-0.12067223 -0.13730729 -0.72871745 163 132 113
-0.12073284 -0.13860053 -0.72836328 174 150 121
-0.12096962 -0.13730367 -0.7288422 164 131 114
-0.12260035 -0.13524073 -0.73015112 154 115 102
-0.12201746 -0.13571444 -0.72976071 155 117 105
-0.12130014 -0.13533586 -0.72957051 151 110 101
-0.12167682 -0.13545686 -0.72969389 153 113 102
-0.12021532 -0.13480936 -0.72926897 144 101 95
-0.12303548 -0.13538197 -0.73029315 156 118 104
-0.1155064 -0.13576058 -0.72706234 147 117 106
-0.11683524 -0.13649625 -0.72739327 156 130 110
-0.11736266 -0.1372492 -0.72737646 160 134 111
-0.11814135 -0.13548237 -0.72821641 147 111 100
-0.118151 -0.13556483 -0.72819608 148 112 101
-0.11776663 -0.13596779 -0.72792429 151 120 105
-0.11776879 -0.13532804 -0.72811282 146 111 101
-0.11812335 -0.13536198 -0.72824454 146 109 100
-0.11686044 -0.13631476 -0.72746044 155 129 110
-0.12721497 -0.14165828 -0.7304095 141 111 112
-0.12752324 -0.14211828 -0.73043793 140 112 111
-0.12480527 -0.13873661 -0.73008138 164 132 122
-0.12591422 -0.14060651 -0.73009032 151 121 117
-0.12555251 -0.1399219 -0.73010695 155 124 118
-0.1252562 -0.14061043 -0.72979242 156 128 119
-0.12677379 -0.13967277 -0.73072332 146 111 113
-0.12349389 -0.13894743 -0.72943431 173 146 127
-0.12452306 -0.1416072 -0.72921628 152 123 124
-0.12559444 -0.14204004 -0.72957867 146 117 119
-0.12382445 -0.14163189 -0.72890282 153 124 128
-0.12345891 -0.14210789 -0.72862238 150 120 131
-0.12350783 -0.13932493 -0.72934353 171 144 128
-0.12389049 -0.13989411 -0.72936875 166 139 126
-0.11936671 -0.14070432 -0.72714174 173 157 127
-0.12197886 -0.14157045 -0.72812778 154 126 129
-0.12078214 -0.14149126 -0.72757339 164 142 130
-0.11978652 -0.14020111 -0.72750366 170 150 124
-0.12198306 -0.14155322 -0.72813535 154 126 129
-0.12140304 -0.14047319 -0.72816825 162 135 126
-0.12249871 -0.14163254 -0.72833258 154 125 131
-0.12097017 -0.13925374 -0.72829479 170 146 123
-0.12281068 -0.1416259 -0.72846401 155 125 132
-0.12227788 -0.14063925 -0.72849047 161 134 129
-0.12135715 -0.14084584 -0.72805548 159 132 126
-0.11913531 -0.14021009 -0.72718865 174 157 124
-0.11864763 -0.13899119 -0.72736686 170 147 116
-0.12503657 -0.14331234 -0.72902644 139 109 117
-0.12500264 -0.14337228 -0.72899747 139 108 117
-0.12240777 -0.14266334 -0.72799385 152 125 134
-0.1219724 -0.14383498 -0.7275151 148 120 125
-0.1211456 -0.14397655 -0.72708225 154 130 125
-0.12123398 -0.14303073 -0.72734123 159 137 132
-0.12099975 -0.1441433 -0.72697347 154 131 124
-0.12765482 -0.11119211 -0.73171031 171 179 204
-0.12765794 -0.11053141 -0.73089981 191 201 221
-0.12406683 -0.11118741 -0.73153698 130 113 174
-0.12449197 -0.11068428 -0.7308659 150 142 195
-0.12559617 -0.11063424 -0.73086554 166 166 204
-0.12995774 -0.11273387 -0.73403281 161 159 186
-0.13077258 -0.11280134 -0.73422861 161 161 189
-0.1296017 -0.11202857 -0.7329734 177 177 203
-0.12970448 -0.11221711 -0.73325753 173 172 199
-0.12905538 -0.11255767 -0.7336697 164 160 184
-0.12858884 -0.11200204 -0.73286408 168 169 194
-0.1279857 -0.11271792 -0.73378915 156 149 171
-0.12732109 -0.11219434 -0.73303276 155 154 176
-0.12865634 -0.11144264 -0.73211205 175 181 207
-0.1275619 -0.11237005 -0.73328793 155 152 175
-0.12378592 -0.11373082 -0.73469454 133 109 125
-0.12681545 -0.11322362 -0.73438185 141 129 148
-0.12471412 -0.11340107 -0.73436284 138 119 136
-0.12362279 -0.1134987 -0.73436034 136 114 130
-0.12583381 -0.11336572 -0.73445308 139 123 141
-0.12307385 -0.11343494 -0.7342627 129 102 126
-0.12524951 -0.11196402 -0.73255008 145 137 168
-0.12319492 -0.11220572 -0.73277724 122 95 147
-0.12306714 -0.11138337 -0.73177677 115 86 159
-0.12389023 -0.11204784 -0.7326082 129 109 155
-0.12340891 -0.11132856 -0.73172122 119 93 163
-0.12018005 -0.11416715 -0.73441982 127 102 110
-0.12241434 -0.1129967 -0.73356998 124 97 132
-0.12031089 -0.11426396 -0.73457038 128 103 109
-0.12043082 -0.11383528 -0.73408151 126 100 116
-0.12269647 -0.11197905 -0.7324087 118 90 149
-0.1228034 -0.11248327 -0.73304683 122 94 141
-0.12106649 -0.11292259 -0.73317093 120 94 130
-0.11959089 -0.11351904 -0.73374081 117 96 109
-0.1210768 -0.11217988 -0.73251873 111 88 132
-0.1197853 -0.11261619 -0.73294234 108 89 114
-0.12063814 -0.11178856 -0.73218912 103 85 127
-0.12057818 -0.1129051 -0.73317093 117 93 123
-0.11906477 -0.11380853 -0.73399484 118 97 102
-0.1190162 -0.11331452 -0.73355222 112 93 104
-0.11868145 -0.11215114 -0.73246872 98 84 106
-0.11828787 -0.1127775 -0.73294497 105 87 104
-0.11846317 -0.11202721 -0.73232114 96 82 105
-0.11644972 -0.11594391 -0.73468417 140 105 95
-0.11620309 -0.11609934 -0.73462427 141 105 94
-0.11682476 -0.11723662 -0.73458922 147 113 99
-0.11798841 -0.11863971 -0.73463571 155 123 105
-0.115462 -0.11619963 -0.73440933 141 105 93
-0.11748001 -0.11876196 -0.73446333 156 123 104
-0.11637268 -0.11836746 -0.7342245 153 119 100
-0.11479828 -0.11905868 -0.73360032 154 118 97
-0.11387116 -0.11757154 -0.73365247 145 109 92
-0.11479398 -0.11544523 -0.73436785 135 99 89
-0.11379816 -0.11607926 -0.73393923 136 101 88
-0.11486354 -0.11673262 -0.73412246 143 107 92
-0.12013442 -0.12082322 -0.73455578 158 128 110
-0.12120184 -0.12192751 -0.73450506 156 127 109
-0.11950372 -0.12195524 -0.7338838 159 128 115
-0.1194087 -0.12142977 -0.73405635 159 128 114
-0.11995356 -0.12116453 -0.73435652 158 128 111
-0.12038179 -0.12131109 -0.73445278 157 127 110
-0.11877834 -0.11918355 -0.73474294 158 128 108
-0.1184423 -0.12221516 -0.73344994 160 126 115
-0.11781784 -0.12132267 -0.73362112 159 126 111
-0.11886599 -0.12174625 -0.73375642 160 127 115
-0.11631933 -0.11963098 -0.73385489 158 123 103
-0.11847822 -0.12031999 -0.73420578 159 127 110
-0.1189414 -0.12111203 -0.73402762 159 128 113
-0.11657529 -0.12272411 -0.7325176 165 131 115
-0.11762121 -0.12296709 -0.73279285 163 130 117
-0.11683317 -0.12300315 -0.73248023 165 131 117
-0.11665767 -0.12191079 -0.73293889 162 128 112
-0.11659035 -0.12109505 -0.73330522 160 126 109
-0.1158268 -0.1227081 -0.73224479 166 132 115
-0.11177807 -0.12219911 -0.73102814 158 122 94
-0.11284348 -0.12223825 -0.73138756 159 123 99
-0.11347881 -0.12144072 -0.73199964 153 116 98
-0.11380009 -0.12183751 -0.73192471 157 120 102
-0.11258867 -0.12222645 -0.73130149 159 123 97
-0.11297888 -0.1212147 -0.73192817 151 113 94
-0.11440255 -0.12066338 -0.73270518 156 120 101
-0.11306318 -0.12049341 -0.73230499 147 108 92
-0.11336596 -0.12042137 -0.7324484 149 110 93
-0.11509606 -0.11966576 -0.73343349 158 122 101
-0.11449961 -0.12122325 -0.73247129 158 122 104
-0.12452362 -0.12586297 -0.73431808 152 120 103
-0.1239612 -0.12546393 -0.73423588 152 121 104
-0.1230651 -0.12445066 -0.73423797 152 123 104
-0.12306035 -0.12356406 -0.73454893 153 124 105
-0.12402835 -0.12547421 -0.73425889 152 121 104
-0.11993512 -0.12610647 -0.73236096 157 120 108
-0.11956117 -0.12407427 -0.73306715 159 125 115
-0.12186959 -0.12661731 -0.73298115 153 119 105
-0.12074637 -0.1258242 -0.73283315 156 121 108
-0.1192074 -0.12578115 -0.73218453 159 121 109
-0.12023903 -0.12431724 -0.73325717 158 124 113
-0.12152136 -0.12459899 -0.7336309 155 123 109
-0.12267862 -0.12329879 -0.73450494 154 125 107
-0.12195921 -0.123264 -0.73425901 155 126 109
-0.11969996 -0.12359383 -0.73333174 159 126 116
-0.12149401 -0.12444951 -0.73367381 155 123 110
-0.12151837 -0.1252367 -0.73340482 155 122 109
-0.11526979 -0.12447521 -0.73123521 175 142 125
-0.11541733 -0.12386069 -0.73157042 171 137 119
-0.11749467 -0.12633508 -0.73129261 167 130 117
-0.11714253 -0.12656315 -0.73105776 170 134 121
-0.11631767 -0.12426878 -0.73174274 166 131 114
-0.11871479 -0.12327121 -0.73306847 161 128 117
-0.11863242 -0.12535782 -0.73214608 160 123 110
-0.11609689 -0.12370758 -0.73190105 166 131 114
-0.11783625 -0.1253701 -0.7318424 162 124 110
-0.11885175 -0.12420852 -0.7327193 160 125 114
-0.11757156 -0.12519559 -0.73181778 163 125 110
-0.11508373 -0.12440857 -0.73119634 174 142 124
-0.1289822 -0.13080497 -0.73444664 157 126 106
-0.12848924 -0.13028961 -0.73440528 157 125 105
-0.12823901 -0.13038297 -0.7342571 158 126 105
-0.12738068 -0.13060045 -0.73378575 160 128 104
-0.12658891 -0.12726812 -0.73463923 152 118 102
-0.12625054 -0.12953861 -0.73369163 158 125 103
-0.1266955 -0.12890781 -0.73409402 156 123 102
-0.12646012 -0.13008711 -0.73357821 159 127 103
-0.12646773 -0.1297497 -0.73370206 159 126 103
-0.12564503 -0.12838423 -0.7338652 155 122 103
-0.12427009 -0.13039142 -0.73255074 152 120 106
-0.1233407 -0.12753274 -0.73325026 151 118 103
-0.1234791 -0.13040318 -0.73221469 149 117 106
-0.12332011 -0.12993078 -0.73232806 149 116 106
-0.12458565 -0.12887065 -0.7332623 155 122 103
-0.12517941 -0.13056347 -0.73286629 155 123 105
-0.1195738 -0.12808715 -0.73141205 155 118 107
-0.11987051 -0.1277605 -0.7316637 156 118 106
-0.12062562 -0.12894347 -0.73154098 153 117 107
-0.12103534 -0.12897265 -0.73170692 153 116 107
-0.12117641 -0.12981714 -0.7314474 150 116 108
-0.1209082 -0.12709904 -0.73236537 155 118 104
-0.12189008 -0.12882493 -0.73213339 151 116 106
-0.12137858 -0.1279795 -0.73223382 153 117 105
-0.12177525 -0.12695554 -0.73279577 153 118 103
-0.12237515 -0.12801076 -0.7326538 151 117 104
-0.12004437 -0.12724987 -0.73193341 156 118 105
-0.11826199 -0.12816961 -0.73086303 161 124 114
-0.1188845 -0.12771311 -0.73127258 158 119 108
-0.13146342 -0.13469572 -0.73440123 146 114 98
-0.12852538 -0.13143583 -0.73403895 157 125 104
-0.1293149 -0.13128899 -0.73444647 155 124 105
-0.13073814 -0.13447116 -0.73411733 146 114 99
-0.12960245 -0.13259135 -0.73417598 152 121 102
-0.13018946 -0.13227019 -0.73454314 152 120 103
-0.12911446 -0.13352175 -0.73365515 150 119 101
-0.12727369 -0.13206491 -0.73325235 156 125 104
-0.12777157 -0.13322429 -0.73310816 151 120 104
-0.12730566 -0.13464813 -0.73241341 144 115 106
-0.12818162 -0.13259007 -0.73351496 154 123 102
-0.12770052 -0.13202171 -0.73347175 157 125 103
-0.12308556 -0.13124272 -0.73174179 148 114 107
-0.12391169 -0.13474144 -0.73087758 151 114 102
-0.12386195 -0.13231185 -0.73170823 148 115 106
-0.12476976 -0.13281451 -0.73193061 146 115 107
-0.12362541 -0.13298914 -0.73136669 149 115 104
-0.12402812 -0.13475513 -0.73092395 151 115 102
-0.12605597 -0.13178982 -0.73281324 154 122 105
-0.12644096 -0.1314135 -0.73309904 157 125 104
-0.126463 -0.13140537 -0.73311096 157 126 104
-0.12651572 -0.13091037 -0.73329675 160 128 104
-0.12461787 -0.13165021 -0.73225671 149 117 106
-0.12445033 -0.13176969 -0.73214692 148 116 107
-0.12184542 -0.1321881 -0.73087144 149 115 107
-0.12275474 -0.13274883 -0.73106605 150 114 105
-0.1225733 -0.13279063 -0.73097289 150 114 105
-0.13173644 -0.13508624 -0.73442447 145 114 99
-0.1313003 -0.13483486 -0.73428005 145 114 98
-0.13155472 -0.13740152 -0.73366785 144 115 102
-0.13239476 -0.13652052 -0.73434627 145 116 102
-0.130886 -0.1368959 -0.73347777 144 115 101
-0.13131785 -0.13575363 -0.73402655 145 114 100
-0.13256747 -0.13666785 -0.7343905 145 116 102
-0.12837806 -0.13758588 -0.73207074 144 113 108
-0.12754044 -0.13694842 -0.73185307 145 113 109
-0.12891391 -0.13688272 -0.73253316 143 115 105
-0.12783438 -0.13855854 -0.73152626 146 112 111
-0.12997209 -0.13803409 -0.73270762 143 115 105
-0.12991716 -0.1381747 -0.73264033 143 115 105
-0.12925924 -0.13506028 -0.73322785 144 114 102
-0.12771492 -0.13487183 -0.73254043 144 114 105
-0.12814921 -0.13541795 -0.73259073 144 115 105
-0.13015278 -0.13700853 -0.73309213 143 115 103
-0.12992491 -0.13554765 -0.73340642 144 114 101
-0.13024634 -0.13736999 -0.73303229 143 115 103
-0.1262949 -0.13577203 -0.73162144 147 114 108
-0.12473912 -0.13543053 -0.73103797 150 114 105
-0.12503234 -0.1350349 -0.73128253 149 115 104
-0.12416439 -0.13503526 -0.73090118 151 114 103
-0.12570654 -0.13489068 -0.73162091 147 115 105
-0.13415469 -0.13879785 -0.73457873 144 117 106
-0.13228717 -0.13985844 -0.73339152 135 108 100
-0.13336878 -0.14013781 -0.73387069 134 106 99
-0.13319474 -0.1396056 -0.73390692 138 110 101
-0.13283594 -0.13976564 -0.73368925 136 109 100
-0.13178582 -0.13949181 -0.73322457 138 110 101
-0.13251241 -0.14243053 -0.73285455 132 108 100
-0.13126595 -0.13914809 -0.73304129 140 113 102
-0.13093634 -0.13931289 -0.73282498 142 116 104
-0.13181949 -0.14097393 -0.73286366 136 111 101
-0.13121352 -0.14062685 -0.73263317 140 116 104
-0.12807652 -0.14149302 -0.73087025 142 114 111
-0.12929194 -0.14222212 -0.73127151 141 117 109
-0.12976262 -0.14165734 -0.73165178 143 118 108
-0.12823877 -0.14113191 -0.73104542 143 114 111
-0.12752749 -0.1395511 -0.73111689 145 112 112
-0.13050218 -0.1414542 -0.73206145 142 119 107
-0.12857953 -0.14023352 -0.73145014 144 115 111
-0.12867101 -0.13955638 -0.73166835 145 114 110
-0.12914795 -0.14068109 -0.73160851 144 116 109
-0.12925212 -0.13887547 -0.73212326 144 114 108
-0.12986085 -0.13890685 -0.73240817 143 115 106
-0.13122231 -0.14377494 -0.7318731 132 109 96
-0.13082877 -0.14330766 -0.7317645 136 114 100
-0.13045177 -0.14422491 -0.73137265 129 103 93
-0.13040239 -0.14299539 -0.73162627 138 116 104
-0.13033928 -0.14403795 -0.73135984 130 105 94
0 0 0 1 0 0 0 1 0 0 0 1 0 0 0 0 0 657 1 0 0
