ply
format ascii 1.0
comment PCL generated
element vertex 995
property float x
property float y
property float z
property uchar red
property uchar green
property uchar blue
element camera 0
property float view_px
property float view_py
property float view_pz
property float x_axisx
property float x_axisy
property float x_axisz
property float y_axisx
property float y_axisy
property float y_axisz
property float z_axisx
property float z_axisy
property float z_axisz
property float focal
property float scalex
property float scaley
property float centerx
property float centery
property int viewportx
property int viewporty
property float k1
property float k2
end_header
-0.12260814 -0.42424056 -0.69742393 110 76 85
-0.12024105 -0.42408758 -0.69610697 119 67 115
-0.12110256 -0.42434379 -0.69657677 118 74 105
-0.12543029 -0.42876828 -0.69937295 158 131 125
-0.12454985 -0.42851341 -0.69875324 155 125 119
-0.12550022 -0.43042025 -0.69936705 186 162 163
-0.12558003 -0.42862198 -0.69948477 156 128 121
-0.12337524 -0.4280687 -0.69792998 149 116 110
-0.12390415 -0.43058494 -0.69816661 194 169 175
-0.12436036 -0.42960811 -0.69857854 174 146 145
-0.12483386 -0.43053484 -0.69887596 190 165 167
-0.12436997 -0.42957538 -0.69858801 173 145 144
-0.12260784 -0.43128967 -0.69719136 211 190 201
-0.12303398 -0.43051395 -0.69751233 195 171 179
-0.1222528 -0.43052676 -0.69701844 197 175 180
-0.12282781 -0.42867988 -0.69750524 162 131 129
-0.12278135 -0.4305751 -0.69734877 197 173 181
-0.12059055 -0.43051243 -0.69597453 202 184 186
-0.12214094 -0.42897007 -0.69705254 169 141 138
-0.1224364 -0.42792153 -0.69731313 150 117 112
-0.12066428 -0.42982322 -0.69607085 190 169 170
-0.12124922 -0.42926729 -0.69647568 178 153 153
-0.12063966 -0.42848179 -0.69615364 167 141 140
-0.1253597 -0.43328276 -0.69889146 218 202 214
-0.12545525 -0.43273175 -0.69906789 214 197 207
-0.12531579 -0.43230739 -0.69904202 212 194 203
-0.1258247 -0.43302783 -0.6992926 215 198 208
-0.12486684 -0.43188325 -0.69878113 212 191 200
-0.12342804 -0.43236414 -0.69762444 219 201 214
-0.12494661 -0.43386674 -0.69849014 223 209 223
-0.1249752 -0.43550405 -0.698331 232 225 234
-0.12396501 -0.43408513 -0.69780082 228 215 225
-0.12422926 -0.43442586 -0.69794279 229 218 228
-0.12524863 -0.43489859 -0.69858241 228 218 230
-0.12349652 -0.43432811 -0.69745666 231 220 228
-0.12172251 -0.43513998 -0.69629556 234 225 228
-0.12173553 -0.43450505 -0.69637239 230 219 224
-0.1229267 -0.43509066 -0.69699901 237 229 233
-0.12277088 -0.43500251 -0.69691831 236 227 232
-0.12092851 -0.43467361 -0.69586778 231 221 224
-0.12157091 -0.43326584 -0.69638473 225 211 218
-0.12242274 -0.43198103 -0.69702405 219 200 212
-0.12220626 -0.43249464 -0.69684678 221 204 214
-0.12736823 -0.43774822 -0.69960481 205 188 211
-0.1252397 -0.43575004 -0.69847178 229 222 232
-0.12321571 -0.43560058 -0.69712412 238 232 236
-0.12653305 -0.43873245 -0.69882959 200 178 204
-0.12671413 -0.43731859 -0.69919896 211 195 216
-0.12622994 -0.43642548 -0.69902611 220 209 225
-0.12325244 -0.43746817 -0.69688714 219 204 220
-0.12451195 -0.43793949 -0.69763052 212 195 214
-0.12495541 -0.43810609 -0.69789219 210 191 212
-0.12423571 -0.43696782 -0.69758666 223 210 223
-0.12354292 -0.43797767 -0.6970036 213 196 215
-0.124777 -0.43829635 -0.69775164 208 189 211
-0.12271681 -0.43810618 -0.69648296 212 197 216
-0.12287057 -0.43875879 -0.6964795 205 187 210
-0.12266789 -0.43669266 -0.69664949 228 218 228
-0.1210011 -0.43559584 -0.69582659 235 227 228
-0.12155414 -0.43682203 -0.69598758 224 214 223
-0.12187691 -0.43693638 -0.69615984 224 213 224
-0.12845111 -0.44138187 -0.69944924 185 166 188
-0.12798876 -0.44265842 -0.69880152 187 172 184
-0.12734737 -0.44016433 -0.69904965 190 167 194
-0.12714471 -0.44166967 -0.69853324 191 172 188
-0.12703662 -0.44044039 -0.69878489 192 169 193
-0.12461353 -0.4432227 -0.69669312 190 169 187
-0.12406212 -0.44317728 -0.69639313 189 167 188
-0.12350013 -0.44061199 -0.69653171 195 173 198
-0.1241526 -0.44075006 -0.69687182 196 176 197
-0.1233039 -0.44010043 -0.69651234 196 174 201
-0.12388208 -0.44261247 -0.69639218 190 168 190
-0.12522373 -0.44156992 -0.69733053 195 177 191
-0.12668462 -0.44219404 -0.69810593 193 176 187
-0.12567168 -0.44017079 -0.69798076 194 172 197
-0.12507977 -0.44127572 -0.69731444 195 176 193
-0.12685207 -0.44221801 -0.69820714 193 175 186
-0.12610787 -0.44117087 -0.69800121 194 174 192
-0.1227731 -0.44236699 -0.69582921 190 166 193
-0.12270188 -0.44042176 -0.69612342 195 174 201
-0.13094145 -0.44724509 -0.69891262 167 149 174
-0.12925899 -0.44418752 -0.69908655 179 166 179
-0.1292583 -0.44429064 -0.6990459 179 166 179
-0.12893552 -0.44372633 -0.69906521 181 169 180
-0.12941533 -0.44532773 -0.69872022 177 162 177
-0.13008268 -0.44630846 -0.69873506 172 155 175
-0.12991811 -0.44593635 -0.69878584 173 157 176
-0.12927172 -0.44619611 -0.69829375 175 159 177
-0.12702587 -0.44637027 -0.69692171 183 169 182
-0.12804148 -0.44710159 -0.69724715 177 162 180
-0.12936059 -0.44602835 -0.6984067 176 159 177
-0.12835589 -0.44488263 -0.69823849 183 167 179
-0.12736052 -0.44641215 -0.69710141 182 167 181
-0.1274036 -0.44671869 -0.69701487 181 166 181
-0.12308906 -0.44364235 -0.6957525 187 163 190
-0.12540707 -0.44666561 -0.69604564 184 168 188
-0.1237492 -0.44474223 -0.69578147 187 166 190
-0.12390522 -0.4447993 -0.69583338 186 165 190
-0.12497653 -0.44507432 -0.6962471 185 165 186
-0.12477472 -0.44462293 -0.69629884 186 166 186
-0.12377606 -0.44407931 -0.69593889 186 163 188
-0.12590398 -0.44511634 -0.69674993 186 169 184
-0.12550068 -0.44386917 -0.69697887 189 171 185
-0.12560248 -0.44563448 -0.69639277 184 166 185
-0.13286513 -0.44912434 -0.69955415 180 167 184
-0.13143252 -0.44782311 -0.6990211 170 154 177
-0.13142903 -0.45033142 -0.69786412 182 165 185
-0.13150585 -0.44915813 -0.69845539 177 160 181
-0.13249184 -0.45102158 -0.69834995 187 172 189
-0.13323916 -0.45071599 -0.6990512 187 173 190
-0.13278571 -0.45009136 -0.69899404 183 168 187
-0.13153675 -0.4481326 -0.69894487 172 155 178
-0.12726687 -0.44992328 -0.69573623 183 156 184
-0.1281869 -0.45064139 -0.69594139 185 160 186
-0.12986402 -0.45107263 -0.69660383 185 164 186
-0.12769592 -0.44936174 -0.69616199 183 162 185
-0.12878865 -0.44999543 -0.69646674 184 164 185
-0.13058974 -0.45070243 -0.69710964 184 166 186
-0.13053797 -0.44768828 -0.69844997 170 152 176
-0.13045529 -0.45074427 -0.69701225 185 167 186
-0.12850104 -0.44866821 -0.69681746 182 166 184
-0.12932563 -0.44777733 -0.69770306 174 158 179
-0.12796599 -0.44756833 -0.69700581 178 163 181
-0.12617853 -0.44839823 -0.6958155 183 163 186
-0.13225889 -0.45200607 -0.69805008 182 163 184
-0.13252753 -0.45199096 -0.69825321 183 164 185
-0.13373922 -0.45297754 -0.69909841 178 158 181
-0.13294801 -0.45323086 -0.69848603 175 153 178
-0.13290395 -0.45169246 -0.6985566 185 169 187
-0.1329212 -0.45179239 -0.6985628 184 168 187
-0.13357779 -0.45495293 -0.69880384 173 151 178
-0.13145313 -0.45491278 -0.69711626 188 174 195
-0.13088341 -0.45189747 -0.69699293 187 170 189
-0.13180546 -0.453417 -0.69756073 183 165 187
-0.13129175 -0.45345885 -0.69714707 186 171 191
-0.13199647 -0.45338467 -0.69771636 181 163 185
-0.1307338 -0.45316112 -0.69677478 189 175 194
-0.13048443 -0.4527832 -0.69669622 189 174 192
-0.12994201 -0.45244658 -0.69647032 188 172 191
-0.12866385 -0.45189992 -0.69590563 187 164 189
-0.12913264 -0.45295608 -0.69602156 189 172 193
-0.13009001 -0.4525255 -0.69653404 188 173 191
-0.13266291 -0.45535621 -0.69816196 180 161 185
-0.1339529 -0.45616338 -0.69948053 170 147 174
-0.13243796 -0.45671192 -0.69847208 181 164 186
-0.13238874 -0.45603848 -0.69818985 182 165 187
-0.13140874 -0.45608118 -0.69742483 189 176 195
-0.13284418 -0.45695212 -0.69888222 178 160 183
-0.13275079 -0.45839205 -0.69932753 179 161 183
-0.13183849 -0.45789447 -0.69842809 183 166 188
-0.13188766 -0.45844749 -0.69867027 181 163 185
-0.13116473 -0.45762646 -0.69780278 185 167 190
-0.13072979 -0.45611015 -0.69692606 190 176 197
-0.12841552 -0.45876765 -0.69648665 191 179 202
-0.12958597 -0.45700458 -0.69655448 192 180 201
-0.13015352 -0.45686328 -0.6968503 190 177 198
-0.12959228 -0.45870841 -0.69718605 187 170 194
-0.12892875 -0.45807967 -0.69654775 191 179 201
-0.12883915 -0.45676944 -0.69605649 194 186 204
-0.12807937 -0.45716545 -0.69578534 194 187 205
-0.12771155 -0.45787778 -0.69577825 195 188 207
-0.13203928 -0.45992243 -0.69943315 181 162 184
-0.13111761 -0.45927751 -0.69840586 182 160 185
-0.1315399 -0.46005759 -0.69910723 182 162 185
-0.12752944 -0.46081689 -0.69674623 183 160 192
-0.12861972 -0.45943391 -0.69686759 187 170 196
-0.1274956 -0.45970154 -0.69628352 190 176 201
-0.12989104 -0.45971125 -0.6977579 181 156 186
-0.12916774 -0.45998749 -0.69742334 182 158 188
-0.12724161 -0.46224946 -0.69713706 175 143 183
-0.13071075 -0.46081829 -0.69883448 184 162 187
-0.129513 -0.46120176 -0.69818598 180 153 184
-0.12782149 -0.46221051 -0.69749266 175 142 181
-0.13035819 -0.46204832 -0.69917548 185 163 187
-0.12845375 -0.46261472 -0.69812369 178 148 183
-0.12925154 -0.46266332 -0.69870812 182 155 185
-0.12683804 -0.46047691 -0.69619679 187 170 199
-0.12689646 -0.45979229 -0.69595647 191 179 204
-0.12649943 -0.45990726 -0.69579172 190 180 204
-0.12587905 -0.46104121 -0.69591242 183 169 197
-0.12806985 -0.46572834 -0.69937259 166 138 164
-0.12856902 -0.46454307 -0.69914871 172 145 173
-0.12911037 -0.46361315 -0.6990782 178 152 180
-0.12925597 -0.46290636 -0.69883794 182 155 185
-0.12899843 -0.46436739 -0.69936502 175 149 175
-0.12759377 -0.46521395 -0.69878918 166 135 166
-0.12703252 -0.46498433 -0.69825917 164 131 165
-0.12606871 -0.46321097 -0.69687098 168 137 177
-0.12621179 -0.46295151 -0.69684517 171 141 180
-0.12652843 -0.46454796 -0.69774038 161 129 165
-0.12662904 -0.46463817 -0.6978423 162 130 165
-0.12562793 -0.46438634 -0.6971308 154 124 163
-0.12639394 -0.46456343 -0.6976679 160 128 165
-0.13872752 -0.42294806 -0.71089858 167 150 133
-0.13859332 -0.423035 -0.71076512 167 150 134
-0.13892497 -0.42394069 -0.71100795 175 165 141
-0.13919395 -0.42646116 -0.71101689 165 134 142
-0.13882667 -0.42655426 -0.71065027 169 141 146
-0.13862722 -0.42636633 -0.71047765 171 146 146
-0.13855618 -0.42552447 -0.71049756 173 153 145
-0.13853252 -0.42688173 -0.71033776 170 141 146
-0.13845029 -0.42531312 -0.71042126 173 155 143
-0.13807423 -0.4270969 -0.70989257 168 140 142
-0.13949691 -0.42868367 -0.71106821 168 131 150
-0.13938969 -0.42871788 -0.71095985 169 133 152
-0.13910322 -0.43143848 -0.71038729 193 171 174
-0.13986284 -0.43096644 -0.71115065 185 157 170
-0.1375479 -0.43058887 -0.70907909 185 157 163
-0.13654618 -0.4307771 -0.70817232 183 152 159
-0.13851804 -0.43060693 -0.70993567 188 165 168
-0.13781296 -0.43111646 -0.70925707 190 166 168
-0.13828276 -0.43074945 -0.70971215 189 165 167
-0.13692214 -0.428469 -0.70870566 170 139 139
-0.13669068 -0.43003821 -0.70836824 178 147 153
-0.13649777 -0.42995295 -0.70819676 178 147 150
-0.13636109 -0.42999196 -0.70806742 178 147 149
-0.13646711 -0.43057156 -0.70811975 181 150 157
-0.13986821 -0.43307155 -0.710895 189 165 176
-0.13926187 -0.4319326 -0.71047604 193 172 175
-0.13971606 -0.43327677 -0.71072525 190 167 176
-0.14023632 -0.43505126 -0.71098202 185 160 177
-0.13883688 -0.4323287 -0.71002746 194 175 176
-0.1402449 -0.43550909 -0.71093255 184 157 178
-0.13896795 -0.4347263 -0.70984805 188 163 178
-0.13835865 -0.43278071 -0.70954555 193 172 176
-0.13825771 -0.43298432 -0.70943218 193 171 176
-0.13799417 -0.43334165 -0.70915818 192 168 176
-0.13781205 -0.43487382 -0.70880759 187 160 177
-0.13840239 -0.43411294 -0.70941645 190 166 178
-0.13653013 -0.43507352 -0.70766658 186 154 175
-0.13649406 -0.43363115 -0.7078023 187 157 171
-0.1360645 -0.43260786 -0.70754105 186 156 166
-0.13718326 -0.43363088 -0.70841223 189 162 174
-0.13618793 -0.4330883 -0.70759445 186 156 168
-0.14126267 -0.439199 -0.71121496 190 167 183
-0.13974623 -0.43678907 -0.71024299 187 162 181
-0.14009437 -0.43715715 -0.71049935 188 162 181
-0.13906504 -0.43751511 -0.70940912 189 164 184
-0.14027667 -0.43882701 -0.71031648 190 167 185
-0.13946237 -0.43738481 -0.70983613 189 164 183
-0.13915484 -0.43637294 -0.70976257 187 161 181
-0.1398029 -0.43743992 -0.71016353 189 164 182
-0.13847406 -0.43615595 -0.70915627 187 162 181
-0.13812418 -0.43767953 -0.70849669 189 167 185
-0.13788101 -0.43868965 -0.70804954 190 170 188
-0.13687195 -0.43681589 -0.70760828 187 159 180
-0.13685264 -0.43735796 -0.70746452 187 162 182
-0.13788804 -0.43669498 -0.70852029 187 162 182
-0.13683489 -0.43555984 -0.7078703 185 153 176
-0.1396032 -0.44158119 -0.70887095 190 168 188
-0.13983165 -0.44128716 -0.70918602 190 168 188
-0.14085998 -0.4398883 -0.71062613 190 168 185
-0.14086944 -0.43951204 -0.71074665 191 168 185
-0.14058666 -0.44042698 -0.71019411 190 168 186
-0.13952816 -0.43985081 -0.70930678 191 169 189
-0.14137779 -0.44059128 -0.71100765 191 170 184
-0.14068714 -0.44081181 -0.71020126 190 168 186
-0.1403154 -0.44334298 -0.70921868 191 173 188
-0.13944142 -0.44294417 -0.70835233 190 169 189
-0.13960658 -0.4424288 -0.70865035 190 168 188
-0.1420414 -0.44277483 -0.71123791 192 177 185
-0.14172831 -0.44298711 -0.71084678 192 176 186
-0.13817391 -0.44112232 -0.70763797 191 170 191
-0.13855012 -0.44272456 -0.70749563 191 168 191
-0.14328431 -0.44684437 -0.71087426 164 146 170
-0.14318001 -0.44707462 -0.71062344 162 145 169
-0.14096996 -0.44679484 -0.70833802 171 161 177
-0.14102982 -0.44717839 -0.70820546 168 157 175
-0.14222567 -0.44645452 -0.70979959 170 157 175
-0.14255448 -0.44615424 -0.71028918 172 158 176
-0.14207892 -0.4442091 -0.710756 188 175 184
-0.14062329 -0.44424003 -0.70914918 186 171 185
-0.13954438 -0.44409072 -0.70803607 186 168 187
-0.14114568 -0.44489345 -0.70942235 183 170 182
-0.14172935 -0.44429156 -0.7103368 187 174 183
-0.14078929 -0.44390926 -0.70948231 188 172 186
-0.1409073 -0.44575396 -0.70876771 178 167 180
-0.14113027 -0.44406611 -0.70978391 188 173 185
-0.14405745 -0.44858956 -0.71111798 149 126 157
-0.14406028 -0.44873613 -0.71106195 148 125 156
-0.14298743 -0.4504883 -0.70923853 136 108 138
-0.1443284 -0.4507778 -0.71065319 133 104 140
-0.14282762 -0.450434 -0.70907593 136 109 137
-0.14258711 -0.45055816 -0.70876914 136 108 135
-0.14458871 -0.45088553 -0.71091229 132 102 140
-0.14212711 -0.44896337 -0.70874488 151 128 154
-0.14241144 -0.44850716 -0.7091943 153 133 158
-0.14116716 -0.44854465 -0.70789278 157 139 161
-0.14147478 -0.44753242 -0.70853281 164 150 171
-0.14136189 -0.44868368 -0.70804822 155 136 159
-0.14241059 -0.44739145 -0.70953894 162 147 170
-0.14161444 -0.44817683 -0.70846987 158 141 164
-0.14334324 -0.45228463 -0.70950985 129 96 130
-0.14389782 -0.45234254 -0.7101351 129 96 132
-0.14387563 -0.45330068 -0.71017808 128 93 131
-0.14348301 -0.45265824 -0.70969284 129 95 130
-0.14380246 -0.45232937 -0.71002734 129 96 132
-0.14265034 -0.4546282 -0.70937645 141 120 152
-0.14300308 -0.45421106 -0.70959306 137 112 145
-0.14350289 -0.45378441 -0.70993513 132 101 137
-0.14280067 -0.45398882 -0.70936996 138 114 146
-0.14240719 -0.45294389 -0.70876342 137 112 141
-0.14226353 -0.45211971 -0.70842743 134 107 136
-0.1421897 -0.4528214 -0.7084955 137 111 141
-0.14200468 -0.45337328 -0.70840806 139 115 145
-0.14155149 -0.45314094 -0.70785648 139 114 145
-0.14084928 -0.4548035 -0.7074312 146 126 159
-0.14368913 -0.45613301 -0.71062052 136 109 145
-0.14390291 -0.45693573 -0.71099395 135 108 144
-0.14368045 -0.45548481 -0.71046126 135 107 144
-0.14290383 -0.45521501 -0.70972461 141 119 152
-0.14319988 -0.45820203 -0.71054637 140 120 151
-0.14340805 -0.4588691 -0.71088779 139 119 150
-0.14312321 -0.45803007 -0.71042824 140 121 151
-0.14129707 -0.45789516 -0.70809799 148 125 157
-0.1414672 -0.45870036 -0.70839357 147 124 155
-0.1422866 -0.45719332 -0.70926327 143 123 154
-0.14231965 -0.45802397 -0.7093901 143 123 153
-0.14249322 -0.45768982 -0.70957273 142 123 152
-0.14154717 -0.45598376 -0.70829594 146 126 158
-0.14118224 -0.45579287 -0.70788378 147 126 159
-0.1420482 -0.45579296 -0.70884609 145 125 156
-0.14071089 -0.45908993 -0.70752925 150 125 157
-0.14779992 -0.41567397 -0.72038585 140 118 104
-0.14926279 -0.41896498 -0.72201073 110 89 96
-0.14834094 -0.41905671 -0.72094738 111 92 99
-0.14760439 -0.41899952 -0.72009093 112 94 103
-0.14946945 -0.41848925 -0.72222537 110 90 96
-0.14880204 -0.41919607 -0.72148895 110 89 97
-0.14808385 -0.41945174 -0.7206701 111 91 99
-0.14923218 -0.41924673 -0.72198999 110 88 95
-0.1480407 -0.41607571 -0.72064149 137 115 102
-0.14748476 -0.4169046 -0.72002292 135 113 102
-0.14824408 -0.41779634 -0.72080797 117 99 102
-0.14884543 -0.41748607 -0.72145981 113 96 102
-0.14783333 -0.41726381 -0.72038478 127 107 102
-0.14775354 -0.41779464 -0.72028375 123 103 102
-0.14760494 -0.41605616 -0.72017634 142 119 102
-0.14918485 -0.42154059 -0.72185272 124 96 103
-0.14865315 -0.42175561 -0.72121674 126 102 107
-0.14928696 -0.42277464 -0.72188973 135 100 108
-0.14896867 -0.42139542 -0.72160965 123 98 104
-0.14927761 -0.42121443 -0.7219829 121 94 101
-0.14761956 -0.42267126 -0.71995032 136 112 117
-0.14720884 -0.42017519 -0.71966177 114 94 103
-0.14678967 -0.42054796 -0.7191481 118 98 107
-0.14739724 -0.42250952 -0.71970487 134 112 117
-0.14760214 -0.42020336 -0.72011536 114 93 102
-0.14732377 -0.42140228 -0.71970284 125 103 111
-0.14706533 -0.42060411 -0.71946329 118 98 107
-0.15054274 -0.42696503 -0.72288072 152 125 119
-0.15022482 -0.42734057 -0.72247517 153 127 121
-0.14821282 -0.42758152 -0.72015554 143 101 108
-0.14973836 -0.42666832 -0.72200578 148 114 114
-0.14959779 -0.42572159 -0.72196442 145 102 109
-0.14889181 -0.4273369 -0.72095877 146 108 111
-0.14872187 -0.42706272 -0.72079974 144 103 109
-0.14982282 -0.42476416 -0.72234172 144 97 107
-0.14971007 -0.4239634 -0.72230023 144 100 110
-0.14807034 -0.42410222 -0.72036892 145 112 119
-0.14711626 -0.42426223 -0.71923715 146 119 124
-0.14883144 -0.42384049 -0.72128552 145 108 116
-0.14778438 -0.42713752 -0.71972394 139 91 103
-0.14938448 -0.42409748 -0.72190583 144 101 111
-0.1494953 -0.4240146 -0.72204393 144 101 111
-0.15071838 -0.42788413 -0.72295034 153 132 122
-0.14963637 -0.42984402 -0.72114176 158 135 138
-0.14890529 -0.43131718 -0.71989286 160 135 149
-0.1496439 -0.42972282 -0.72118771 158 135 138
-0.14805529 -0.42931977 -0.71951199 149 112 125
-0.14931603 -0.42936382 -0.72093421 156 130 135
-0.14898923 -0.42780942 -0.72099876 147 114 115
-0.1495426 -0.42831114 -0.72148758 152 126 124
-0.14862615 -0.43092942 -0.71970963 158 131 148
-0.14821254 -0.42783469 -0.72010785 143 104 110
-0.14812231 -0.43082899 -0.71916455 155 123 143
-0.14953892 -0.43408772 -0.72001708 157 135 153
-0.14976506 -0.43504339 -0.72002953 152 134 153
-0.14981963 -0.43447068 -0.72020924 155 136 152
-0.14905754 -0.43262082 -0.71977377 159 135 153
-0.1489653 -0.43494117 -0.71924311 155 130 157
-0.1490896 -0.43201581 -0.71992075 161 136 151
-0.14937586 -0.43166995 -0.72029382 162 139 149
-0.15041345 -0.43805796 -0.72046578 154 142 154
-0.1507348 -0.43845075 -0.72088498 153 141 153
-0.1511053 -0.43899822 -0.72136462 153 140 152
-0.14994568 -0.43918279 -0.71992391 160 145 154
-0.14925431 -0.43859342 -0.71923631 161 143 154
-0.14969386 -0.43761972 -0.71972644 156 141 152
-0.15074705 -0.44156021 -0.72049671 151 132 145
-0.15115072 -0.44171453 -0.72099698 147 129 143
-0.15053061 -0.44305569 -0.71996874 150 127 139
-0.15107068 -0.44181511 -0.72087622 147 129 143
-0.15044336 -0.43983355 -0.72038555 157 143 154
-0.15176751 -0.44313052 -0.72156703 138 117 135
-0.15038256 -0.44074464 -0.72015858 156 139 150
-0.15014879 -0.44096392 -0.71987838 158 143 150
-0.14994462 -0.44053996 -0.71973389 159 144 151
-0.14947197 -0.4400773 -0.71931428 162 145 152
-0.15203768 -0.44427469 -0.72163433 129 108 130
-0.15174794 -0.4446156 -0.72116524 129 108 130
-0.15199856 -0.44424587 -0.72159117 129 108 131
-0.15105829 -0.44339111 -0.72059721 144 121 136
-0.15083557 -0.44369751 -0.72022468 144 121 135
-0.15148631 -0.44341454 -0.72114825 140 118 134
-0.15188681 -0.44699278 -0.72112113 114 91 121
-0.15275855 -0.44538531 -0.72267705 117 95 124
-0.15223576 -0.44494647 -0.72179222 123 102 128
-0.15291815 -0.44572717 -0.72294009 114 91 122
-0.15234278 -0.44568467 -0.72195107 118 96 124
-0.15174435 -0.44622737 -0.7209022 119 97 125
-0.14997888 -0.44343975 -0.7192781 154 135 139
-0.15238762 -0.4508259 -0.72176194 116 87 119
-0.15312243 -0.44889218 -0.72298408 110 86 117
-0.15278579 -0.44966182 -0.72243923 113 86 117
-0.15089214 -0.45107874 -0.71975112 116 77 119
-0.15195136 -0.45023137 -0.7212618 114 82 118
-0.15303844 -0.44899526 -0.72285962 111 86 117
-0.15098341 -0.45060807 -0.71993273 115 76 119
-0.15109669 -0.44786224 -0.71983099 117 92 123
-0.15079738 -0.44830465 -0.71937466 119 91 123
-0.15143205 -0.44807291 -0.72043628 115 87 121
-0.15101321 -0.44758096 -0.71964985 118 94 124
-0.15100051 -0.4495666 -0.7198922 115 80 120
-0.15096213 -0.45018777 -0.71990883 115 76 119
-0.15183613 -0.45398051 -0.72034168 119 95 116
-0.1533539 -0.45143831 -0.72295147 117 95 118
-0.15276201 -0.45494026 -0.72157997 112 88 113
-0.15221849 -0.45423353 -0.7208733 116 93 115
-0.1520157 -0.45473242 -0.72050214 116 92 114
-0.15323405 -0.45157909 -0.72275388 117 95 118
-0.15240251 -0.45156294 -0.72164536 117 90 118
-0.15196744 -0.45259219 -0.72082907 118 91 117
-0.15200622 -0.45165244 -0.72110021 117 87 118
-0.15163907 -0.45405656 -0.72005206 119 95 116
-0.15234762 -0.45221108 -0.72142112 118 92 118
-0.1521536 -0.45314324 -0.72094637 118 95 117
-0.15295616 -0.45153576 -0.7223841 118 94 118
-0.1527759 -0.45738703 -0.72147083 138 110 136
-0.15346266 -0.45808998 -0.72247404 142 111 143
-0.15381141 -0.45768422 -0.723014 136 105 138
-0.15362677 -0.45727655 -0.72275305 132 103 134
-0.1530768 -0.45722738 -0.72192907 135 106 134
-0.15356135 -0.4572852 -0.72265446 133 103 134
-0.15319858 -0.45614997 -0.72215503 122 96 123
-0.15167859 -0.45545325 -0.71993393 121 97 118
-0.15269355 -0.45586997 -0.72141814 121 96 121
-0.15191646 -0.45654342 -0.72023052 133 107 129
-0.15145701 -0.45529816 -0.71961325 120 96 116
-0.11912427 -0.42754948 -0.69522971 162 132 134
-0.11982948 -0.42816111 -0.69566935 166 139 140
-0.11943471 -0.42983362 -0.69527328 196 177 179
-0.11984415 -0.43082246 -0.69547135 211 195 198
-0.11640114 -0.42898259 -0.69357109 193 169 184
-0.11615481 -0.43076301 -0.69330961 199 181 193
-0.11586224 -0.42878285 -0.6932767 188 162 179
-0.11658002 -0.43111092 -0.69352889 204 188 198
-0.11548467 -0.42813262 -0.69310516 182 153 173
-0.11559506 -0.42989615 -0.69304866 191 169 184
-0.11835311 -0.42946297 -0.69465613 194 174 179
-0.11909081 -0.4307723 -0.69498771 213 199 200
-0.11879795 -0.42894307 -0.69494718 184 162 163
-0.11869898 -0.43116984 -0.69473547 221 208 212
-0.1188339 -0.42938706 -0.69493693 191 171 173
-0.11449119 -0.42967257 -0.69245005 193 164 187
-0.11521611 -0.43076059 -0.69277388 192 172 186
-0.12027386 -0.43370584 -0.69552559 230 220 222
-0.12005515 -0.43250647 -0.69548112 226 215 219
-0.11930226 -0.43447047 -0.69488633 231 222 222
-0.11921061 -0.43398702 -0.69485998 230 221 221
-0.11949319 -0.43538359 -0.69494671 233 224 223
-0.11710401 -0.43513653 -0.69354111 226 220 221
-0.11834604 -0.43521562 -0.69427913 229 220 220
-0.11627021 -0.43463832 -0.69308448 220 215 218
-0.11555668 -0.43260211 -0.6928339 203 191 200
-0.11589474 -0.43346384 -0.69296157 211 201 207
-0.11690227 -0.43552727 -0.6933862 228 225 225
-0.11647967 -0.43219891 -0.69340289 206 192 201
-0.11845784 -0.43359536 -0.69445115 224 214 216
-0.11805386 -0.4332743 -0.69423914 220 209 213
-0.11614858 -0.43254483 -0.69319344 204 190 199
-0.11640411 -0.43170869 -0.69338846 205 191 200
-0.11704433 -0.43316808 -0.69366866 212 199 206
-0.11516611 -0.43313658 -0.69255841 207 198 206
-0.11489115 -0.43433404 -0.69231087 218 213 218
-0.11425938 -0.43253553 -0.69211859 209 192 208
-0.11499281 -0.43233517 -0.69253671 202 189 199
-0.12061052 -0.43655452 -0.69546878 225 214 221
-0.12040862 -0.43587083 -0.69543988 231 222 224
-0.12089718 -0.43805072 -0.69543934 212 197 213
-0.12076022 -0.43856841 -0.69529337 208 194 212
-0.12013239 -0.43818626 -0.69497591 213 201 215
-0.12006209 -0.43859816 -0.69488406 210 199 214
-0.11968167 -0.43639398 -0.69493616 225 215 219
-0.11676612 -0.43870741 -0.69295204 223 217 229
-0.11642029 -0.43897739 -0.69272667 226 219 232
-0.11720265 -0.43932655 -0.69314176 221 214 228
-0.117742 -0.43923646 -0.69346052 217 210 224
-0.11816991 -0.43888697 -0.6937409 214 207 220
-0.11654002 -0.43793568 -0.69289845 222 218 228
-0.11765884 -0.4377183 -0.69356912 217 212 221
-0.11681928 -0.43585622 -0.69329637 226 223 225
-0.11805198 -0.43768832 -0.69380856 217 212 220
-0.11901587 -0.43863034 -0.6942699 213 205 217
-0.11679352 -0.43579322 -0.69328868 227 224 225
-0.11786434 -0.43763211 -0.69370306 217 212 220
-0.12009543 -0.43995476 -0.69470811 204 192 211
-0.1203157 -0.44048062 -0.69474238 202 189 208
-0.12206142 -0.44182819 -0.69551647 193 172 198
-0.12051602 -0.44044718 -0.69486475 202 187 208
-0.11931494 -0.4427644 -0.69410002 195 164 198
-0.11996415 -0.44334161 -0.69436264 191 159 194
-0.12025224 -0.44132608 -0.69463265 199 181 204
-0.12038471 -0.44156185 -0.69467831 198 179 203
-0.12019047 -0.44294998 -0.69449425 193 163 196
-0.11624286 -0.44219238 -0.69240463 224 209 234
-0.11709433 -0.44230527 -0.69288117 215 194 222
-0.11659998 -0.44131473 -0.69266057 220 203 227
-0.11793899 -0.44295749 -0.69332105 206 179 212
-0.11600907 -0.44259903 -0.69224727 227 214 238
-0.11583095 -0.44065511 -0.69226396 228 217 237
-0.11889312 -0.43992847 -0.69406843 208 197 215
-0.11801942 -0.44144365 -0.69346398 208 186 213
-0.11594234 -0.44015437 -0.69235766 227 215 234
-0.11765113 -0.43992749 -0.69335485 216 206 223
-0.11735054 -0.44154423 -0.69307286 212 190 217
-0.1177169 -0.44083607 -0.69333124 212 195 218
-0.11505984 -0.43976501 -0.69189733 234 226 242
-0.12333614 -0.44589043 -0.69537443 189 172 196
-0.12433602 -0.44635177 -0.69567466 186 170 192
-0.12205642 -0.4434655 -0.69531196 189 161 191
-0.12116653 -0.4439843 -0.69478941 190 162 194
-0.11954955 -0.44348726 -0.69414198 192 159 195
-0.12099399 -0.44389084 -0.69472891 190 162 194
-0.12205431 -0.44498488 -0.69498974 190 168 196
-0.1203094 -0.44400966 -0.69438469 192 162 196
-0.11925933 -0.44453698 -0.69378626 192 166 199
-0.11981592 -0.44580755 -0.69377691 191 174 203
-0.11927807 -0.44696835 -0.69328392 191 184 208
-0.1212526 -0.44562736 -0.69447976 192 171 199
-0.11926469 -0.44441295 -0.69381481 192 165 199
-0.12088809 -0.44721618 -0.69397718 191 183 206
-0.11818251 -0.44501251 -0.69320005 195 169 203
-0.11698508 -0.44650748 -0.69234675 198 179 210
-0.11763235 -0.44601759 -0.69274116 196 176 208
-0.11722066 -0.44629121 -0.69249827 197 178 209
-0.11625605 -0.44459248 -0.69219428 216 201 229
-0.11698903 -0.44360688 -0.69272792 214 194 224
-0.11762014 -0.44497126 -0.69292343 199 174 207
-0.11803716 -0.44356477 -0.6933279 203 176 210
-0.11830492 -0.44380772 -0.69345093 199 169 205
-0.11735518 -0.4435671 -0.69294047 211 188 219
-0.12695421 -0.4510428 -0.69516677 183 154 184
-0.1265665 -0.44919944 -0.69568115 182 158 184
-0.12598057 -0.4487513 -0.69560701 184 162 187
-0.1253559 -0.44904932 -0.69524819 186 165 191
-0.1268885 -0.45060191 -0.69530094 183 155 184
-0.12310237 -0.45112738 -0.69380569 183 168 186
-0.12305659 -0.44990978 -0.69416177 185 172 191
-0.12526649 -0.44981551 -0.69495219 186 164 190
-0.12490001 -0.45082277 -0.69451821 184 162 186
-0.12408321 -0.44879961 -0.69485468 188 171 195
-0.12406906 -0.45018029 -0.69442809 185 167 189
-0.1218093 -0.45044854 -0.6934911 185 172 189
-0.11947331 -0.45076695 -0.6926741 187 169 181
-0.11949924 -0.45106789 -0.69263166 186 167 179
-0.12025715 -0.45073086 -0.69293624 186 169 183
-0.11921231 -0.44836098 -0.69299597 189 181 201
-0.12029003 -0.44936365 -0.69317836 187 176 195
-0.1206213 -0.44743517 -0.69379151 190 183 206
-0.12252513 -0.44757473 -0.69463015 191 180 201
-0.12289547 -0.44891649 -0.69439179 188 175 195
-0.12304244 -0.44867545 -0.69453341 188 176 196
-0.1223974 -0.44885519 -0.69417995 188 176 196
-0.12247909 -0.44857755 -0.69430256 188 177 197
-0.11852377 -0.44906944 -0.69264448 189 178 197
-0.11904743 -0.45066348 -0.69255149 187 169 182
-0.11866162 -0.45034757 -0.69247472 188 171 186
-0.11798429 -0.44791308 -0.69256645 193 183 207
-0.11649001 -0.44856593 -0.69182229 196 179 205
-0.11651364 -0.44806403 -0.69188786 197 181 208
-0.11663298 -0.44761446 -0.69199073 198 183 211
-0.12741515 -0.45184705 -0.69528073 185 159 187
-0.12818031 -0.4525004 -0.69560069 188 166 191
-0.12705812 -0.45278174 -0.69500899 189 167 192
-0.12722036 -0.45301592 -0.69506508 190 169 193
-0.12847215 -0.4548077 -0.69549924 193 183 200
-0.12518944 -0.45375159 -0.69424927 191 178 197
-0.12456293 -0.45301223 -0.69410837 188 175 193
-0.12421458 -0.45332593 -0.69395214 187 173 194
-0.12646805 -0.45482782 -0.6945833 196 184 202
-0.12431417 -0.4549914 -0.69380802 189 173 199
-0.12566403 -0.45424139 -0.69436353 193 180 199
-0.12672892 -0.45424929 -0.69473296 194 180 200
-0.12473851 -0.45172697 -0.69430017 185 167 188
-0.12562534 -0.45139641 -0.69463903 184 160 186
-0.12534492 -0.45302549 -0.69437879 190 175 194
-0.12353894 -0.45125696 -0.69393396 183 167 186
-0.12675619 -0.4515523 -0.69501305 185 157 186
-0.12034668 -0.4538511 -0.69264394 189 175 193
-0.12168561 -0.45507613 -0.69294643 188 175 199
-0.12041237 -0.45390123 -0.69265956 189 175 193
-0.12004394 -0.45230371 -0.69267666 187 168 183
-0.11997081 -0.45401931 -0.69251817 191 178 195
-0.11971641 -0.45178893 -0.6926198 186 167 181
-0.12074033 -0.45197082 -0.69293356 185 167 183
-0.12014095 -0.45149079 -0.69278938 186 167 180
-0.11990178 -0.45142761 -0.69271803 186 167 180
-0.12195297 -0.45338756 -0.6931774 185 167 189
-0.12157774 -0.45158237 -0.69324887 184 168 184
-0.12222604 -0.45328885 -0.69327718 184 167 190
-0.11841512 -0.45400074 -0.69206321 192 180 195
-0.11840733 -0.4536905 -0.69208574 192 179 193
-0.11729866 -0.45181808 -0.69183499 189 170 188
-0.11780693 -0.45319197 -0.69192106 191 176 193
-0.1180686 -0.4527469 -0.69203711 190 174 189
-0.12830423 -0.45525253 -0.69543213 195 185 202
-0.12762454 -0.45597562 -0.69527459 196 187 204
-0.12747496 -0.45550212 -0.69508612 196 186 203
-0.12341575 -0.45829067 -0.69402403 202 199 206
-0.12515022 -0.45729515 -0.69461548 191 180 204
-0.12455896 -0.45748943 -0.69439077 194 185 204
-0.1234482 -0.45713487 -0.69385403 195 187 203
-0.12346318 -0.45746979 -0.69391382 197 190 204
-0.12401452 -0.45818403 -0.69426596 200 195 206
-0.12562273 -0.45757332 -0.6948576 192 182 205
-0.12664905 -0.45569903 -0.69476908 196 185 204
-0.1249536 -0.45661461 -0.69439226 190 177 202
-0.1248784 -0.45552304 -0.69410396 190 176 200
-0.12644444 -0.45594689 -0.69475657 195 185 204
-0.12689787 -0.45714015 -0.69520229 196 188 207
-0.12001999 -0.45620838 -0.69260818 195 189 203
-0.1215391 -0.4581418 -0.69333613 195 188 201
-0.12292717 -0.45890513 -0.69392329 207 207 208
-0.12122855 -0.45797038 -0.69320476 192 183 200
-0.12221287 -0.45519349 -0.69312215 188 173 198
-0.12273359 -0.45748681 -0.69364297 200 194 204
-0.12218536 -0.45512319 -0.69310278 187 172 198
-0.1206804 -0.45538113 -0.69269419 193 184 202
-0.12149781 -0.45519745 -0.69290918 190 177 200
-0.11871862 -0.4559406 -0.69210339 185 168 196
-0.11874404 -0.45615324 -0.69212896 182 164 194
-0.11807363 -0.45647413 -0.69194108 178 153 190
-0.11764516 -0.45763239 -0.6918692 164 125 180
-0.12467831 -0.45982707 -0.69492489 194 190 205
-0.12538436 -0.4605054 -0.69542688 185 178 201
-0.12404798 -0.46007663 -0.69472462 194 190 203
-0.12365329 -0.459499 -0.69438648 200 199 206
-0.12534845 -0.45975471 -0.69519365 193 187 205
-0.12501694 -0.45931637 -0.69492316 198 195 207
-0.12207854 -0.45911559 -0.69364494 192 182 199
-0.1155445 -0.46288875 -0.69184691 146 121 158
-0.11597923 -0.46236089 -0.69191194 146 119 160
-0.11615519 -0.46262786 -0.69204742 146 122 159
-0.11607854 -0.46463862 -0.69247431 128 108 141
-0.11611672 -0.46392819 -0.69232678 135 114 148
-0.11619779 -0.46353152 -0.69226986 139 117 152
-0.15574019 -0.44549197 -0.72717154 111 90 100
-0.15564223 -0.44351122 -0.72696024 120 99 108
-0.1557329 -0.44379538 -0.72712076 118 98 106
-0.1559331 -0.4475221 -0.7274397 103 78 94
-0.15572777 -0.44766968 -0.72723615 105 81 95
-0.15587841 -0.4481467 -0.72754681 104 81 97
-0.15711485 -0.45107955 -0.729967 100 78 107
-0.15571009 -0.45031005 -0.72755599 107 89 105
-0.15594864 -0.4498128 -0.72788244 105 85 103
-0.15615693 -0.44840154 -0.72803837 103 79 98
-0.15679258 -0.45445961 -0.72958088 111 91 108
-0.15642236 -0.45339003 -0.72897595 109 84 109
-0.1559802 -0.45470008 -0.72830862 115 91 109
-0.15668055 -0.45318905 -0.72937763 107 84 109
-0.15603031 -0.45485631 -0.72839069 115 92 109
-0.15681611 -0.45271343 -0.72958064 105 81 108
-0.15649407 -0.45376834 -0.72909671 110 87 109
-0.15526892 -0.45396647 -0.72713405 116 92 110
-0.15549046 -0.45449471 -0.72753406 116 90 110
-0.15558018 -0.4520539 -0.72751611 111 92 109
-0.15714921 -0.45147645 -0.73005635 100 78 108
-0.15574677 -0.45316947 -0.72786558 112 89 109
-0.15626988 -0.45124933 -0.72859538 105 86 108
-0.15580335 -0.45816785 -0.72967851 128 108 119
-0.15602273 -0.45815369 -0.73041773 119 98 113
-0.15655868 -0.45663303 -0.72979355 124 107 117
-0.15595245 -0.45736057 -0.72887659 136 118 124
-0.15639436 -0.45741758 -0.73050547 117 98 112
-0.15639265 -0.45598307 -0.72913939 124 105 116
-0.15623537 -0.45679399 -0.72904807 132 115 122
-0.15509543 -0.45547789 -0.72700232 123 98 114
-0.15580131 -0.45550591 -0.7281177 121 98 113
-0.15542029 -0.45592827 -0.72759986 127 103 117
-0.15584022 -0.46127594 -0.73076463 145 129 143
-0.15561305 -0.46078891 -0.72999096 141 121 134
-0.15555559 -0.46034694 -0.72985107 136 114 127
-0.15518752 -0.45910084 -0.72884476 139 118 126
-0.15551749 -0.45902991 -0.7300086 125 103 117
-0.10556871 -0.45690617 -0.68771142 183 164 183
-0.10507894 -0.45705545 -0.68751544 181 163 181
-0.10531523 -0.45774445 -0.68763763 179 159 180
-0.10562628 -0.45877665 -0.68780988 175 153 179
-0.10414898 -0.45734695 -0.6872102 177 158 176
-0.10236929 -0.45858562 -0.68681026 165 138 163
-0.10200878 -0.45832998 -0.68668216 165 139 162
-0.1028662 -0.45837417 -0.68690842 169 145 170
-0.10341357 -0.45816323 -0.68705344 171 148 172
-0.10413221 -0.46035662 -0.68751436 162 141 167
-0.10421055 -0.46138591 -0.68765849 158 139 164
-0.10423709 -0.46082684 -0.6876021 160 141 166
-0.10357391 -0.4614132 -0.68745333 156 136 160
-0.1028759 -0.46227443 -0.6873672 148 129 150
-0.10183579 -0.46258956 -0.6871441 143 122 141
-0.10191658 -0.459353 -0.68679106 156 129 154
-0.10235392 -0.45995331 -0.68697107 156 131 156
-0.10332453 -0.46064046 -0.68729782 158 137 162
-0.10342768 -0.46184576 -0.6874603 153 134 157
-0.10255262 -0.45941338 -0.68696111 160 134 160
-0.10332166 -0.4612641 -0.68736744 155 135 159
-0.10250303 -0.46551082 -0.68787599 123 104 120
-0.10224767 -0.46497244 -0.68767649 129 109 127
-0.10295549 -0.46368447 -0.68760598 141 124 143
-0.101005 -0.46632916 -0.68759745 118 94 109
-0.10186581 -0.46436158 -0.68743223 135 115 133
-0.10157152 -0.46361226 -0.68723375 137 116 134
-0.10129197 -0.46457639 -0.68732417 132 110 127
-0.10088018 -0.46541849 -0.68736112 127 103 119
-0.13142353 -0.42701527 -0.70416486 155 118 97
-0.13182922 -0.42763588 -0.70446742 160 120 98
-0.13118973 -0.42731753 -0.70397681 158 118 95
-0.13153496 -0.42732134 -0.70424521 158 119 97
-0.13303916 -0.42645633 -0.70543277 150 123 107
-0.13526046 -0.42870957 -0.70714223 168 138 126
-0.13518605 -0.42988122 -0.70698696 175 144 140
-0.13546509 -0.43047789 -0.70719594 179 148 147
-0.1309403 -0.42893535 -0.70364255 169 134 114
-0.13290495 -0.4311724 -0.70501894 184 158 156
-0.13306059 -0.43064779 -0.70520729 180 151 147
-0.13177037 -0.43008751 -0.7042008 177 147 136
-0.13275729 -0.42992607 -0.7050373 176 142 133
-0.13183016 -0.43060204 -0.70419228 180 154 145
-0.13403772 -0.43115345 -0.70596021 183 155 156
-0.13159372 -0.42975447 -0.70409191 174 143 130
-0.13383217 -0.43062317 -0.70584542 180 149 147
-0.1330563 -0.42895561 -0.70534456 169 134 120
-0.13288856 -0.42782322 -0.70528364 162 124 104
-0.13457216 -0.42825419 -0.70656633 164 133 119
-0.13165933 -0.42781317 -0.70432842 162 121 98
-0.13428193 -0.43007722 -0.70622867 176 146 142
-0.13337973 -0.4298051 -0.70554382 175 141 133
-0.13488482 -0.4318822 -0.70658571 186 159 166
-0.13526838 -0.43195313 -0.7069152 186 157 165
-0.13522093 -0.43509606 -0.70644838 185 150 174
-0.13502416 -0.43419001 -0.70639086 185 152 172
-0.13578516 -0.43494394 -0.70700473 185 152 174
-0.13458103 -0.43234766 -0.70625478 187 159 169
-0.13365898 -0.43524173 -0.70507723 190 159 182
-0.13400762 -0.43293869 -0.70569456 189 162 174
-0.13355504 -0.43364471 -0.70521832 191 164 180
-0.13422798 -0.43367949 -0.7057721 188 158 174
-0.13308048 -0.43168643 -0.70510507 187 164 165
-0.13191625 -0.4340905 -0.70379537 194 172 185
-0.13264629 -0.43342847 -0.70449549 192 169 180
-0.1332418 -0.432336 -0.70514572 189 165 171
-0.13282187 -0.43409586 -0.70454544 194 169 186
-0.13380469 -0.43227112 -0.70562172 188 163 170
-0.13583887 -0.43652049 -0.70672131 186 155 179
-0.13591297 -0.43607655 -0.70690489 185 153 177
-0.13515933 -0.43565929 -0.70629716 185 149 175
-0.1349888 -0.43672639 -0.70589489 187 157 179
-0.13643602 -0.43923375 -0.70663905 191 174 188
-0.13503732 -0.43788862 -0.70568526 190 167 183
-0.13496803 -0.4392283 -0.70533192 193 179 187
-0.13553272 -0.43915352 -0.7058515 192 177 187
-0.13428065 -0.43819371 -0.70499033 190 169 184
-0.13368031 -0.4382987 -0.70448923 189 167 185
-0.13392344 -0.43844602 -0.70465082 190 169 185
-0.13259543 -0.43695465 -0.70386857 194 170 192
-0.1334081 -0.43815213 -0.70430326 189 165 185
-0.13411175 -0.43620914 -0.70527703 187 155 180
-0.13201103 -0.43564826 -0.70364517 198 173 196
-0.13329175 -0.43640947 -0.70455599 191 163 186
-0.13689166 -0.43965998 -0.70693558 191 175 189
-0.13699704 -0.4398402 -0.70697558 191 174 189
-0.13770732 -0.44191298 -0.70698833 191 171 190
-0.13674125 -0.44102862 -0.70639199 192 175 189
-0.13743749 -0.44116953 -0.70697033 191 172 190
-0.13659561 -0.44318607 -0.70556611 181 153 185
-0.13616748 -0.44199309 -0.70556176 186 163 186
-0.13764861 -0.44263488 -0.70671177 190 168 190
-0.13760695 -0.44282052 -0.70661312 188 166 189
-0.13678403 -0.44278535 -0.70586944 184 159 186
-0.13614361 -0.44135496 -0.70574766 189 171 188
-0.13700053 -0.44242322 -0.70618606 187 165 188
-0.13684647 -0.44279251 -0.70592439 184 159 186
-0.13444842 -0.44186977 -0.70406181 180 153 181
-0.13437875 -0.44222197 -0.7038914 178 149 181
-0.13441893 -0.43952155 -0.70480412 193 179 188
-0.13384987 -0.43950981 -0.70435458 192 177 189
-0.13962819 -0.44714546 -0.70681828 169 157 178
-0.13913396 -0.44453105 -0.707389 184 166 187
-0.13885826 -0.44640812 -0.70637643 172 155 181
-0.13514477 -0.44469178 -0.70359707 173 142 178
-0.13710077 -0.44629374 -0.70477217 169 147 178
-0.13619488 -0.44582418 -0.70410645 171 146 179
-0.13662091 -0.44575632 -0.70454925 170 145 178
-0.13683227 -0.44608718 -0.70460516 170 146 178
-0.13517101 -0.44364595 -0.70408815 171 137 178
-0.13731302 -0.44565427 -0.70525223 169 146 179
-0.13806628 -0.44437116 -0.70645535 181 158 186
-0.13763896 -0.44439101 -0.70605534 179 154 184
-0.13820192 -0.44643229 -0.70575738 169 149 180
-0.13598725 -0.44398659 -0.70470113 173 142 180
-0.13805148 -0.44407368 -0.70656043 183 160 187
-0.13472874 -0.4437826 -0.70360863 172 138 178
-0.14048688 -0.44844687 -0.70723909 159 141 163
-0.14001112 -0.44887206 -0.70665747 154 131 159
-0.14067598 -0.44848943 -0.70740718 159 142 163
-0.14029558 -0.44983065 -0.70664996 147 118 151
-0.14025381 -0.45103693 -0.7062735 140 104 145
-0.13882296 -0.44805157 -0.70577675 161 140 173
-0.13952886 -0.45113581 -0.70557088 141 103 152
-0.13945876 -0.45055732 -0.7056675 145 110 155
-0.13831751 -0.44770193 -0.70538491 166 148 178
-0.13771223 -0.44792831 -0.7047326 167 147 178
-0.13761432 -0.44748116 -0.70476925 169 150 179
-0.14072475 -0.45188013 -0.70679891 139 106 144
-0.14038308 -0.45281824 -0.70664603 142 113 152
-0.13915798 -0.45123094 -0.70522583 142 103 155
-0.14097953 -0.45375425 -0.70736623 143 119 152
-0.1401033 -0.45338562 -0.70648551 145 117 158
-0.1398685 -0.45325735 -0.70624429 145 116 159
-0.13976863 -0.45355925 -0.70606184 146 118 161
-0.14068176 -0.45516559 -0.70724916 147 128 161
-0.14058901 -0.45583415 -0.70713025 148 128 161
-0.14024456 -0.45680732 -0.70661074 151 128 162
-0.14046954 -0.45825574 -0.70705771 151 126 159
-0.13494417 -0.46453252 -0.70427889 166 151 171
-0.13598605 -0.46499509 -0.70562893 154 139 164
-0.13555145 -0.46484309 -0.70508808 159 144 167
-0.13525975 -0.46593642 -0.70537645 161 151 166
-0.13517022 -0.46503606 -0.70479155 163 149 169
-0.13516213 -0.46671605 -0.70567447 164 155 165
-0.13756567 -0.46509215 -0.70726299 145 122 155
-0.13647698 -0.46561033 -0.7064414 152 136 160
-0.1353429 -0.46629423 -0.70565325 160 151 165
-0.13446321 -0.46582258 -0.70453048 168 157 171
-0.13314332 -0.4660711 -0.70351684 174 160 176
-0.13449155 -0.46481472 -0.70400596 169 154 172
-0.13440178 -0.46709561 -0.70513535 168 162 170
-0.13388138 -0.46752968 -0.7048676 172 165 173
-0.13172168 -0.4693788 -0.7037766 187 180 188
-0.13350283 -0.46757415 -0.704557 174 166 175
-0.13295797 -0.46907783 -0.7047168 178 168 180
-0.13334765 -0.46872553 -0.7049045 175 165 178
-0.13205166 -0.47057736 -0.70455676 183 168 187
-0.13183552 -0.47013283 -0.70419252 186 177 188
-0.14653109 -0.41789034 -0.71897477 136 113 104
-0.14501891 -0.41898832 -0.71740854 129 100 90
-0.14543819 -0.41936457 -0.71782482 124 98 94
-0.1451444 -0.4184266 -0.71755075 135 105 91
-0.14540255 -0.41806757 -0.71782243 138 109 93
-0.14597292 -0.41812032 -0.71840066 136 110 99
-0.14580056 -0.41928354 -0.71819514 124 100 98
-0.14670049 -0.42086726 -0.71903366 122 102 110
-0.14685395 -0.42319793 -0.71903121 141 119 124
-0.14560983 -0.42282698 -0.7177667 136 113 114
-0.14549071 -0.42292434 -0.71763933 136 113 113
-0.14549716 -0.42269313 -0.71766382 134 111 112
-0.14485706 -0.42376381 -0.71693623 141 115 112
-0.14377765 -0.42357856 -0.71586484 136 108 101
-0.14628501 -0.4210605 -0.71858394 123 104 110
-0.14437617 -0.42242926 -0.71655667 129 103 100
-0.14470449 -0.42112237 -0.71698129 124 97 95
-0.14344858 -0.42316684 -0.715563 134 104 95
-0.14528157 -0.42028096 -0.71762615 120 95 95
-0.14577191 -0.41992328 -0.7181493 117 95 98
-0.14439447 -0.42235726 -0.71658045 128 103 99
-0.14703383 -0.42466167 -0.71910161 145 117 122
-0.1466285 -0.42764452 -0.71820605 143 95 98
-0.14681984 -0.42653063 -0.7186237 142 102 109
-0.14613488 -0.42539981 -0.71801442 149 119 122
-0.14592552 -0.42663947 -0.71763921 150 114 116
-0.14529492 -0.42587799 -0.71716285 157 133 134
-0.14435892 -0.42705002 -0.71612096 165 143 141
-0.14588085 -0.42721909 -0.71751332 150 111 112
-0.14334705 -0.42560863 -0.71525478 153 128 122
-0.14493491 -0.42496118 -0.71690947 152 129 129
-0.14364065 -0.42415455 -0.71567863 141 113 105
-0.14529766 -0.42520562 -0.71725279 156 134 135
-0.14353605 -0.42733523 -0.71529239 170 150 146
-0.14575741 -0.42455292 -0.71777302 151 129 131
-0.14542358 -0.42479205 -0.71741599 152 130 131
-0.14740217 -0.42867479 -0.71891659 145 101 114
-0.14744483 -0.42892772 -0.71889019 146 104 117
-0.14733903 -0.4302462 -0.71838689 156 121 135
-0.14651272 -0.42884371 -0.71778548 152 108 116
-0.14725782 -0.43062791 -0.71821249 160 126 142
-0.14661026 -0.43022206 -0.71758735 162 125 139
-0.14550719 -0.42986271 -0.71664721 163 132 138
-0.14593101 -0.43007469 -0.71698219 163 130 140
-0.14637649 -0.43130893 -0.7171098 171 141 159
-0.14579186 -0.42944512 -0.71699649 159 124 130
-0.14548551 -0.42947701 -0.71671152 160 128 132
-0.14398059 -0.42855865 -0.71549952 172 151 151
-0.14624611 -0.42791668 -0.71774089 147 101 103
-0.14508422 -0.42892069 -0.71645248 162 132 134
-0.14607659 -0.42788464 -0.71758968 148 104 106
-0.148228 -0.43270552 -0.71885669 160 133 156
-0.14854835 -0.43411499 -0.71894228 157 131 158
-0.14854564 -0.43343955 -0.71906781 157 131 156
-0.14794114 -0.4336988 -0.71835083 162 135 160
-0.1470858 -0.4332332 -0.71751696 168 139 163
-0.14676803 -0.43224961 -0.71733648 171 142 164
-0.14750493 -0.43434849 -0.71778345 164 135 162
-0.14650749 -0.43541676 -0.71656901 169 134 164
-0.14753534 -0.43480578 -0.71774411 164 133 162
-0.14604913 -0.43388745 -0.71639663 174 144 166
-0.14638543 -0.43288049 -0.71685225 173 142 165
-0.14551002 -0.4349865 -0.71574664 175 147 169
-0.14497899 -0.4336547 -0.71547264 178 156 171
-0.14500408 -0.43458611 -0.71535474 178 154 171
-0.14607359 -0.43229517 -0.71666437 175 147 166
-0.14500253 -0.43424952 -0.71540409 178 155 171
-0.14719409 -0.43637949 -0.71721762 167 136 162
-0.1478979 -0.43697271 -0.71791971 165 137 159
-0.14877059 -0.43575168 -0.71891338 155 130 159
-0.14750357 -0.43631318 -0.71754694 165 135 161
-0.14865984 -0.43819889 -0.71864301 163 142 156
-0.14823996 -0.43909994 -0.71808016 168 149 160
-0.14653578 -0.43789744 -0.71628761 175 150 170
-0.1473355 -0.43757451 -0.71724033 170 143 163
-0.14777836 -0.43925965 -0.71753359 171 153 164
-0.14768977 -0.43915501 -0.71744567 172 153 164
-0.14673191 -0.43871501 -0.71640855 176 155 171
-0.145757 -0.43897077 -0.71547437 180 161 179
-0.14550948 -0.43626148 -0.71557516 176 149 171
-0.14548661 -0.43590355 -0.71559674 176 148 170
-0.14547983 -0.43598944 -0.7155807 176 148 170
-0.14694074 -0.4394916 -0.71654552 177 159 171
-0.14765844 -0.44154742 -0.71691531 175 160 171
-0.14849716 -0.44022781 -0.71815997 169 152 161
-0.14668238 -0.43949795 -0.71624947 178 161 173
-0.1477987 -0.44096437 -0.71720254 174 158 168
-0.14942504 -0.44282117 -0.71877182 160 143 146
-0.14882596 -0.44106823 -0.71838588 166 149 157
-0.14908092 -0.44127411 -0.71865046 164 147 153
-0.14770789 -0.44168469 -0.71694314 175 160 171
-0.14853865 -0.44277945 -0.71772659 168 151 158
-0.14898047 -0.44261482 -0.71828198 164 147 153
-0.1491539 -0.44146645 -0.71870142 163 146 152
-0.14621255 -0.44110763 -0.71543515 182 167 181
-0.14576617 -0.44007835 -0.71528292 182 166 182
-0.15040782 -0.44588235 -0.71890426 131 109 129
-0.14990963 -0.44649997 -0.71819133 130 108 132
-0.14821939 -0.44696835 -0.7163527 142 119 144
-0.15018374 -0.446776 -0.71837682 125 103 130
-0.14826518 -0.44715294 -0.71633935 140 117 144
-0.1481903 -0.44583488 -0.71669847 151 130 147
-0.14974287 -0.44426814 -0.71875906 150 130 138
-0.14923774 -0.4449406 -0.71803391 149 129 141
-0.14792953 -0.44367301 -0.71683186 170 154 164
-0.14675556 -0.44404492 -0.71536225 177 162 177
-0.14748856 -0.44569182 -0.71590054 158 138 157
-0.14852655 -0.44490212 -0.71729296 156 136 148
-0.14892998 -0.44435352 -0.71788293 156 137 146
-0.14863315 -0.44473374 -0.7174536 156 136 148
-0.14714333 -0.44640505 -0.7153464 156 134 158
-0.1505481 -0.44845432 -0.71893346 119 90 124
-0.15044686 -0.45038608 -0.71903133 117 78 121
-0.14859033 -0.4504436 -0.71636194 117 90 115
-0.14986382 -0.45107317 -0.71827984 116 76 117
-0.14923936 -0.45055589 -0.7173062 117 84 116
-0.14986975 -0.44814116 -0.71782213 119 95 124
-0.15010245 -0.44805515 -0.7181406 119 94 125
-0.14955671 -0.44886187 -0.7174899 118 93 121
-0.14798728 -0.44742233 -0.71600455 140 117 144
-0.14781202 -0.44789043 -0.71576673 139 115 141
-0.15001692 -0.4474377 -0.71803027 122 99 129
-0.14821185 -0.44873896 -0.71605247 129 105 130
-0.1486913 -0.44918182 -0.71647209 122 98 122
-0.14756989 -0.44849458 -0.71544385 137 113 137
-0.15062049 -0.45340085 -0.71866035 118 86 116
-0.1507865 -0.4544394 -0.71861476 119 93 115
-0.14946601 -0.45420465 -0.7168799 118 93 118
-0.15030307 -0.45462891 -0.71754473 121 96 115
-0.14960165 -0.45390555 -0.71713823 118 91 118
-0.14986372 -0.45503184 -0.71693969 120 99 116
-0.14882898 -0.45368695 -0.71639472 116 90 119
-0.1483421 -0.45344755 -0.71574008 116 93 117
-0.14847609 -0.4512642 -0.71629912 116 86 113
-0.14916284 -0.45201781 -0.71715248 116 83 117
-0.14833184 -0.45418632 -0.71560097 116 95 119
-0.14902894 -0.45232621 -0.71690935 116 85 117
-0.15091552 -0.45538419 -0.71846908 124 100 118
-0.15087055 -0.45564052 -0.71821624 128 104 120
-0.15101141 -0.45535657 -0.71870458 123 100 117
-0.15111208 -0.45644712 -0.71883303 136 110 128
