ply
format ascii 1.0
comment PCL generated
element vertex 1015
property float x
property float y
property float z
property uchar red
property uchar green
property uchar blue
element camera 0
property float view_px
property float view_py
property float view_pz
property float x_axisx
property float x_axisy
property float x_axisz
property float y_axisx
property float y_axisy
property float y_axisz
property float z_axisx
property float z_axisy
property float z_axisz
property float focal
property float scalex
property float scaley
property float centerx
property float centery
property int viewportx
property int viewporty
property float k1
property float k2
end_header
-0.21393573 0.24165282 -0.81977409 143 124 127
-0.21329609 0.24272728 -0.81908792 148 128 133
-0.21418819 0.24043836 -0.81990415 145 126 128
-0.21276742 0.24278122 -0.8184033 153 133 139
-0.21277393 0.24260241 -0.81837869 154 134 140
-0.21151584 0.24334103 -0.81697547 148 131 135
-0.21209185 0.24191865 -0.81747675 155 135 142
-0.21232584 0.24385515 -0.81804699 148 129 134
-0.21199177 0.24340843 -0.81757087 149 131 135
-0.21459405 0.23998384 -0.82038891 138 119 121
-0.21437642 0.23902343 -0.81995338 137 117 122
-0.21325102 0.23883714 -0.81835103 159 139 147
-0.21333173 0.23673156 -0.81808239 163 145 155
-0.21334927 0.23691975 -0.818142 162 143 154
-0.21322751 0.23823871 -0.8182078 161 142 151
-0.21278428 0.2374882 -0.81746238 172 154 163
-0.21257232 0.23663473 -0.81706083 172 155 166
-0.21246994 0.23961735 -0.81750041 164 145 152
-0.21213137 0.23806737 -0.81683016 167 147 158
-0.21215168 0.23802833 -0.8168456 167 148 158
-0.21415912 0.23462681 -0.81895036 158 139 147
-0.21339224 0.23565513 -0.81799698 169 151 161
-0.21436262 0.23487872 -0.81928033 150 130 139
-0.21316072 0.23425029 -0.81760758 156 141 150
-0.21309401 0.23530272 -0.817581 167 150 160
-0.21334174 0.23370661 -0.81781358 151 136 144
-0.21374086 0.23466009 -0.81839234 161 143 152
-0.21342143 0.23338404 -0.81789947 148 133 141
-0.21271329 0.23268086 -0.8169902 140 128 134
-0.21259686 0.23502804 -0.81698036 161 146 155
-0.2133645 0.23226561 -0.81773484 139 126 131
-0.21362647 0.2313939 -0.81788743 137 125 128
-0.21373038 0.23220226 -0.81820095 139 124 130
-0.21468711 0.23121037 -0.81923866 138 121 124
-0.21273643 0.23148954 -0.81682146 135 126 129
-0.21800247 0.29159713 -0.83654624 151 111 126
-0.217779 0.29126191 -0.83709371 156 116 131
-0.21757679 0.29089651 -0.83772445 160 122 136
-0.21862726 0.28863618 -0.83925629 166 142 144
-0.21884251 0.2878803 -0.84001184 170 150 148
-0.2180029 0.28995985 -0.83835 162 130 139
-0.2180348 0.29042664 -0.83760583 159 123 134
-0.21886475 0.28795797 -0.83985943 169 149 147
-0.21914788 0.28786719 -0.83951694 168 148 144
-0.2191218 0.28734878 -0.83832073 173 149 148
-0.21881768 0.28880095 -0.83779216 165 136 139
-0.21902229 0.28831539 -0.83883899 166 142 141
-0.21862097 0.28974316 -0.83745426 160 127 133
-0.21888089 0.28823423 -0.83752942 168 140 142
-0.21936704 0.28395975 -0.83814836 174 155 152
-0.21944521 0.28391722 -0.83840853 176 156 154
-0.21966147 0.28451854 -0.83958662 181 160 157
-0.2197822 0.2848236 -0.8402248 184 162 160
-0.21952748 0.28532413 -0.83960813 177 158 154
-0.21974826 0.28487346 -0.84013194 183 162 159
-0.21907969 0.28630358 -0.83749312 173 149 148
-0.21909165 0.28491265 -0.83736253 169 150 147
-0.2189939 0.28545421 -0.83662641 171 148 148
-0.21902227 0.28589964 -0.83694041 172 148 148
-0.21925521 0.28678933 -0.83905804 172 153 148
-0.2196493 0.28102857 -0.83827555 186 159 165
-0.21946074 0.27977625 -0.83755112 182 155 162
-0.21959676 0.28075609 -0.83802766 185 158 164
-0.21981306 0.28012642 -0.84010339 182 159 155
-0.219392 0.27938947 -0.83724487 180 154 161
-0.21937896 0.28062099 -0.83706588 181 155 162
-0.21973337 0.2827782 -0.83890581 185 161 162
-0.21954426 0.28255603 -0.83815563 181 158 159
-0.2194978 0.28206608 -0.83786279 180 157 159
-0.2191748 0.28178528 -0.83660591 173 151 154
-0.22009905 0.27563813 -0.83723062 143 119 118
-0.22024941 0.27723861 -0.83946812 150 127 124
-0.2206444 0.27668709 -0.8400985 135 111 110
-0.22028649 0.2768698 -0.83917511 147 123 121
-0.21993661 0.27654928 -0.83771765 154 131 128
-0.21969862 0.27862591 -0.83884847 173 151 148
-0.21963701 0.27862537 -0.83836448 174 150 150
-0.21947075 0.2791611 -0.83774477 179 153 157
-0.21964362 0.27762955 -0.83714467 166 141 143
-0.2194905 0.27912334 -0.83785141 178 153 157
-0.21954583 0.2787219 -0.83777255 175 150 153
-0.22084552 0.27513593 -0.83953768 123 95 98
-0.22115244 0.27294657 -0.83986217 153 124 125
-0.22086328 0.27293721 -0.83909523 152 126 124
-0.22079805 0.27255332 -0.83885109 157 132 128
-0.22087058 0.27208039 -0.83895075 163 138 134
-0.22009206 0.27206016 -0.83721226 164 146 134
-0.22048363 0.27256402 -0.83813894 157 135 128
-0.21985237 0.2718434 -0.83666259 168 152 137
-0.21988055 0.27353203 -0.83654225 157 138 129
-0.22021711 0.27415329 -0.83762914 142 120 115
-0.22003148 0.27432203 -0.83694798 148 126 121
-0.21989524 0.27469173 -0.83640879 150 129 124
-0.22076033 0.27122584 -0.83856821 171 149 141
-0.22119185 0.26891929 -0.83987784 180 167 149
-0.22081731 0.26832217 -0.83900237 179 167 147
-0.22105832 0.26835987 -0.83959013 181 171 149
-0.22058538 0.26919922 -0.83829838 175 157 143
-0.22054452 0.26810747 -0.83829433 178 162 144
-0.22035035 0.26912364 -0.83763969 173 151 140
-0.22033133 0.27030298 -0.83754236 171 148 139
-0.22000137 0.2691783 -0.83677846 172 148 139
-0.21975026 0.27061972 -0.83632809 172 155 141
-0.22108877 0.26684448 -0.83987397 183 171 150
-0.22086458 0.26743391 -0.83921999 182 171 148
-0.22071159 0.26660681 -0.83878326 183 166 148
-0.22098947 0.26367715 -0.84013182 181 151 145
-0.22090532 0.26457113 -0.83972389 182 156 146
-0.22067769 0.26575208 -0.83855134 185 164 150
-0.22061521 0.26449767 -0.83815074 189 160 152
-0.22065885 0.26462084 -0.83838236 188 160 152
-0.22007652 0.2661086 -0.83655417 181 152 146
-0.22015347 0.26581365 -0.83667856 183 154 148
-0.22003171 0.2669495 -0.83669454 177 150 143
-0.22002146 0.2672081 -0.83674765 176 150 142
-0.22083467 0.26226899 -0.83997077 171 140 137
-0.22074907 0.26281422 -0.83922744 179 147 144
-0.22062765 0.26216638 -0.83889455 175 142 140
-0.22041295 0.26236624 -0.83769655 178 144 145
-0.22045852 0.26309973 -0.83757311 186 151 150
-0.22038805 0.26265353 -0.83650655 188 156 153
-0.22043279 0.26209715 -0.83763474 177 144 144
-0.22040999 0.26227468 -0.8377198 177 143 144
-0.22032711 0.26314288 -0.83664066 189 154 154
-0.22065634 0.26021382 -0.83769262 170 144 136
-0.22070408 0.25951156 -0.83748001 168 144 134
-0.22065532 0.25816393 -0.83826625 155 124 126
-0.22068487 0.25898719 -0.83780581 163 136 131
-0.22069405 0.25885034 -0.83710384 168 142 135
-0.22066085 0.25969958 -0.84014755 149 117 120
-0.22060721 0.25803903 -0.83910936 148 116 121
-0.22056115 0.25663695 -0.8382321 147 115 122
-0.22063585 0.25745642 -0.83803511 152 120 125
-0.220529 0.25658146 -0.83864754 144 112 119
-0.22063319 0.25618374 -0.83665705 156 124 130
-0.22048752 0.2559633 -0.83857512 142 109 118
-0.22085686 0.25287214 -0.83637488 125 86 100
-0.22038779 0.25274724 -0.83919561 125 83 93
-0.22064783 0.25317949 -0.83731347 127 88 99
-0.22062539 0.25422958 -0.83703119 139 102 111
-0.22040392 0.25522861 -0.83948708 133 99 108
-0.22036076 0.25405303 -0.83973026 128 89 99
-0.22032742 0.25355822 -0.84005797 124 84 94
-0.22040495 0.25583717 -0.83967775 134 101 111
-0.22042242 0.25510079 -0.8391692 135 100 109
-0.22048663 0.25447172 -0.83800286 141 104 112
-0.22075261 0.25187677 -0.83730501 114 72 86
-0.2209315 0.2494618 -0.83914125 121 84 91
-0.22087863 0.25020191 -0.83860588 119 81 90
-0.2208828 0.25122708 -0.83743769 117 77 90
-0.22099611 0.25058204 -0.8368187 117 79 92
-0.22101919 0.24924473 -0.83831251 120 84 93
-0.22100547 0.25008529 -0.83735037 118 81 93
-0.22108874 0.24833404 -0.8377493 117 85 94
-0.22106685 0.24804978 -0.83885366 120 88 94
-0.22066009 0.25042233 -0.8395521 117 77 84
-0.22053985 0.25194046 -0.83853787 115 71 84
-0.22052059 0.25187534 -0.83874172 115 72 84
-0.22116816 0.2473269 -0.8397752 131 98 101
-0.22148781 0.24501295 -0.83885348 145 118 120
-0.22208203 0.24421775 -0.83682603 169 143 146
-0.22124796 0.24477686 -0.83972162 136 110 110
-0.22117625 0.24433811 -0.84001416 134 109 108
-0.22177133 0.24520899 -0.8378346 156 128 131
-0.22187527 0.24530433 -0.83722258 159 131 134
-0.22182964 0.24549709 -0.83700871 155 127 132
-0.22131521 0.24725096 -0.83798057 130 99 106
-0.22141366 0.24699199 -0.83717656 132 102 110
-0.2217795 0.2457438 -0.83649278 150 122 128
-0.22156689 0.24062774 -0.83826059 141 116 130
-0.22134106 0.24093466 -0.8391369 134 107 122
-0.22164901 0.24107844 -0.83798748 145 122 132
-0.22119187 0.24263072 -0.83983684 132 106 112
-0.22139692 0.24155632 -0.83897668 137 112 122
-0.22142044 0.241925 -0.83891791 138 114 122
-0.22208361 0.2426687 -0.83662242 165 142 147
-0.22182262 0.24305187 -0.83759749 156 132 136
-0.22152877 0.24291511 -0.83861625 144 121 124
-0.22146119 0.24408334 -0.83901745 145 120 120
-0.22208917 0.2413518 -0.83641946 161 140 148
-0.22209167 0.24334963 -0.83668876 167 143 147
-0.22267792 0.23634011 -0.83834416 136 121 124
-0.22163264 0.2386311 -0.83968157 125 100 114
-0.22185557 0.2377954 -0.83964795 124 103 111
-0.22234939 0.23792881 -0.838135 142 120 134
-0.22164783 0.23846973 -0.839755 124 100 112
-0.2216204 0.23937127 -0.83912033 133 106 124
-0.22153091 0.2399957 -0.83866632 137 110 127
-0.22252744 0.23781313 -0.83767527 147 126 140
-0.22174597 0.24008337 -0.83774436 145 121 136
-0.22293147 0.2373132 -0.8367855 155 138 149
-0.2219065 0.23978235 -0.83752072 147 125 138
-0.22269076 0.23396949 -0.84002244 128 110 113
-0.22328685 0.23386124 -0.83789533 130 116 117
-0.22345202 0.23346841 -0.8376587 132 118 121
-0.22302084 0.23260076 -0.84011704 136 116 122
-0.22253172 0.23477463 -0.83983523 123 107 107
-0.22307846 0.23560108 -0.83757514 141 127 131
-0.22336176 0.23476295 -0.83719039 141 128 132
-0.22275501 0.2362473 -0.83817303 137 123 126
-0.22212052 0.23627476 -0.83997864 116 101 99
-0.22299191 0.2361058 -0.83756584 144 130 134
-0.22374874 0.23319721 -0.83687955 137 124 127
-0.22354056 0.23023449 -0.84010094 145 117 122
-0.22385167 0.22959822 -0.83849651 140 108 119
-0.22326726 0.23139279 -0.84022987 141 117 123
-0.22365141 0.23014554 -0.83923507 141 112 120
-0.22422832 0.2299158 -0.83635271 136 107 121
-0.22406356 0.23228909 -0.83641678 139 125 130
-0.22423841 0.22931756 -0.83645433 135 102 118
-0.22406359 0.23026685 -0.83688784 136 109 121
-0.22326946 0.23205848 -0.8394444 137 116 124
-0.22424445 0.22839051 -0.83763683 141 105 118
-0.22456157 0.22757638 -0.8369137 140 106 118
-0.21761729 0.27658999 -0.84435606 125 97 110
-0.21887815 0.27595162 -0.84421784 151 127 132
-0.21951605 0.27543047 -0.84426886 158 136 138
-0.21989794 0.26561356 -0.84435898 162 140 132
-0.21949668 0.26649863 -0.84443718 154 132 128
-0.22045015 0.26505405 -0.84420806 172 149 139
-0.21848419 0.26658848 -0.8447755 135 117 113
-0.21998894 0.26641104 -0.84427559 163 139 135
-0.21790281 0.26631358 -0.84496737 125 109 106
-0.2170618 0.2644119 -0.84496629 134 114 118
-0.2180191 0.26592767 -0.84491271 130 113 109
-0.21858534 0.26484141 -0.84471351 145 126 121
-0.21771847 0.26618284 -0.84499133 124 108 106
-0.22080308 0.25990427 -0.8443895 154 121 124
-0.20527312 0.26076958 -0.8132109 173 148 162
-0.20653096 0.26019171 -0.81464171 166 146 153
-0.20504345 0.26026535 -0.8128956 173 148 162
-0.2077651 0.25600523 -0.81484175 163 145 154
-0.20798738 0.25590244 -0.81505799 163 145 153
-0.20771334 0.25655609 -0.81494594 164 148 154
-0.20575336 0.25973082 -0.81365389 169 145 156
-0.20568539 0.25763127 -0.81297451 168 146 158
-0.20568208 0.25943962 -0.81348681 169 145 157
-0.20604154 0.25747356 -0.81334895 166 146 156
-0.20586792 0.2589972 -0.81357938 168 145 156
-0.20936751 0.25488859 -0.81649989 164 143 153
-0.20924492 0.25284973 -0.81604695 162 138 152
-0.20911521 0.25200987 -0.8157298 163 138 154
-0.20903321 0.25245208 -0.81568283 164 140 154
-0.2084872 0.25271618 -0.81508547 167 145 158
-0.20820162 0.25235978 -0.81470221 169 147 159
-0.20803539 0.25275251 -0.81457376 170 149 160
-0.20830387 0.25422409 -0.81511331 167 148 157
-0.20759784 0.25211957 -0.81397289 173 152 163
-0.20875184 0.25562558 -0.81585079 163 145 153
-0.20792644 0.25454801 -0.81474257 168 149 158
-0.20666352 0.25582835 -0.81357223 165 146 156
-0.20651896 0.25364396 -0.81302023 173 154 163
-0.20700867 0.25496849 -0.81380063 167 149 158
-0.20736018 0.25416058 -0.81404537 170 152 160
-0.21051943 0.24821004 -0.81678838 162 138 150
-0.20945981 0.25169513 -0.81614733 161 136 151
-0.20905697 0.25127709 -0.81548816 164 140 155
-0.20971996 0.24971536 -0.81604004 163 140 153
-0.20937721 0.24865673 -0.81536013 162 142 152
-0.20938921 0.25006974 -0.8156749 163 140 154
-0.20799753 0.24879971 -0.81390041 164 145 155
-0.20872946 0.24806727 -0.81446284 162 145 153
-0.20860945 0.25080231 -0.81492358 164 142 155
-0.20817609 0.25136429 -0.81453049 168 146 159
-0.20743284 0.25024176 -0.81352991 169 150 160
-0.20794794 0.25126749 -0.81425631 169 147 160
-0.20735981 0.25185409 -0.81366092 174 154 164
-0.2087076 0.25191009 -0.81521177 166 142 157
-0.21005659 0.24673149 -0.81581163 156 138 145
-0.21021397 0.24668978 -0.81601077 156 138 145
-0.21040627 0.24675041 -0.81628156 156 137 145
-0.20983326 0.24702062 -0.81558555 157 140 147
-0.20979443 0.24432707 -0.81501848 151 135 142
-0.21040127 0.24465589 -0.81582111 149 133 138
-0.20980389 0.24563515 -0.81526959 154 137 144
-0.20903827 0.24584602 -0.81437147 157 140 149
-0.20915036 0.24459992 -0.81428051 155 138 147
-0.20891172 0.24750251 -0.81454337 161 144 152
-0.20863244 0.24645184 -0.81410003 159 142 150
-0.20788695 0.24618156 -0.81333894 159 142 151
-0.20790513 0.2459895 -0.81332648 159 142 150
-0.20740795 0.24800852 -0.81315732 165 147 156
-0.20785734 0.24707262 -0.81345028 162 144 153
-0.2105502 0.24340528 -0.81567603 152 137 141
-0.21026148 0.24325095 -0.81527388 155 139 144
-0.20932347 0.24274464 -0.81396586 162 145 154
-0.20936599 0.24297313 -0.81409031 160 144 152
-0.20985024 0.24358036 -0.81487513 154 138 145
-0.21044058 0.24247436 -0.81527108 159 143 148
-0.21127282 0.24255207 -0.81651413 152 135 140
-0.21112803 0.24232669 -0.81626081 155 137 143
-0.21117549 0.24386512 -0.8166002 147 131 134
-0.21175018 0.23980075 -0.81671423 161 140 149
-0.21194147 0.23766738 -0.81649035 163 144 155
-0.21146935 0.23896845 -0.81614733 155 135 144
-0.21165347 0.23979925 -0.8165834 159 138 147
-0.21210144 0.23725992 -0.81661415 166 148 159
-0.21107151 0.24017893 -0.81580251 164 144 153
-0.20975424 0.23845135 -0.81359321 147 130 137
-0.20989805 0.23933543 -0.81394035 160 142 150
-0.20938674 0.23997255 -0.81328213 173 156 165
-0.20969467 0.23751861 -0.81336302 133 116 122
-0.21235642 0.23472567 -0.81666183 156 141 150
-0.21236463 0.23385829 -0.81662947 148 134 143
-0.21242011 0.23508032 -0.81677276 160 144 154
-0.21229729 0.23532288 -0.81660622 162 145 156
-0.21041338 0.2363053 -0.81412333 134 117 124
-0.21017975 0.23620333 -0.81379569 129 112 119
-0.21542564 0.29547408 -0.83051962 150 122 128
-0.21519494 0.29530323 -0.83012092 149 120 129
-0.21588269 0.29580465 -0.83130997 153 126 128
-0.21601796 0.29537159 -0.83158016 157 127 131
-0.21651906 0.29115942 -0.83196133 162 119 131
-0.21610631 0.2928769 -0.83156204 166 128 137
-0.21661173 0.29209581 -0.83224189 162 120 131
-0.21545565 0.29205188 -0.83043081 170 134 143
-0.21515952 0.29149738 -0.82989091 172 136 146
-0.21649601 0.2924794 -0.83211488 163 122 133
-0.21469106 0.29218641 -0.82919586 171 139 148
-0.21482679 0.2931053 -0.82945579 164 132 142
-0.21577093 0.29379714 -0.83114892 167 133 140
-0.21489036 0.29367721 -0.82958025 159 128 138
-0.21532206 0.29424992 -0.83035958 158 126 135
-0.21526103 0.2933526 -0.8302331 166 133 141
-0.21611866 0.29051012 -0.8313275 168 128 138
-0.21533382 0.29050061 -0.83010632 173 137 147
-0.21651357 0.28939253 -0.83197582 171 132 140
-0.2156183 0.29048753 -0.83054948 171 134 144
-0.21673632 0.28940675 -0.83232206 169 129 138
-0.21530269 0.29034454 -0.83006257 174 139 148
-0.21661878 0.28993255 -0.83212328 167 126 136
-0.21479261 0.2893374 -0.82931495 172 143 148
-0.21450466 0.28922173 -0.82888019 167 141 145
-0.21610028 0.28795245 -0.83137959 179 146 150
-0.21550383 0.28839928 -0.83044666 174 144 148
-0.21610069 0.28476468 -0.83128428 177 151 148
-0.21649893 0.28546906 -0.83207577 178 150 147
-0.21572915 0.28460371 -0.83047682 178 152 149
-0.21555506 0.28356951 -0.83023173 175 154 148
-0.21593487 0.28477299 -0.83091277 177 152 149
-0.21528691 0.28384608 -0.82959443 177 154 150
-0.21619722 0.28609806 -0.83134496 180 149 150
-0.21600023 0.2856423 -0.83094341 180 150 150
-0.21627349 0.28689501 -0.83163726 176 146 147
-0.21617787 0.27994025 -0.83121192 188 167 167
-0.21652512 0.28262049 -0.83235288 175 156 147
-0.2161577 0.27980506 -0.83114892 189 168 168
-0.21651974 0.28019962 -0.83195162 189 170 167
-0.21529201 0.28312176 -0.82968849 175 155 149
-0.21573377 0.28232747 -0.83060968 175 154 149
-0.21533088 0.28286889 -0.82975453 176 154 150
-0.21694613 0.27604812 -0.83180374 190 169 170
-0.217255 0.27552304 -0.83221543 186 165 168
-0.21677572 0.27923957 -0.83231866 197 179 176
-0.21635455 0.27775872 -0.83119512 192 172 170
-0.21625035 0.27785376 -0.83103514 192 172 169
-0.21678637 0.27564979 -0.83141941 190 169 170
-0.21598481 0.27848479 -0.83059722 191 169 169
-0.21578845 0.27795249 -0.83012033 189 166 166
-0.21727265 0.27442786 -0.83206552 189 167 168
-0.21746448 0.27432716 -0.83238924 187 165 167
-0.21696854 0.27397624 -0.83141273 188 166 166
-0.21724205 0.27309656 -0.83177936 191 167 166
-0.21764439 0.26520595 -0.83194178 171 155 141
-0.21767147 0.26479316 -0.83201826 172 156 141
-0.21780254 0.26477927 -0.83222336 170 154 141
-0.21772584 0.26370773 -0.83217543 171 156 141
-0.21705051 0.26660079 -0.83089972 174 160 141
-0.21716551 0.2643899 -0.83119798 172 159 141
-0.2162171 0.26409367 -0.82935613 177 167 149
-0.21659429 0.26498583 -0.83011675 174 163 144
-0.21633723 0.26402146 -0.82961512 176 165 148
-0.21579853 0.26490101 -0.82860112 181 171 155
-0.21641743 0.26745057 -0.82981062 178 166 146
-0.21584621 0.26417342 -0.82861298 180 170 155
-0.21770248 0.26260746 -0.83173722 166 148 138
-0.21766651 0.26200873 -0.83145124 163 143 135
-0.21792071 0.26173952 -0.83177882 162 140 135
-0.21714155 0.26165476 -0.8304835 153 131 126
-0.21719764 0.26160368 -0.83055651 153 131 126
-0.21787378 0.2603347 -0.83121645 148 119 123
-0.21716461 0.2619344 -0.83061498 156 136 129
-0.21751793 0.26114991 -0.83091885 152 128 126
-0.21642481 0.26005802 -0.82875007 137 109 113
-0.21668196 0.26342946 -0.83029479 169 158 140
-0.21649037 0.26364923 -0.82995087 173 163 145
-0.2163959 0.26071119 -0.8288967 145 120 119
-0.21645606 0.26212573 -0.82943541 158 141 131
-0.21683401 0.25919563 -0.82915431 127 94 104
-0.21818204 0.25869358 -0.83114618 143 110 121
-0.2174637 0.25826946 -0.82984173 133 99 112
-0.21716715 0.25950724 -0.82979649 132 99 108
-0.21789232 0.25879812 -0.83071625 140 106 118
-0.2182028 0.25971681 -0.83153683 145 113 122
-0.21844478 0.25953344 -0.83186233 148 116 125
-0.21890931 0.2585575 -0.83228999 147 119 125
-0.21730781 0.25596106 -0.82878798 126 90 109
-0.21867728 0.25773472 -0.83163232 142 114 121
-0.21850727 0.25663996 -0.83098495 136 108 117
-0.21891221 0.25649098 -0.83159941 137 114 118
-0.21929906 0.25699544 -0.83240408 142 120 121
-0.2184535 0.25610575 -0.83071703 133 106 115
-0.21659561 0.25911158 -0.82872719 131 99 108
-0.21954009 0.25549012 -0.83234853 137 120 119
-0.21924251 0.25440785 -0.83160335 136 116 118
-0.21913527 0.25354689 -0.83124775 135 114 118
-0.21903247 0.25305346 -0.8309682 135 113 118
-0.21877334 0.25324816 -0.83052945 134 112 117
-0.21929137 0.25472027 -0.83175057 136 117 118
-0.21742754 0.25474805 -0.82865053 127 94 111
-0.21823116 0.25501651 -0.83004183 131 104 114
-0.21888041 0.25574738 -0.83130455 134 112 116
-0.21922794 0.25563169 -0.83184361 136 117 117
-0.21825531 0.2533159 -0.82962269 133 109 115
-0.21879786 0.25579849 -0.83118278 133 110 115
-0.21935697 0.24957724 -0.83080173 138 110 121
-0.21954402 0.24807879 -0.83082759 135 105 117
-0.21937752 0.24851559 -0.83060783 137 108 119
-0.21991819 0.24986772 -0.83192903 135 107 119
-0.21990708 0.25052217 -0.83205152 135 109 120
-0.21907488 0.2493393 -0.83021492 140 112 121
-0.21875502 0.25108957 -0.83004469 136 110 119
-0.21857037 0.25135368 -0.82977116 135 110 118
-0.21827745 0.24995108 -0.82889044 138 111 119
-0.2184339 0.24877037 -0.82888746 142 113 121
-0.21891323 0.25060797 -0.83021641 138 112 120
-0.21815117 0.24978328 -0.82861793 138 111 119
-0.21989806 0.24574369 -0.83085221 150 123 133
-0.22021829 0.24664542 -0.83175558 141 112 125
-0.21966958 0.24548137 -0.83028418 154 128 136
-0.21930417 0.24460159 -0.8292833 164 139 144
-0.22039066 0.24797599 -0.83241153 130 100 115
-0.21925938 0.24707179 -0.82996082 145 117 126
-0.21912062 0.24733293 -0.82978362 144 115 124
-0.21975036 0.24628417 -0.83063263 148 121 130
-0.21887475 0.24556515 -0.82873696 159 134 138
-0.21879952 0.24584332 -0.82868576 158 132 136
-0.21874885 0.24731535 -0.82907325 146 118 126
-0.21984918 0.24036729 -0.82961708 139 127 124
-0.21995619 0.24047592 -0.82991391 140 128 125
-0.2200571 0.24109019 -0.83025551 142 128 127
-0.22035377 0.24099402 -0.83103055 146 133 129
-0.21941127 0.24369064 -0.82931721 162 139 143
-0.22013889 0.24330685 -0.83085799 153 128 137
-0.21905449 0.24392539 -0.82857335 167 145 147
-0.22051474 0.24378406 -0.83182305 153 126 137
-0.21950455 0.24382943 -0.82956177 163 139 144
-0.21947493 0.2425784 -0.82918179 152 132 136
-0.22084157 0.24020253 -0.83214915 152 145 132
-0.22076418 0.23719239 -0.83020377 128 103 114
-0.22095609 0.23887029 -0.83163935 141 129 124
-0.2208343 0.23644406 -0.82992184 123 95 111
-0.22097063 0.23657869 -0.83031523 125 99 112
-0.22052121 0.23670116 -0.82935488 126 97 114
-0.22056903 0.23725069 -0.82979012 129 104 116
-0.22047631 0.24014987 -0.83121753 145 138 128
-0.22024395 0.23882614 -0.82987171 137 120 123
-0.21986613 0.24008995 -0.82956654 138 126 124
-0.2198028 0.23873432 -0.82865131 131 111 120
-0.22021759 0.23663333 -0.82859308 127 97 116
-0.22240201 0.23360662 -0.83222377 150 132 136
-0.22208147 0.235167 -0.83219498 138 121 125
-0.22181234 0.23419571 -0.8311348 142 118 129
-0.2221463 0.23431948 -0.83195925 144 125 131
-0.22130023 0.2348893 -0.83035463 135 109 122
-0.2210445 0.23432067 -0.82981974 139 115 126
-0.22120444 0.23517253 -0.83023417 132 105 120
-0.22082542 0.23311868 -0.82924634 148 129 135
-0.22094736 0.23407717 -0.82961214 141 118 128
-0.22062671 0.23268487 -0.82884789 150 133 138
-0.22035702 0.2359685 -0.82871789 128 97 116
-0.22156492 0.23055905 -0.82988936 161 144 145
-0.22209424 0.23128933 -0.83101344 161 143 145
-0.22145106 0.2313695 -0.82992113 159 141 144
-0.22116098 0.2319106 -0.82957125 156 139 142
-0.22143359 0.2316924 -0.82998216 158 140 143
-0.22093183 0.23130859 -0.82900381 157 140 142
-0.2227596 0.22946511 -0.83142817 158 141 140
-0.22233023 0.22944914 -0.83075404 160 143 142
-0.22211359 0.23036025 -0.83074105 161 144 145
-0.22330692 0.22868255 -0.83200169 154 138 136
-0.22269925 0.23015207 -0.83157873 158 141 142
-0.22254787 0.23025858 -0.83138096 159 142 143
-0.22285926 0.22905959 -0.83143896 157 140 139
-0.22063012 0.23227616 -0.82877642 153 136 140
-0.22304991 0.22690229 -0.83107847 158 140 140
-0.22260201 0.22683491 -0.83032519 159 141 142
-0.21129982 0.29212931 -0.82388312 161 127 137
-0.21120031 0.29147044 -0.82370752 163 131 136
-0.21162993 0.29335433 -0.82442534 154 117 134
-0.21083719 0.29180139 -0.82318193 168 136 145
-0.21223837 0.25984997 -0.82195926 167 141 147
-0.2122854 0.26054364 -0.82221711 168 143 146
-0.21167736 0.26056352 -0.82141459 164 139 141
-0.21144792 0.26213968 -0.82149172 168 145 146
-0.21105577 0.26143199 -0.82076323 166 142 145
-0.21138242 0.26094663 -0.8211 164 140 143
-0.21147208 0.26023617 -0.82104731 162 137 141
-0.21455406 0.25661835 -0.82439089 140 109 126
-0.21457693 0.25637373 -0.82437193 138 106 124
-0.21413176 0.25710383 -0.82393301 145 114 130
-0.21401951 0.2566199 -0.82372296 139 108 123
-0.21325716 0.25874591 -0.82310164 161 133 143
-0.21343787 0.25682905 -0.82303876 141 110 123
-0.21223731 0.25610772 -0.82135552 135 108 114
-0.21265136 0.2568835 -0.82204318 142 113 121
-0.21273704 0.25886458 -0.82245618 163 136 143
-0.21228243 0.25867191 -0.82181513 159 133 139
-0.21236065 0.25802472 -0.82181317 155 129 134
-0.2125079 0.25856203 -0.82209682 160 134 140
-0.21166945 0.25961325 -0.82115448 162 136 142
-0.21475077 0.25386441 -0.82409835 131 106 117
-0.21507542 0.25406787 -0.82453954 132 105 119
-0.21402006 0.25484592 -0.82340187 131 102 114
-0.2146287 0.25544927 -0.8242746 132 101 118
-0.21478148 0.25216913 -0.82372838 134 110 121
-0.21352781 0.25312746 -0.82231933 136 105 121
-0.21291259 0.25310686 -0.82149267 139 104 125
-0.21344335 0.25449181 -0.82258248 132 102 114
-0.21342096 0.25326666 -0.82221508 136 105 121
-0.21414837 0.2523948 -0.82294565 136 108 123
-0.2123823 0.25479278 -0.82124239 134 104 116
-0.21245091 0.25344917 -0.82098871 137 104 122
-0.21252161 0.25456849 -0.82137674 134 103 116
-0.21326506 0.24889162 -0.8210752 142 122 126
-0.21355237 0.25096172 -0.82184404 140 113 127
-0.2143423 0.25064853 -0.82283986 137 116 123
-0.21326791 0.25039905 -0.82135963 141 115 128
-0.2130858 0.24914807 -0.82088375 142 120 127
-0.21338379 0.24947807 -0.82134289 141 119 126
-0.21456884 0.25000295 -0.82304549 139 120 124
-0.21506065 0.25038692 -0.8237955 140 121 125
-0.21425635 0.24940433 -0.82252157 141 123 125
-0.21554473 0.24987002 -0.82441431 147 127 130
-0.21582371 0.24827778 -0.82459819 161 139 141
-0.21334636 0.24834225 -0.82108682 142 125 125
-0.21565728 0.24929798 -0.82449788 152 131 134
-0.21282606 0.25090575 -0.82088518 141 110 129
-0.21592121 0.24426602 -0.82394063 148 117 127
-0.21495917 0.24419983 -0.82216257 155 127 138
-0.21538466 0.24554352 -0.82322478 157 130 139
-0.21496813 0.24454394 -0.8222512 156 129 140
-0.21579131 0.24542487 -0.82394558 153 125 133
-0.21609792 0.2451147 -0.82444274 150 120 129
-0.21402806 0.24577595 -0.82113534 155 132 140
-0.21379222 0.24565729 -0.82075423 154 131 139
-0.21406752 0.24661799 -0.82151788 153 132 137
-0.21577285 0.24798039 -0.82446921 162 140 142
-0.21434341 0.24725224 -0.82215583 154 133 136
-0.21456608 0.24571499 -0.82187617 159 135 144
-0.2141874 0.24554798 -0.82127333 157 133 142
-0.21556088 0.24115741 -0.82244557 146 124 126
-0.21510778 0.24072276 -0.82143784 140 119 121
-0.21630612 0.24130325 -0.82397318 159 137 138
-0.21618287 0.2414549 -0.82376069 156 133 135
-0.21635468 0.24098022 -0.82399678 162 141 140
-0.21499838 0.24064569 -0.82120085 138 118 120
-0.21584375 0.24341178 -0.82355773 144 115 124
-0.21479833 0.24167967 -0.82113093 144 121 126
-0.21500075 0.24158223 -0.82147342 142 119 124
-0.21543232 0.24317321 -0.82273304 146 119 127
-0.21603577 0.24384011 -0.82403588 145 114 124
-0.21529901 0.24332289 -0.82253265 148 121 130
-0.21691675 0.23893055 -0.82443017 162 143 143
-0.21690665 0.23835023 -0.82420081 155 136 138
-0.21676509 0.23794122 -0.8238256 148 128 131
-0.21667497 0.23878083 -0.82398838 157 137 138
-0.21570343 0.23961106 -0.82239068 148 129 129
-0.21533391 0.23976468 -0.8216818 143 123 124
-0.21647738 0.24017084 -0.82405919 167 149 146
-0.21593873 0.23980315 -0.82290256 154 135 135
-0.21493718 0.23914362 -0.82075685 130 110 114
-0.21524002 0.23891732 -0.8213169 134 114 117
-0.21742921 0.23550087 -0.82413489 145 125 133
-0.21730384 0.23304299 -0.82356966 162 139 149
-0.21693289 0.23368002 -0.82311767 153 129 139
-0.2177835 0.23263334 -0.82421106 171 147 158
-0.21780115 0.23235054 -0.82418245 172 149 160
-0.21794513 0.23183748 -0.82421058 170 148 158
-0.21826339 0.23163314 -0.82460129 172 150 160
-0.2186255 0.22885591 -0.82417482 159 141 148
-0.21771869 0.23039792 -0.82340437 160 140 147
-0.21680196 0.29234546 -0.83306175 155 110 126
-0.21686436 0.29201362 -0.83312529 155 109 126
-0.21684955 0.29282901 -0.83354634 151 105 124
-0.21774095 0.29130793 -0.8350845 154 112 126
-0.21800511 0.29153836 -0.83595991 151 110 124
-0.21716553 0.29162803 -0.83375144 155 110 126
-0.21763764 0.28722316 -0.83402699 178 145 148
-0.21762043 0.28847983 -0.83394015 172 135 142
-0.21724313 0.28874394 -0.83325595 171 133 140
-0.21741061 0.28823206 -0.83357728 174 137 143
-0.216839 0.29097146 -0.8324365 161 116 129
-0.2172953 0.28939855 -0.83331972 168 128 137
-0.21819699 0.29024392 -0.83576685 159 121 131
-0.2182474 0.28984749 -0.83572477 161 124 133
-0.2175191 0.29018793 -0.83390802 163 122 132
-0.21767059 0.2900869 -0.83427227 163 122 133
-0.21761368 0.29044443 -0.83427924 161 120 131
-0.21738067 0.28674409 -0.83356136 178 146 148
-0.21841276 0.28465042 -0.83532703 171 147 147
-0.21817337 0.28706816 -0.83498538 178 146 149
-0.21835519 0.28689975 -0.83530349 177 146 149
-0.21845216 0.28439131 -0.83538812 170 148 146
-0.21864699 0.28454056 -0.83574057 170 147 147
-0.21719594 0.28488055 -0.83334404 172 146 143
-0.21749267 0.2843481 -0.83385497 170 147 143
-0.21811385 0.28364149 -0.83489126 167 148 143
-0.21793289 0.28365165 -0.83460528 167 147 143
-0.21795768 0.28351855 -0.83465523 166 147 142
-0.21669227 0.28333688 -0.83268255 168 149 139
-0.2172758 0.28027096 -0.8332482 189 172 168
-0.21770027 0.28263432 -0.83420587 170 152 146
-0.21715115 0.28222945 -0.83329111 173 155 148
-0.21710846 0.27998552 -0.83294964 191 174 170
-0.21742287 0.28262997 -0.83376819 169 152 145
-0.21777512 0.28287244 -0.83435285 168 150 144
-0.21844977 0.28197879 -0.83530986 174 157 154
-0.21893157 0.27985579 -0.83585036 180 155 162
-0.21844603 0.27960971 -0.83504671 185 161 166
-0.21732973 0.2796247 -0.83326203 192 173 171
-0.21922421 0.27933675 -0.83626229 181 153 164
-0.21886094 0.2814576 -0.83591121 174 153 155
-0.21870962 0.28047675 -0.83556259 179 157 160
-0.21859381 0.27737638 -0.83479404 179 154 161
-0.21842086 0.27651647 -0.83430761 176 153 157
-0.21955022 0.27699497 -0.83618408 162 137 140
-0.21893817 0.27651131 -0.83511037 168 144 148
-0.21936993 0.2759555 -0.83564079 158 135 136
-0.21919674 0.27610707 -0.83540994 162 138 140
-0.21817531 0.27622172 -0.83385134 178 155 160
-0.21712959 0.27795717 -0.83259666 192 173 172
-0.21712938 0.27880925 -0.83279318 193 175 173
-0.21883769 0.27884802 -0.83553571 182 156 165
-0.2179485 0.27799454 -0.83391565 186 164 168
-0.21795112 0.27916169 -0.83418953 189 167 170
-0.21737893 0.27840108 -0.83309817 191 171 172
-0.21971144 0.272239 -0.83623075 168 152 138
-0.21979813 0.27387568 -0.83625525 157 137 130
-0.21981023 0.27385435 -0.83628082 157 137 130
-0.2192333 0.27347514 -0.83518654 166 144 139
-0.21956789 0.27384627 -0.8358078 160 139 133
-0.21790278 0.27432874 -0.83307463 181 158 160
-0.21761887 0.27364501 -0.83254141 188 165 166
-0.21925911 0.27483073 -0.83525032 158 135 134
-0.21754703 0.27487594 -0.83259529 184 163 165
-0.21838993 0.27496955 -0.83391798 171 149 150
-0.21855392 0.2681326 -0.83351183 165 147 139
-0.2189513 0.26848224 -0.83441871 168 148 139
-0.21928407 0.27032837 -0.8352713 170 155 141
-0.21919951 0.27002713 -0.83506471 169 154 140
-0.21964502 0.26923284 -0.8360104 172 151 140
-0.21916889 0.27084246 -0.83512425 174 158 145
-0.21899988 0.27139902 -0.83489156 180 162 150
-0.21886286 0.27047774 -0.83446193 175 158 146
-0.21866809 0.26465088 -0.83389854 175 153 143
-0.22000325 0.26478571 -0.83609706 186 154 151
-0.2198586 0.2636888 -0.83566129 190 157 155
-0.21902931 0.26483804 -0.83452082 177 153 144
-0.21888773 0.26370892 -0.83408421 181 156 148
-0.21893099 0.2643393 -0.8342697 178 154 146
-0.21934277 0.26747936 -0.83524907 170 145 139
-0.21841045 0.26497564 -0.83346915 171 152 140
-0.21877809 0.26701358 -0.83404577 168 147 139
-0.21838719 0.26706234 -0.83316839 166 147 139
-0.21830864 0.26510721 -0.8332265 170 152 140
-0.2191982 0.26748273 -0.83492637 169 145 139
-0.21989544 0.25986108 -0.83470631 169 143 137
-0.21956606 0.26097742 -0.83431935 170 139 140
-0.22000167 0.26138806 -0.83526868 178 148 145
-0.22041228 0.26240486 -0.83631068 189 158 153
-0.21973857 0.2622374 -0.83495176 179 144 147
-0.22019318 0.26108137 -0.83557218 179 151 145
-0.22015823 0.26353949 -0.83609796 192 156 156
-0.218363 0.26182684 -0.83255315 163 139 136
-0.21899381 0.26251528 -0.83383018 174 146 143
-0.2190291 0.26335934 -0.83419406 180 154 148
-0.21902016 0.26123866 -0.83340955 165 134 137
-0.21853331 0.26268584 -0.83314234 171 147 141
-0.22071806 0.25942284 -0.8363232 177 155 141
-0.22058389 0.25840583 -0.83610803 170 145 138
-0.22042231 0.25629717 -0.83589613 156 124 130
-0.21936844 0.2588205 -0.83369982 156 125 130
-0.21977533 0.25912553 -0.83448386 163 135 134
-0.22057858 0.25646484 -0.83619481 159 129 132
-0.22062489 0.25716937 -0.83625048 164 135 134
-0.22009353 0.25614968 -0.83461243 149 123 126
-0.21999128 0.25633857 -0.83438438 149 123 126
-0.21960002 0.25739974 -0.83376074 150 122 127
-0.21933194 0.25818297 -0.8333748 151 121 127
-0.22001703 0.25625283 -0.83441377 149 123 126
-0.21993083 0.25610924 -0.8339985 146 122 124
-0.22081363 0.25328794 -0.83623534 130 92 105
-0.2208233 0.25265977 -0.8360666 124 85 99
-0.22050768 0.25230992 -0.83468688 126 92 105
-0.22026624 0.25313574 -0.83405703 140 111 121
-0.22019617 0.25255117 -0.83359718 136 108 118
-0.22012669 0.25279668 -0.83341742 140 113 123
-0.21985309 0.25283477 -0.83244014 137 114 122
-0.22039361 0.25569671 -0.83541697 152 123 128
-0.22014023 0.25364318 -0.83376372 143 117 125
-0.21963088 0.25505003 -0.83244461 137 119 119
-0.21989198 0.25559482 -0.83357924 143 121 122
-0.22004443 0.2550222 -0.83391923 145 120 124
-0.22103092 0.250229 -0.83632183 115 79 93
-0.22075388 0.25009117 -0.83496076 117 83 97
-0.22091252 0.24842848 -0.83523101 115 84 97
-0.22096308 0.24967195 -0.83588696 115 82 95
-0.22044241 0.24812506 -0.83272338 127 97 112
-0.22066809 0.24825865 -0.83393347 118 87 101
-0.22018017 0.25119001 -0.83300418 131 103 115
-0.2200131 0.2516681 -0.83258414 135 110 120
-0.22004008 0.25110543 -0.83244085 135 109 121
-0.22032544 0.25088885 -0.83341908 128 98 111
-0.2207244 0.24679956 -0.83356631 129 98 112
-0.22072807 0.24660882 -0.8334949 130 100 114
-0.220724 0.24753237 -0.83390981 121 91 104
-0.22119166 0.24459054 -0.83392483 155 127 137
-0.22100776 0.24499284 -0.83373076 148 119 130
-0.22167356 0.24560589 -0.83593345 149 121 129
-0.22137579 0.24484448 -0.8345952 154 126 135
-0.22163546 0.24550042 -0.83575636 150 122 130
-0.22095582 0.24501567 -0.83361012 147 118 130
-0.22058606 0.24695164 -0.832937 132 102 116
-0.22068341 0.24730937 -0.83360517 125 94 108
-0.22106165 0.2405467 -0.83273929 157 148 137
-0.222008 0.24054424 -0.83606374 159 140 148
-0.22208597 0.24146982 -0.83620948 163 142 149
-0.22142087 0.24045272 -0.83401412 157 145 141
-0.22190428 0.24309546 -0.83534622 169 148 147
-0.22118048 0.24074009 -0.83312988 158 148 138
-0.22187336 0.2438167 -0.83535272 170 145 148
-0.22117335 0.24194503 -0.83323449 159 143 140
-0.22117633 0.24343769 -0.83345729 160 136 141
-0.2216323 0.24250121 -0.83452666 166 148 144
-0.22158077 0.24291697 -0.83445048 165 145 144
-0.22241682 0.23681653 -0.83413935 143 128 133
-0.22213082 0.23825975 -0.83468217 146 129 136
-0.22234938 0.23856404 -0.83555663 153 136 144
-0.22253378 0.23780952 -0.83536804 152 135 143
-0.22247198 0.2369803 -0.83443981 145 130 136
-0.22186211 0.23988757 -0.83528525 155 138 143
-0.22151236 0.23979752 -0.83397639 154 141 139
-0.22164077 0.24022163 -0.83480573 157 142 143
-0.2219336 0.23776063 -0.83363897 140 124 128
-0.22184442 0.23753276 -0.83312243 139 124 125
-0.22126652 0.23922125 -0.83259875 149 139 131
-0.2236618 0.23434074 -0.83610988 150 137 143
-0.2234288 0.23370589 -0.83511406 152 137 143
-0.22325481 0.23327719 -0.83439368 154 138 143
-0.22313756 0.23454005 -0.83470297 159 143 150
-0.22317527 0.23460408 -0.83484429 158 143 150
-0.22292881 0.23387496 -0.83376747 159 142 148
-0.22272496 0.23505442 -0.83384639 151 135 140
-0.22281119 0.23552038 -0.83433217 151 136 141
-0.22242126 0.23608668 -0.833574 141 126 130
-0.22273383 0.23405157 -0.83333111 154 138 142
-0.22233954 0.23445261 -0.83247203 145 128 131
-0.22423947 0.22895733 -0.83602375 136 103 119
-0.22411193 0.22940314 -0.83547235 140 112 123
-0.22429036 0.22891729 -0.83629107 135 100 117
-0.22397013 0.23070645 -0.83513683 143 126 130
-0.22414619 0.22941147 -0.83566451 139 110 122
-0.22293323 0.23210518 -0.83282161 157 140 143
-0.22342923 0.22943819 -0.83249414 154 137 137
-0.22375847 0.23209746 -0.83519185 145 130 134
-0.22373664 0.23138201 -0.83465821 146 132 134
-0.22307529 0.23107423 -0.83255196 156 139 141
-0.22362444 0.22879325 -0.83263165 152 136 134
-0.22370704 0.22829162 -0.83278805 152 133 133
-0.22397318 0.22756484 -0.83379692 150 125 129
-0.22379954 0.22851494 -0.8334409 148 126 130
-0.22397806 0.22812691 -0.83418077 146 120 126
-0.20499605 0.25989771 -0.81280965 171 144 160
-0.20549454 0.2567398 -0.81243753 163 144 153
-0.20510158 0.25850683 -0.81248599 167 143 156
-0.20489421 0.25857946 -0.81231213 165 142 154
-0.20450284 0.25930753 -0.81219774 166 141 154
-0.20467694 0.25807545 -0.81195086 162 140 150
-0.2044393 0.25655833 -0.81123906 154 137 142
-0.2047148 0.25937051 -0.81240964 167 142 156
-0.20555836 0.25572658 -0.81220597 161 143 151
-0.20577562 0.25551745 -0.81245381 163 145 154
-0.20526651 0.25526485 -0.81171358 157 141 146
-0.20594358 0.25249517 -0.81204623 161 142 148
-0.20569488 0.25317127 -0.81185663 157 139 145
-0.2066683 0.25143936 -0.81280339 175 157 165
-0.20670296 0.25137794 -0.81283915 175 157 165
-0.2067069 0.24643445 -0.81198549 155 137 146
-0.207156 0.24764928 -0.81284064 164 146 155
-0.20656455 0.24801241 -0.81213325 161 142 151
-0.20701608 0.24449319 -0.81204629 160 144 151
-0.20665376 0.24520361 -0.81170088 157 140 148
-0.20528437 0.24676105 -0.81025487 159 140 148
-0.20906736 0.23866192 -0.8126567 157 142 148
-0.20925231 0.23702228 -0.8126744 132 116 121
-0.20743126 0.23735549 -0.81092054 146 131 135
-0.20687942 0.23769642 -0.81044644 152 136 141
-0.20714277 0.23757493 -0.81067616 150 134 139
-0.20864809 0.23715046 -0.81203443 141 127 131
-0.20805788 0.23808038 -0.81159037 155 141 145
-0.20879769 0.23781495 -0.81226403 149 135 140
-0.20852844 0.23738171 -0.81194997 145 130 134
-0.20936856 0.23558632 -0.81264609 122 106 111
-0.20902742 0.23502757 -0.81213361 127 110 116
-0.20883521 0.23545566 -0.81199867 127 112 117
-0.21364295 0.2937023 -0.82767075 144 109 129
-0.2138814 0.29382235 -0.8279832 146 113 131
-0.21406636 0.29251114 -0.82820487 160 128 142
-0.21358041 0.29124692 -0.82753414 162 128 139
-0.21306071 0.29305741 -0.82688779 139 102 122
-0.21344824 0.29202044 -0.82737768 154 119 133
-0.2126589 0.29385376 -0.82624829 131 94 115
-0.21263088 0.29169089 -0.82614112 147 111 123
-0.21243522 0.29324746 -0.82581496 136 100 117
-0.21262507 0.29274434 -0.82615697 139 103 119
-0.21180555 0.29331481 -0.8246994 151 113 130
-0.21269163 0.29434061 -0.82632542 128 90 115
-0.21208146 0.29271251 -0.82515913 146 109 122
-0.21378583 0.28936502 -0.82787001 156 130 135
-0.21388325 0.28984705 -0.82797986 162 133 139
-0.21343802 0.29042888 -0.82736284 157 125 133
-0.21325119 0.28899765 -0.82715923 143 117 123
-0.21269001 0.28961045 -0.82625312 144 114 122
-0.21273835 0.29081514 -0.826325 151 116 125
-0.21206839 0.29100102 -0.82507306 154 120 123
-0.21512468 0.26779044 -0.82776928 183 169 155
-0.21550591 0.26563397 -0.82818961 182 172 154
-0.21504302 0.26579675 -0.82744354 182 170 153
-0.21543942 0.26434857 -0.82796347 181 170 154
-0.21510501 0.26715887 -0.82769728 183 171 154
-0.21490717 0.26699752 -0.82736915 183 170 154
-0.21519175 0.26157522 -0.82683265 174 156 153
-0.21507488 0.26176932 -0.82666498 178 161 157
-0.21484081 0.26124048 -0.82609689 177 159 158
-0.21617544 0.26039588 -0.82835907 144 119 121
-0.21496522 0.26123852 -0.82632715 175 156 155
-0.214801 0.2631911 -0.8266899 179 164 153
-0.21485676 0.26186246 -0.82633203 178 161 157
-0.21542493 0.26313248 -0.82769561 180 167 155
-0.21492471 0.26304856 -0.82684505 179 165 154
-0.21611665 0.25630003 -0.82691699 128 94 112
-0.21661572 0.25664639 -0.82788658 126 91 109
-0.21648681 0.258394 -0.82830113 131 99 109
-0.21580486 0.25787127 -0.82695353 133 102 114
-0.21635373 0.25797379 -0.82793212 130 98 110
-0.21618621 0.25883555 -0.82793105 134 103 112
-0.21615961 0.25943616 -0.8280775 136 107 114
-0.21470636 0.25680441 -0.82464164 143 112 129
-0.21534203 0.2583552 -0.82625687 143 114 125
-0.21568614 0.25936198 -0.8271783 145 117 124
-0.21728212 0.25479862 -0.82841682 126 93 110
-0.21730955 0.25279611 -0.8279205 126 98 109
-0.21703716 0.25449643 -0.82790565 125 93 109
-0.21668097 0.25220397 -0.82673419 117 91 101
-0.21586882 0.25275669 -0.82547259 129 106 115
-0.21648723 0.25240812 -0.82645154 120 94 105
-0.21646555 0.25356457 -0.82670635 123 95 108
-0.21617728 0.25452876 -0.82646507 128 98 113
-0.21543722 0.25451925 -0.82523876 131 102 117
-0.2151196 0.25502351 -0.82485324 132 102 119
-0.21607935 0.2551299 -0.82646954 128 96 114
-0.2154538 0.25424489 -0.82519025 131 103 117
-0.21718545 0.25194278 -0.82750267 122 95 105
-0.21747689 0.25129312 -0.82783633 127 100 109
-0.21826291 0.24849558 -0.82850778 142 113 121
-0.21702063 0.25112104 -0.82705581 122 95 104
-0.21735051 0.24977584 -0.82730335 133 105 113
-0.21682085 0.24849626 -0.82617593 149 123 127
-0.21731688 0.25042403 -0.82738662 127 99 108
-0.21644019 0.25041234 -0.82600236 134 109 116
-0.21669747 0.24977113 -0.82625681 138 112 118
-0.21564981 0.25055689 -0.82466531 142 122 127
-0.21583386 0.250296 -0.82494056 142 121 126
-0.21579246 0.25138167 -0.82504511 133 112 118
-0.2160953 0.25066531 -0.82545149 136 113 119
-0.21763925 0.24803834 -0.82740062 148 120 126
-0.21839212 0.24739891 -0.8284381 148 119 126
-0.21799576 0.24782379 -0.82791662 147 119 125
-0.21819302 0.24645053 -0.82785076 157 131 135
-0.21808529 0.24550158 -0.82743782 162 138 140
-0.21713684 0.24592389 -0.82615048 152 125 129
-0.21687357 0.24704289 -0.82597232 152 125 129
-0.21840408 0.24491492 -0.82779098 164 140 143
-0.21793313 0.24599758 -0.82730794 162 137 140
-0.21675861 0.24429019 -0.82531297 145 113 121
-0.21644011 0.2443077 -0.82484579 145 113 122
-0.21624485 0.24796538 -0.82518965 158 135 137
-0.21630205 0.2476242 -0.82521719 157 132 135
-0.21802408 0.2431021 -0.82694018 148 123 127
-0.21788388 0.2431961 -0.82675374 147 121 126
-0.21723427 0.24364127 -0.82589144 144 115 122
-0.21860038 0.24236028 -0.82764965 146 125 129
-0.21866314 0.24338827 -0.82790428 158 135 138
-0.21774179 0.24373938 -0.82663643 151 124 129
-0.21809684 0.24084695 -0.82667232 149 132 132
-0.21723646 0.24188486 -0.82560003 155 132 133
-0.21692616 0.24038756 -0.82489806 170 152 149
-0.21798094 0.24048145 -0.82644278 154 137 136
-0.21823725 0.24181472 -0.82703888 140 119 123
-0.21855783 0.24134234 -0.82742399 139 120 123
-0.2167699 0.24241605 -0.8250128 157 131 134
-0.21650437 0.24253082 -0.82463992 156 130 134
-0.2182636 0.23788236 -0.82603288 140 125 129
-0.21930602 0.24007553 -0.82826936 135 122 123
-0.21783336 0.23816061 -0.82550126 148 132 134
-0.21756122 0.23789978 -0.82502055 151 134 137
-0.21745758 0.23950829 -0.82540244 160 143 142
-0.21723031 0.23977 -0.82515955 165 148 145
-0.21826962 0.23859137 -0.82627612 144 128 130
-0.21997851 0.23763777 -0.82851422 129 103 118
-0.21947511 0.23855421 -0.82804692 132 113 121
-0.21997049 0.23733833 -0.82840925 129 102 117
-0.21908215 0.23868161 -0.82749957 135 118 123
-0.21849015 0.23797473 -0.82639593 138 122 127
-0.21835473 0.23679301 -0.82582676 138 119 127
-0.22024682 0.23278715 -0.82822978 150 131 137
-0.21966271 0.2350139 -0.8274374 141 113 130
-0.22010159 0.23448719 -0.82812268 140 115 128
-0.21958268 0.23438203 -0.82725537 147 120 135
-0.2199043 0.23482852 -0.8278228 140 113 129
-0.22012843 0.23535627 -0.82823521 134 106 123
-0.21856073 0.23541091 -0.82583541 145 122 134
-0.21825892 0.23312216 -0.82499874 168 145 156
-0.2193737 0.23596227 -0.82714254 135 108 124
-0.2181226 0.23582397 -0.82525074 144 124 133
-0.21949434 0.23621716 -0.82736576 132 104 121
-0.21798298 0.23342355 -0.82463741 167 145 155
-0.21792278 0.23627785 -0.82502878 141 123 130
-0.22053005 0.22988579 -0.82792366 161 144 146
-0.21979238 0.22882996 -0.82617432 162 144 148
-0.22053488 0.22986972 -0.82792771 161 144 146
-0.21963981 0.22993237 -0.82622391 157 139 145
-0.22053218 0.23085009 -0.8282299 157 140 143
-0.21999165 0.23022564 -0.8269943 157 140 144
-0.2195017 0.2310373 -0.82641065 158 140 146
-0.21996681 0.2316774 -0.82743812 154 137 142
-0.22018917 0.23228912 -0.82805222 153 135 140
-0.21894869 0.23232034 -0.82601118 166 145 154
-0.21995942 0.23129813 -0.82727331 154 136 141
-0.21988188 0.23213083 -0.8274799 156 138 143
-0.21905075 0.23038201 -0.82540053 162 143 150
-0.21935238 0.22810128 -0.82507885 164 146 152
-0.21763749 0.28719285 -0.84102613 147 123 134
-0.21740586 0.28607276 -0.8414495 156 136 142
-0.217567 0.28633136 -0.84130371 155 134 141
-0.21779953 0.28578368 -0.84134132 165 148 148
-0.2172775 0.28448734 -0.84193712 174 161 157
-0.21914501 0.28600699 -0.84053636 176 160 154
-0.21925463 0.2855418 -0.84051621 179 161 156
-0.21849391 0.28459138 -0.84116071 181 166 160
-0.21834321 0.28454596 -0.84127116 181 166 160
-0.21756302 0.284143 -0.84186304 181 169 161
-0.21770437 0.28216687 -0.84165829 182 164 161
-0.21825683 0.28228408 -0.84129858 184 164 162
-0.21760626 0.28039122 -0.84134978 175 152 152
-0.21724272 0.28085795 -0.84170198 176 156 154
-0.21719037 0.28226048 -0.84203607 181 166 161
-0.21891737 0.28030851 -0.84068543 179 156 154
-0.21964262 0.28008211 -0.84032351 181 159 154
-0.21835996 0.28002667 -0.84094656 176 153 152
-0.21973883 0.28183323 -0.84034216 187 163 161
-0.22030374 0.27749127 -0.84042567 152 128 126
-0.21986678 0.27720141 -0.84218109 172 151 147
-0.22015202 0.27574015 -0.84274107 157 134 134
-0.22009118 0.2776776 -0.84082085 161 139 135
-0.22026141 0.27641639 -0.84158599 152 129 128
-0.21937992 0.27854076 -0.84118927 175 154 150
-0.2196041 0.27897966 -0.84063476 177 156 150
-0.21902815 0.27679363 -0.84313291 170 148 148
-0.21971907 0.2775245 -0.84205484 174 153 149
-0.2191783 0.27630609 -0.84355432 169 148 148
-0.21889895 0.27830008 -0.84166777 173 152 149
-0.21811672 0.27746072 -0.84295911 165 142 144
-0.21756372 0.27713862 -0.84392208 140 111 122
-0.21741349 0.27795467 -0.84294319 155 130 135
-0.2169926 0.27864176 -0.84239632 159 134 138
-0.22074258 0.27524281 -0.84100395 130 105 106
-0.22118825 0.27164999 -0.84065455 172 141 142
-0.22113593 0.2719304 -0.84070814 168 138 139
-0.22128788 0.27166721 -0.84044141 171 141 142
-0.22042981 0.27226275 -0.84235573 177 147 147
-0.21934016 0.27180359 -0.84383368 175 143 148
-0.21968518 0.27314636 -0.84373564 173 146 148
-0.22032894 0.27277625 -0.8426643 175 147 147
-0.22066411 0.27383864 -0.84147602 151 123 124
-0.220155 0.27501351 -0.8431772 161 138 138
-0.22059186 0.27495641 -0.84156507 140 115 116
-0.22041577 0.2736612 -0.84242612 165 138 139
-0.22073202 0.26784369 -0.84192288 177 161 145
-0.22086772 0.27064151 -0.84142601 177 149 146
-0.22123599 0.2698206 -0.84059286 176 155 146
-0.22095372 0.26855373 -0.84133309 177 160 146
-0.22039185 0.26811916 -0.84263194 176 156 145
-0.22045243 0.26802045 -0.84250247 176 157 145
-0.22016181 0.26766908 -0.84402996 167 141 141
-0.22010843 0.27122658 -0.84261233 177 146 147
-0.21995735 0.27018756 -0.84291542 177 150 147
-0.21938919 0.27116555 -0.8436861 176 145 148
-0.22068426 0.26968241 -0.84187293 178 154 146
-0.22112149 0.26725656 -0.84093887 183 173 151
-0.22076741 0.26492015 -0.84347183 178 159 143
-0.22100668 0.26589182 -0.84213561 181 167 148
-0.22107098 0.26469404 -0.84040582 181 158 147
-0.22109984 0.26544869 -0.84082705 182 164 148
-0.22086802 0.26411894 -0.84310603 179 158 143
-0.22089443 0.26449692 -0.84311759 180 161 143
-0.2210079 0.26400009 -0.84062839 181 153 145
-0.22049735 0.26563075 -0.84403002 173 150 141
-0.22065647 0.26481593 -0.84391469 177 155 142
-0.22051133 0.26601675 -0.84373367 174 151 142
-0.22089657 0.25979006 -0.84193814 153 121 123
-0.22090039 0.26147193 -0.84089023 164 133 132
-0.22088417 0.26071641 -0.84126747 159 128 128
-0.22094217 0.2619594 -0.84087622 168 137 135
