ply
format ascii 1.0
comment PCL generated
element vertex 825
property float x
property float y
property float z
property uchar red
property uchar green
property uchar blue
element camera 1
property float view_px
property float view_py
property float view_pz
property float x_axisx
property float x_axisy
property float x_axisz
property float y_axisx
property float y_axisy
property float y_axisz
property float z_axisx
property float z_axisy
property float z_axisz
property float focal
property float scalex
property float scaley
property float centerx
property float centery
property int viewportx
property int viewporty
property float k1
property float k2
end_header
0.21827871 -0.2061857 -0.89875644 135 103 97
0.21737416 -0.20976122 -0.89841938 128 85 86
0.21564148 -0.2165442 -0.89656699 118 75 86
0.21569392 -0.21673745 -0.89577949 115 72 84
0.21591882 -0.21472383 -0.89789784 121 80 83
0.21560165 -0.2164924 -0.89698142 119 76 87
0.21583362 -0.21586207 -0.89636958 117 75 82
0.21622169 -0.21422307 -0.89567351 116 76 76
0.21599254 -0.21523814 -0.8961966 116 75 80
0.21592478 -0.21583232 -0.895567 115 72 80
0.21523748 -0.21904585 -0.89712048 124 83 88
0.2148048 -0.22057053 -0.89843166 132 98 96
0.21510567 -0.22035947 -0.89674413 125 87 87
0.21527436 -0.21951947 -0.89645731 123 81 85
0.21530943 -0.21882665 -0.89687109 123 80 86
0.21491258 -0.21984798 -0.89841807 130 95 95
0.21542023 -0.2169763 -0.89766431 122 79 90
0.21534364 -0.2189348 -0.89652383 122 79 85
0.21547478 -0.21756779 -0.89670694 120 77 87
0.2153395 -0.21701705 -0.89826512 124 81 92
0.21541697 -0.21697833 -0.89768827 122 79 91
0.21433912 -0.22398071 -0.89764768 132 100 99
0.21450853 -0.22234593 -0.89844024 133 101 100
0.21417585 -0.22451827 -0.89840442 132 100 102
0.21455617 -0.22313318 -0.8968364 132 101 96
0.21451774 -0.22238153 -0.89830089 133 101 99
0.21511139 -0.22162044 -0.89519531 123 85 82
0.21482895 -0.22176491 -0.89677143 129 95 92
0.2149722 -0.22157726 -0.8961215 126 90 87
0.21530695 -0.2208624 -0.89496404 120 79 78
0.21470754 -0.22158569 -0.8977645 132 100 96
0.21365343 -0.22779946 -0.89687771 120 87 84
0.21365377 -0.22723766 -0.89838845 123 91 88
0.2134223 -0.22851463 -0.89826739 119 87 81
0.21350083 -0.22790033 -0.89879692 122 89 85
0.21351393 -0.22816573 -0.89789295 120 87 83
0.21392736 -0.22685668 -0.89586079 123 90 87
0.21387894 -0.22735593 -0.89526111 120 88 83
0.21439736 -0.225072 -0.8951959 130 98 91
0.21417625 -0.22604945 -0.89521658 126 94 88
0.21431577 -0.2253779 -0.89531946 128 97 91
0.21276309 -0.23153137 -0.89727771 123 88 86
0.21273021 -0.23151059 -0.89751548 123 88 86
0.21288721 -0.23186144 -0.8959837 121 84 84
0.21267338 -0.23106067 -0.89857811 124 91 88
0.21290468 -0.23081197 -0.89756715 123 89 86
0.21296796 -0.23017794 -0.89824611 124 91 86
0.21293437 -0.23188688 -0.89576977 120 83 83
0.21299696 -0.2310832 -0.89671081 121 85 84
0.21305844 -0.23164961 -0.89523995 118 81 81
0.21333505 -0.22939608 -0.89719987 119 85 81
0.21332201 -0.22993191 -0.89597666 118 83 80
0.21311076 -0.23135142 -0.89527369 118 81 81
0.21336885 -0.22996525 -0.89521605 117 82 79
0.21244405 -0.2348735 -0.89636302 115 73 78
0.21266136 -0.23338114 -0.89592254 118 79 81
0.21239859 -0.23246622 -0.89812332 123 88 87
0.21277776 -0.23273708 -0.89559132 119 81 83
0.21267664 -0.23347223 -0.89577127 118 78 81
0.21241486 -0.23561564 -0.89606059 113 71 77
0.21227531 -0.23328616 -0.89836222 121 86 86
0.21224219 -0.23511241 -0.89739007 116 79 81
0.21235326 -0.23365298 -0.89767295 119 82 84
0.21203682 -0.23601821 -0.89801091 114 82 82
0.212423 -0.23549652 -0.89608914 114 71 77
0.21181759 -0.23981084 -0.89727449 115 83 79
0.21211626 -0.23982042 -0.89582038 110 76 71
0.2116072 -0.24008343 -0.89815652 118 88 85
0.21196526 -0.23817527 -0.89739096 113 82 78
0.21163581 -0.23998912 -0.89806569 118 87 84
0.21167576 -0.23918656 -0.89828062 117 87 84
0.21209347 -0.23642644 -0.89744204 113 79 79
0.21242073 -0.23685192 -0.89535701 111 67 73
0.21203353 -0.23643231 -0.89778972 113 81 80
0.2121069 -0.23872817 -0.89642102 110 77 73
0.21212882 -0.23740907 -0.89683324 112 77 76
0.21214223 -0.23684373 -0.89698642 112 77 78
0.21194795 -0.24379666 -0.89564896 106 77 72
0.21149324 -0.24403721 -0.89775664 110 81 80
0.21144874 -0.24089327 -0.89869571 119 90 87
0.21159792 -0.2433036 -0.89742833 111 82 80
0.2114092 -0.24218342 -0.89858544 116 87 86
0.21151739 -0.24397744 -0.89765555 109 80 80
0.2120501 -0.24082901 -0.89580226 110 76 72
0.21183239 -0.2420589 -0.8965928 111 81 77
0.21183369 -0.24248508 -0.89649445 110 81 77
0.21181966 -0.24086574 -0.8969124 113 82 78
0.21162082 -0.24069917 -0.89791322 117 87 84
0.21205066 -0.24373753 -0.89517093 105 75 70
0.21138719 -0.24540263 -0.89789224 111 79 81
0.21142752 -0.24534856 -0.89771456 110 77 80
0.21135592 -0.24750431 -0.8974691 118 82 83
0.21125451 -0.24633943 -0.89826995 117 84 85
0.21119075 -0.24771316 -0.89819998 123 88 88
0.21146721 -0.24563661 -0.89744687 110 76 79
0.21161875 -0.24551079 -0.89676017 108 74 76
0.21167739 -0.24446449 -0.89676785 107 77 76
0.21151967 -0.24498428 -0.89737576 109 77 78
0.21142332 -0.24491814 -0.89785236 110 78 80
0.21177834 -0.24510571 -0.89611185 106 74 73
0.21195921 -0.2443677 -0.89545345 105 75 71
0.21120115 -0.25033319 -0.89763522 121 85 83
0.21134643 -0.25114954 -0.89672238 116 79 77
0.21107367 -0.24931833 -0.89847505 125 91 88
0.21127708 -0.25130197 -0.89708728 117 81 78
0.21118768 -0.25130656 -0.89758277 120 84 80
0.21162692 -0.25115734 -0.89524275 109 68 70
0.21167466 -0.24939689 -0.89546001 109 69 71
0.21149151 -0.24992719 -0.89619946 114 75 76
0.21159874 -0.25100899 -0.89541465 110 70 71
0.21129221 -0.24924007 -0.89732361 120 83 83
0.21152051 -0.2509262 -0.89580864 112 73 73
0.21099848 -0.2529383 -0.89834231 122 90 82
0.21087462 -0.25472361 -0.89867067 121 93 84
0.21093738 -0.2558029 -0.89809662 118 90 82
0.21094877 -0.25289151 -0.89863092 123 92 84
0.21100821 -0.25361216 -0.89814919 121 89 81
0.21100879 -0.25472525 -0.89791733 119 88 81
0.21152788 -0.25393957 -0.89518458 109 70 68
0.2112859 -0.25324863 -0.89667535 115 79 74
0.2113177 -0.25385544 -0.89636868 114 78 73
0.21107087 -0.2521514 -0.89810377 121 88 81
0.21108872 -0.25227499 -0.89797825 121 87 81
0.21156862 -0.25235257 -0.8952989 109 69 69
0.21109137 -0.2559762 -0.89717919 115 84 77
0.21125394 -0.25599021 -0.89626181 112 78 72
0.2182986 -0.19689025 -0.9112609 169 152 139
0.21949247 -0.19412705 -0.91072363 160 137 124
0.21857014 -0.19650048 -0.91091627 167 149 135
0.21952221 -0.19340476 -0.9112491 160 138 126
0.21892636 -0.1936263 -0.91245371 167 147 137
0.21708213 -0.20083489 -0.91274071 174 157 154
0.21726011 -0.20105514 -0.91206896 172 153 150
0.21801783 -0.19942755 -0.9105919 168 147 138
0.21789882 -0.19833985 -0.91144902 170 152 142
0.21761388 -0.19950612 -0.91159576 170 151 145
0.2181423 -0.19755666 -0.91121566 169 152 140
0.21761779 -0.20017456 -0.91124785 169 149 144
0.21627679 -0.20458408 -0.91281366 173 155 154
0.21684431 -0.20188309 -0.91311479 175 159 157
0.21717219 -0.20170647 -0.91206199 172 153 151
0.21725714 -0.20268479 -0.9112637 169 148 146
0.21743889 -0.20170608 -0.91114646 169 148 145
0.21714965 -0.20273505 -0.91160685 170 150 148
0.21656096 -0.20665251 -0.91147506 166 144 138
0.21596965 -0.20682737 -0.91187346 167 145 141
0.21546555 -0.20828702 -0.91153932 165 139 135
0.21538116 -0.20853189 -0.91157842 165 139 135
0.21693337 -0.20546496 -0.91118878 167 146 142
0.21412431 -0.21267703 -0.9117766 165 146 148
0.21474706 -0.21274555 -0.9106468 162 142 141
0.21567848 -0.2098835 -0.91069615 161 135 129
0.21451856 -0.21188191 -0.9113031 164 145 145
0.21495557 -0.21160071 -0.91087306 162 141 139
0.21497607 -0.21201245 -0.91067147 162 140 138
0.21541366 -0.2097384 -0.91109145 163 137 133
0.21315503 -0.21678698 -0.91216612 167 148 153
0.21351717 -0.21606681 -0.91124052 165 144 150
0.21374992 -0.21624123 -0.91070396 164 142 147
0.21392696 -0.21560599 -0.91070676 163 142 146
0.21408346 -0.21531205 -0.91057086 163 142 145
0.21299849 -0.22047505 -0.91076702 163 151 145
0.21329056 -0.21837495 -0.91093034 164 147 148
0.21307018 -0.21726955 -0.91218114 167 149 153
0.21271311 -0.22271796 -0.91060001 157 145 137
0.21248452 -0.22269893 -0.9109056 157 145 140
0.21174683 -0.22350389 -0.91141373 156 144 142
0.21209238 -0.22430949 -0.91080892 153 140 135
0.21224968 -0.22235222 -0.91125435 159 147 144
0.20778356 -0.2465371 -0.91071022 155 143 150
0.21834591 -0.2048181 -0.90115559 137 106 103
0.2184229 -0.2030181 -0.90217936 131 100 98
0.21845789 -0.20384087 -0.90092361 134 104 99
0.21852414 -0.20474787 -0.89922881 137 108 101
0.2184753 -0.20491253 -0.89960444 138 108 102
0.21835448 -0.20432518 -0.90157646 135 104 102
0.21798949 -0.2059281 -0.90261525 138 105 103
0.21790406 -0.20657392 -0.90190774 136 102 100
0.21752244 -0.2083704 -0.90141946 136 101 94
0.21778548 -0.20765273 -0.90047789 133 95 94
0.21772891 -0.20701747 -0.90261912 139 106 100
0.21777926 -0.20723261 -0.90157336 136 101 97
0.21833883 -0.20546082 -0.89997143 137 106 101
0.21816155 -0.20551094 -0.90183145 137 104 103
0.21842189 -0.20523787 -0.89961636 138 108 102
0.21801279 -0.20662375 -0.90061998 134 99 98
0.21822558 -0.20512135 -0.90212137 138 106 105
0.21661083 -0.21148844 -0.90017653 132 93 86
0.21650518 -0.21193412 -0.89963758 129 89 83
0.21648426 -0.21198112 -0.8997007 129 89 83
0.21623266 -0.21249473 -0.90025538 128 91 85
0.21590811 -0.21265133 -0.90239376 134 101 96
0.21635082 -0.21164393 -0.90205306 135 102 93
0.21623069 -0.21261469 -0.89988226 127 89 83
0.21737045 -0.20906538 -0.90119147 136 100 92
0.21714947 -0.20937842 -0.90237099 139 106 94
0.21688811 -0.21067551 -0.90021169 134 94 88
0.21702017 -0.21033671 -0.90011668 133 93 89
0.21688928 -0.21100123 -0.89885658 130 86 85
0.21543361 -0.21541499 -0.90053183 128 91 95
0.21529803 -0.21595848 -0.90076816 125 90 94
0.21548994 -0.21496564 -0.90096611 129 93 96
0.21516939 -0.21664102 -0.90059501 123 89 93
0.2150429 -0.21667278 -0.90194726 120 93 91
0.21554089 -0.21445681 -0.90160275 130 96 96
0.21590026 -0.21352328 -0.90041673 128 91 89
0.21581188 -0.21313381 -0.90191561 132 98 95
0.21572156 -0.21493079 -0.8990618 125 84 88
0.21563071 -0.21411447 -0.90143359 131 96 96
0.21562561 -0.21490258 -0.89990073 128 88 92
0.21465096 -0.21963432 -0.90096009 132 104 102
0.21464019 -0.22040251 -0.8999235 134 104 102
0.21451524 -0.21927959 -0.90256745 133 109 109
0.21442141 -0.22037527 -0.90171796 138 112 113
0.21453196 -0.22036403 -0.90084779 136 108 108
0.21511357 -0.21785162 -0.8991133 127 89 95
0.21515091 -0.21750182 -0.89926887 126 87 95
0.21503976 -0.21725802 -0.90092599 123 92 92
0.21478847 -0.21973637 -0.89967293 130 100 96
0.21488045 -0.21837489 -0.90088123 125 97 93
0.213998 -0.22450365 -0.90025896 135 102 107
0.21399982 -0.22306688 -0.90214694 140 110 114
0.21397348 -0.22294158 -0.90259922 141 111 115
0.21388192 -0.22395171 -0.90225124 140 108 112
0.2139996 -0.22396505 -0.90095669 137 105 110
0.21425384 -0.22225043 -0.90066046 137 109 111
0.21452196 -0.22143187 -0.89952701 135 104 104
0.21452756 -0.22142366 -0.8994922 135 104 103
0.21439509 -0.22146976 -0.90049738 137 108 109
0.21458471 -0.22088684 -0.89970076 135 105 104
0.21288703 -0.2282695 -0.90258312 132 113 97
0.21363051 -0.22564057 -0.90189242 136 103 104
0.21343078 -0.22622529 -0.90229106 135 107 104
0.21357095 -0.2261849 -0.90139925 133 100 100
0.21349376 -0.22725199 -0.90016174 127 94 91
0.21309404 -0.22810449 -0.90148515 129 105 93
0.21351981 -0.2273284 -0.89976436 125 93 90
0.21378487 -0.22523731 -0.90115082 135 102 105
0.21390945 -0.22511204 -0.90005463 133 100 103
0.21377303 -0.22498903 -0.90178543 137 104 107
0.21369302 -0.22659856 -0.8993727 127 94 93
0.21365809 -0.22637336 -0.90021074 129 97 96
0.21258934 -0.23070006 -0.89994937 126 97 90
0.21277568 -0.23049287 -0.89883512 125 93 89
0.21281859 -0.22888741 -0.90181202 129 108 93
0.21280313 -0.22879508 -0.90207332 130 110 94
0.21233097 -0.23202048 -0.89939725 124 92 89
0.2123647 -0.23110247 -0.9018023 125 101 93
0.21255609 -0.23016578 -0.90136456 128 104 93
0.21250838 -0.23028223 -0.90185976 127 105 93
0.21246187 -0.23057815 -0.90174073 126 103 93
0.21213549 -0.23218758 -0.90244758 121 99 92
0.21305923 -0.22863741 -0.9006741 126 101 89
0.2130283 -0.22941267 -0.89925003 124 94 87
0.21160206 -0.23507535 -0.90227199 124 100 96
0.21184435 -0.23569521 -0.89981604 117 90 87
0.21195957 -0.23366648 -0.90182108 119 96 91
0.21172021 -0.23591362 -0.9003424 119 93 89
0.21196121 -0.23394431 -0.90143085 118 95 90
0.21189497 -0.23415446 -0.90158385 119 96 91
0.21206121 -0.23450235 -0.89885318 119 88 86
0.21216182 -0.23292911 -0.90016824 121 92 89
0.21195328 -0.23540446 -0.8990249 116 88 85
0.21210355 -0.23353963 -0.9000122 120 91 88
0.21212874 -0.23266245 -0.90131497 120 95 91
0.21105558 -0.23900476 -0.90231359 130 105 100
0.21118431 -0.23926231 -0.90128291 127 101 97
0.21120134 -0.23821498 -0.90190208 128 103 98
0.21121013 -0.2401751 -0.90047431 125 98 94
0.21126705 -0.23896308 -0.90094507 126 99 95
0.21145844 -0.23936951 -0.89939469 121 93 90
0.21147075 -0.23923503 -0.89940673 121 93 90
0.21184169 -0.23650765 -0.8988443 115 87 84
0.21146883 -0.23912826 -0.89949393 121 93 90
0.21155232 -0.23771803 -0.89992255 121 93 90
0.21153775 -0.23892917 -0.89917487 120 91 88
0.2109378 -0.24184862 -0.9016965 127 101 99
0.21078949 -0.24297261 -0.902264 131 104 106
0.21095641 -0.24334361 -0.90106672 124 97 99
0.21097422 -0.24170324 -0.9015125 126 100 98
0.21091513 -0.24171701 -0.90188682 128 102 100
0.21107696 -0.24169379 -0.90084404 123 96 94
0.21093166 -0.24072312 -0.90211636 129 104 100
0.21122822 -0.24186255 -0.89979017 120 92 90
0.21108033 -0.2419482 -0.90074009 122 95 94
0.21121038 -0.2404495 -0.90036219 125 97 94
0.21052843 -0.24629629 -0.90257943 137 115 114
0.2107254 -0.24628469 -0.90142035 133 106 107
0.21065255 -0.24783482 -0.90120596 135 111 107
0.21054639 -0.2457763 -0.90268964 136 114 114
0.21068624 -0.24681751 -0.90143001 134 108 107
0.21086837 -0.2448433 -0.90110189 127 99 102
0.21082382 -0.24545661 -0.9011631 130 101 104
0.21073329 -0.2446932 -0.90202326 132 105 109
0.21100686 -0.24535833 -0.90002501 123 94 96
0.21084698 -0.24568069 -0.90093255 130 100 103
0.21064308 -0.2515541 -0.90057528 130 103 95
0.2104709 -0.25159079 -0.90150833 133 108 101
0.21081944 -0.25142336 -0.89963853 127 98 90
0.21056496 -0.24961868 -0.90139729 135 112 105
0.21061139 -0.24972178 -0.90112257 134 111 103
0.21076524 -0.25023526 -0.90014708 130 103 96
0.21072973 -0.24881321 -0.90055472 133 107 102
0.21091861 -0.24946755 -0.8993476 128 97 93
0.21072251 -0.24975102 -0.90046704 132 106 99
0.21094203 -0.25181085 -0.8988831 125 93 85
0.21053538 -0.25577003 -0.9006784 123 100 93
0.21039666 -0.25533324 -0.90162838 125 103 97
0.21058826 -0.25480708 -0.90031028 125 101 93
0.21031214 -0.25362772 -0.90219957 130 109 102
0.21059953 -0.25447032 -0.90023118 126 101 93
0.21073537 -0.25439382 -0.8995015 124 97 89
0.21078801 -0.2522476 -0.89964312 126 97 89
0.21070725 -0.25290066 -0.89995366 127 99 91
0.21076155 -0.2528511 -0.89966697 126 97 89
0.21057224 -0.25252682 -0.90076596 129 103 96
0.21026061 -0.2573252 -0.90212595 122 102 99
0.21023095 -0.25769785 -0.90219301 122 101 99
0.21032079 -0.25712278 -0.90181762 122 101 98
0.21033005 -0.25773036 -0.90157139 121 99 98
0.21018837 -0.25804991 -0.90234625 122 101 100
0.21036503 -0.25891915 -0.90098578 119 96 96
0.21035816 -0.25623041 -0.90180862 123 102 97
0.21618301 -0.21967229 -0.89080191 102 59 64
0.21655804 -0.21903035 -0.88969839 98 54 57
0.21645583 -0.21982478 -0.8897782 98 55 59
0.21630341 -0.21992329 -0.8902595 100 57 61
0.2162742 -0.22205991 -0.88944077 99 56 57
0.21616843 -0.22246493 -0.88960135 100 58 58
0.21581237 -0.22261694 -0.89072847 105 63 64
0.21610497 -0.22234666 -0.88987267 101 59 59
0.21637242 -0.22204982 -0.88915122 98 55 56
0.21291173 -0.24743675 -0.89065087 85 49 44
0.21269761 -0.25007692 -0.89088547 84 43 45
0.21276325 -0.2497668 -0.8907274 83 44 44
0.21188454 -0.26293486 -0.89090121 90 58 51
0.21231666 -0.26357824 -0.8893882 83 49 40
0.21255507 -0.2630609 -0.88877422 80 44 35
0.21263644 -0.2627427 -0.88859785 79 42 34
0.21204054 -0.26298109 -0.89038056 87 55 48
0.21195424 -0.26467401 -0.89030457 87 56 50
0.21807945 -0.20492774 -0.90366822 142 109 109
0.21815568 -0.2043197 -0.90373862 143 111 110
0.21803975 -0.20493059 -0.90396744 143 111 110
0.2181246 -0.20421216 -0.90409034 144 112 112
0.21836637 -0.20275542 -0.90311021 133 102 100
0.21726115 -0.20861226 -0.90356106 142 111 97
0.21744919 -0.2066984 -0.90577739 149 117 109
0.21716428 -0.20816115 -0.9064821 144 118 100
0.21756756 -0.20591915 -0.9059692 152 118 113
0.2173788 -0.20751321 -0.90466976 146 114 104
0.21708716 -0.20874628 -0.90613794 142 117 97
0.21752582 -0.20715758 -0.90394062 144 112 104
0.21751861 -0.20666231 -0.90489656 148 115 108
0.21788815 -0.20560071 -0.90401345 143 111 108
0.21777904 -0.20593318 -0.90423965 145 112 108
0.217537 -0.20736448 -0.90347916 142 110 102
0.21652593 -0.21076694 -0.90426946 140 110 97
0.21626236 -0.21162914 -0.9029181 138 106 96
0.21630885 -0.21124864 -0.90470046 139 110 98
0.21671031 -0.21021016 -0.90490127 142 113 97
0.21634364 -0.21074282 -0.9065519 145 117 105
0.21572889 -0.21269219 -0.90396369 139 107 103
0.21608904 -0.21188296 -0.90407091 138 108 98
0.21609704 -0.211431 -0.90591079 144 115 106
0.21619099 -0.21145037 -0.90496302 140 111 100
0.21693142 -0.20931835 -0.90644056 142 117 97
0.21695033 -0.20955829 -0.90478128 142 113 97
0.21701096 -0.20940004 -0.90464318 142 113 96
0.21477205 -0.21535999 -0.90644306 150 124 121
0.21493644 -0.2150721 -0.9057796 144 117 115
0.21498293 -0.21630007 -0.90333658 123 99 94
0.21469074 -0.21673234 -0.90465254 136 112 107
0.21518862 -0.21422569 -0.90545899 140 112 111
0.21495394 -0.21632737 -0.90349394 125 101 96
0.21550086 -0.21370728 -0.9036364 135 105 101
0.21551897 -0.21403939 -0.9028241 130 101 96
0.21568301 -0.21307689 -0.90318334 135 104 100
0.2152461 -0.21449693 -0.90444911 135 107 104
0.21525773 -0.21401109 -0.90528625 140 111 110
0.21550396 -0.21327616 -0.90444601 139 109 106
0.2141573 -0.2192667 -0.90538204 151 125 125
0.21394572 -0.21975642 -0.90660292 155 126 129
0.2142216 -0.21948045 -0.90451759 148 123 124
0.21420234 -0.21954209 -0.90460545 148 123 124
0.21431483 -0.2177939 -0.90598148 152 127 125
0.21400303 -0.22035226 -0.90528071 151 123 127
0.21439551 -0.21913572 -0.90361685 141 117 117
0.21452954 -0.21733218 -0.90499002 142 118 114
0.2145634 -0.21805105 -0.90382719 136 112 110
0.21464406 -0.2184253 -0.90277714 129 105 103
0.2143341 -0.21956636 -0.90349627 142 118 119
0.21378991 -0.22101788 -0.90636092 154 124 129
0.21344981 -0.22455387 -0.90557241 148 125 119
0.21343464 -0.2237577 -0.90657985 151 130 123
0.2134186 -0.22411145 -0.90633821 150 129 122
0.21347854 -0.22360802 -0.90634644 151 128 123
0.21381615 -0.22245491 -0.90455782 148 116 121
0.21379107 -0.22327423 -0.90388715 145 113 118
0.21410084 -0.22156318 -0.90299165 143 116 120
0.21413782 -0.22088182 -0.90340555 145 119 123
0.21397844 -0.22173321 -0.90389794 146 117 122
0.21289021 -0.2281096 -0.90296268 134 115 99
0.21280329 -0.22729903 -0.90585279 147 132 118
0.21271338 -0.22796591 -0.90464109 141 124 109
0.21272002 -0.2279962 -0.90451545 140 124 108
0.21335733 -0.22555187 -0.90465486 146 121 117
0.21290259 -0.22675335 -0.90660912 151 136 123
0.21336091 -0.22547936 -0.90475261 146 121 117
0.21328755 -0.22647904 -0.90293187 137 111 105
0.21339263 -0.22587284 -0.90341288 140 113 110
0.2130025 -0.22676405 -0.90543383 147 128 117
0.21306358 -0.22710375 -0.90377516 139 118 107
0.21326962 -0.22596309 -0.90458453 145 121 116
0.21177483 -0.23100866 -0.90578496 139 121 115
0.21177766 -0.23203607 -0.90461004 130 110 106
0.21210364 -0.23090409 -0.90432692 132 113 105
0.21188256 -0.23197263 -0.90417886 128 108 103
0.21185488 -0.23123173 -0.90514898 135 116 111
0.21206029 -0.23025437 -0.90526915 138 121 113
0.21210589 -0.23207916 -0.9029544 122 101 94
0.21228197 -0.23126589 -0.90275317 123 103 94
0.21234073 -0.23059405 -0.90315831 127 108 97
0.21233574 -0.22897954 -0.90509468 141 124 113
0.21213007 -0.23085262 -0.90424132 131 113 105
0.21119592 -0.2337013 -0.90574145 137 117 115
0.21126169 -0.23459162 -0.90451354 134 112 109
0.21079415 -0.23623359 -0.90540045 137 114 111
0.21101676 -0.23611066 -0.9043299 133 110 107
0.21112284 -0.23393539 -0.90590227 138 117 115
0.21109289 -0.23422052 -0.90578204 137 117 115
0.21149005 -0.23400097 -0.90399641 130 108 104
0.21164189 -0.23351274 -0.9037497 127 106 102
0.21131904 -0.23559174 -0.90324843 129 106 103
0.21180584 -0.23354487 -0.90293205 123 101 96
0.21154748 -0.23365952 -0.90405762 129 108 104
0.21056107 -0.23727868 -0.90599376 140 117 115
0.21041399 -0.23746255 -0.90661508 142 120 119
0.21063663 -0.23820399 -0.90506589 138 115 112
0.21049647 -0.23828581 -0.90571368 140 118 116
0.21046513 -0.23803902 -0.90601683 141 119 117
0.21060683 -0.23960853 -0.90437567 137 114 111
0.21081102 -0.23677513 -0.90496421 136 113 110
0.21059829 -0.23643667 -0.90629435 140 117 115
0.21088809 -0.23962475 -0.90293914 133 108 103
0.2109869 -0.23763502 -0.9035362 132 108 104
0.21088959 -0.23903555 -0.90326446 133 108 104
0.21086214 -0.23918755 -0.90332538 133 109 104
0.21032524 -0.24317569 -0.90467322 140 117 119
0.21054551 -0.24348623 -0.90344971 136 111 115
0.21011402 -0.24273083 -0.90587968 144 123 123
0.21024701 -0.24338955 -0.90503478 142 119 121
0.21013097 -0.24108514 -0.90616149 145 123 124
0.21035019 -0.24289057 -0.90460682 140 116 119
0.21066995 -0.2408728 -0.90351957 135 111 109
0.21082015 -0.24090485 -0.9027645 133 108 104
0.21058157 -0.24048932 -0.90406036 137 114 111
0.21079071 -0.24109392 -0.90286076 133 108 105
0.21065038 -0.24349938 -0.9029218 134 108 112
0.21012679 -0.24043202 -0.90633619 145 124 124
0.20995831 -0.24748671 -0.90529102 146 132 126
0.21013175 -0.24723391 -0.90439087 144 128 122
0.20982304 -0.24685052 -0.9062584 147 134 128
0.20983648 -0.24661152 -0.90625858 147 133 128
0.20987496 -0.24576543 -0.9063105 147 131 127
0.21043332 -0.24696016 -0.90285027 139 120 116
0.2101714 -0.24478662 -0.90502346 143 122 121
0.21031472 -0.24498476 -0.90419972 140 118 119
0.21043822 -0.24581963 -0.90324515 138 117 116
0.21022761 -0.24429835 -0.90490907 142 119 120
0.21033497 -0.24752285 -0.90315783 141 124 117
0.20969813 -0.24866135 -0.90649527 147 136 130
0.21008499 -0.25092632 -0.90379041 139 120 113
0.21009184 -0.25167391 -0.90364712 138 118 112
0.20986784 -0.24946709 -0.90533406 144 130 123
0.20998369 -0.2512995 -0.90436828 139 121 116
0.21018967 -0.25070179 -0.90324342 138 119 112
0.20990142 -0.24953791 -0.90511924 143 129 122
0.21000427 -0.24861485 -0.9047327 144 130 123
0.21028435 -0.25022212 -0.90280938 138 118 111
0.21015865 -0.24893799 -0.90379167 142 125 118
0.2099928 -0.24857719 -0.9048056 144 130 123
0.20972373 -0.25475234 -0.90592545 137 121 120
0.20975426 -0.2547549 -0.9057343 136 120 119
0.20967723 -0.25270435 -0.90618694 140 125 123
0.2097137 -0.25363526 -0.90597212 138 123 121
0.21010064 -0.25560218 -0.9035778 128 109 106
0.2101274 -0.25351816 -0.90339637 132 113 107
0.20984285 -0.25313428 -0.90515918 137 120 117
0.21021347 -0.25471643 -0.90286827 128 108 103
0.21018517 -0.25222787 -0.90303189 135 114 108
0.20997818 -0.2524648 -0.90431666 137 119 114
0.21012314 -0.25501657 -0.90342987 128 110 105
0.20946528 -0.25840911 -0.90658283 137 121 123
0.20981644 -0.25820231 -0.90460032 129 110 111
0.20942912 -0.25921947 -0.90650308 136 120 122
0.20954838 -0.2596904 -0.90563506 133 115 117
0.20956779 -0.25946489 -0.90560251 133 115 117
0.210039 -0.2566396 -0.90372103 127 108 106
0.2099873 -0.25861207 -0.903422 125 104 105
0.20982288 -0.25772732 -0.9047308 130 111 112
0.20998433 -0.2574822 -0.90379721 127 107 107
0.21014015 -0.25702053 -0.90296739 124 105 102
0.20971443 -0.26302755 -0.90400463 122 108 100
0.20957327 -0.26193044 -0.90503585 128 113 109
0.20971026 -0.26232344 -0.90418613 123 109 101
0.20933576 -0.26094216 -0.90657794 136 121 122
0.20930217 -0.2618022 -0.90657133 136 121 122
0.20975266 -0.26349381 -0.90368736 120 107 97
0.20993768 -0.25976801 -0.90332717 124 103 104
0.20995037 -0.26116666 -0.90299684 120 102 98
0.20945373 -0.25987443 -0.90614247 134 118 119
0.20981906 -0.26104838 -0.90378767 124 106 102
0.20970178 -0.26108295 -0.90446824 126 109 106
0.20990947 -0.26012942 -0.90342629 124 103 103
0.219087 -0.1958693 -0.90938079 160 139 125
0.21885534 -0.19645585 -0.90958989 162 142 128
0.21906912 -0.19562565 -0.91028005 162 141 127
0.21877865 -0.19662364 -0.90973943 163 144 129
0.21930757 -0.19558831 -0.90833354 155 134 120
0.21908073 -0.19556434 -0.91036713 162 141 127
0.21978582 -0.19360076 -0.91023719 156 132 119
0.21937619 -0.19531383 -0.90856218 155 133 119
0.21783888 -0.20061271 -0.9102819 167 144 139
0.217856 -0.20083477 -0.90982974 166 142 137
0.21816036 -0.19981819 -0.90904158 164 140 133
0.21810383 -0.20008144 -0.90907931 164 140 133
0.2182965 -0.19924489 -0.90886247 164 140 131
0.21851552 -0.19909239 -0.90724975 158 134 125
0.21861145 -0.19872613 -0.90698224 157 134 123
0.21863848 -0.19825652 -0.90746874 158 136 124
0.21846128 -0.19907899 -0.90773904 160 136 127
0.21863826 -0.19835263 -0.90732324 158 135 124
0.21845131 -0.19755425 -0.91016281 167 148 133
0.21753685 -0.202833 -0.90989953 165 141 137
0.21725439 -0.2042637 -0.91036242 165 143 141
0.21764469 -0.20297104 -0.90900689 162 135 132
0.21734653 -0.20377627 -0.9102332 165 143 140
0.21761183 -0.20479488 -0.90732682 157 125 123
0.21777505 -0.20146966 -0.90962929 165 140 136
0.21778607 -0.20173599 -0.90926737 164 138 135
0.21779266 -0.20144305 -0.90952563 165 140 136
0.21791707 -0.20224781 -0.90775174 160 131 128
0.21777914 -0.2013974 -0.90967441 165 140 137
0.21662939 -0.20809147 -0.91005695 159 132 122
0.21676828 -0.20762874 -0.91017801 160 134 124
0.21688144 -0.20866612 -0.90820628 149 124 106
0.21697424 -0.20618694 -0.9103108 163 140 134
0.2169562 -0.20800535 -0.90830761 151 126 111
0.2169167 -0.20706798 -0.90974188 159 135 125
0.21708767 -0.20851021 -0.9067046 143 118 99
0.21731995 -0.20631088 -0.90763229 153 126 117
0.21720132 -0.20588832 -0.90894324 158 134 128
0.2174561 -0.20618318 -0.90683514 151 121 113
0.21732844 -0.20599028 -0.90794349 155 128 121
0.21714441 -0.20610133 -0.90909207 158 135 128
0.21662523 -0.21009231 -0.9066844 144 118 101
0.21544257 -0.21267144 -0.90667135 149 119 118
0.21577309 -0.2111446 -0.90813988 153 123 119
0.21607016 -0.21022868 -0.90872073 154 125 117
0.21574949 -0.21092154 -0.90854889 155 125 121
0.21529938 -0.21203642 -0.90895337 156 130 128
0.21571936 -0.21020113 -0.91034061 160 133 128
0.21503063 -0.21247232 -0.90978193 159 136 135
0.21559586 -0.21084055 -0.90970087 158 131 127
0.21568763 -0.21100433 -0.90869135 155 126 122
0.21524794 -0.21196386 -0.90947449 158 133 131
0.21688226 -0.20931585 -0.90698016 144 119 99
0.21425757 -0.2166727 -0.9075731 156 132 130
0.21393131 -0.21602145 -0.91035932 163 141 145
0.21403457 -0.21586135 -0.91004068 162 140 143
0.21443503 -0.21554357 -0.90833861 157 135 132
0.21468392 -0.2137697 -0.90970492 160 139 137
0.21481061 -0.21346517 -0.9093557 158 136 135
0.21464233 -0.2144469 -0.90886575 158 136 133
0.21469046 -0.21397153 -0.9093315 159 137 135
0.21488358 -0.21441035 -0.90727365 153 127 125
0.21475053 -0.21417663 -0.90857661 157 134 132
0.21470338 -0.21447414 -0.90840185 157 133 131
0.21335959 -0.22033054 -0.90916967 160 141 140
0.21313892 -0.22053482 -0.9101131 162 147 143
0.21329732 -0.22045808 -0.90937662 160 142 140
0.21344432 -0.21902649 -0.90984571 162 142 143
0.21358317 -0.21939231 -0.90883321 160 137 139
0.21420601 -0.21782175 -0.90680861 154 129 127
0.21390699 -0.21705787 -0.90908206 160 137 139
0.21402901 -0.21874115 -0.90700948 155 129 130
0.21381302 -0.22028373 -0.90690339 156 127 131
0.21374664 -0.21832733 -0.90889961 160 135 140
0.21388724 -0.216961 -0.90927088 160 137 140
0.21231608 -0.22457173 -0.91046315 152 139 131
0.21307121 -0.22360289 -0.90874034 154 139 129
0.21289712 -0.22295955 -0.91015971 156 144 135
0.21296738 -0.22238205 -0.90997922 158 145 137
0.21315446 -0.22363324 -0.90818614 154 138 128
0.21348242 -0.222528 -0.90711683 154 131 128
0.21347697 -0.22149093 -0.9077785 157 134 133
0.21309431 -0.22100706 -0.91001052 161 148 142
0.21335846 -0.22387952 -0.90691769 152 132 124
0.21363756 -0.22146833 -0.9069798 155 129 130
0.21343404 -0.22343108 -0.90680951 152 131 125
0.21265431 -0.22655231 -0.90770036 151 137 125
0.21267028 -0.22715029 -0.90687573 151 136 124
0.21251284 -0.22655174 -0.90810853 151 137 126
0.21260816 -0.22577441 -0.90874839 151 137 126
0.21199493 -0.2280401 -0.90767109 150 135 127
0.21200113 -0.22721127 -0.90852571 150 136 129
0.21152006 -0.22812113 -0.90891546 151 134 132
0.21155235 -0.22810969 -0.90883702 151 134 132
0.21183534 -0.22800256 -0.90815741 150 135 129
0.21162963 -0.22794205 -0.90879703 151 135 131
0.21289392 -0.22533524 -0.90851063 151 138 125
0.21289596 -0.22598749 -0.90765285 151 137 125
0.21069208 -0.23206353 -0.90858787 146 129 130
0.21092542 -0.23009275 -0.90913564 147 129 132
0.21084923 -0.23025474 -0.90926236 148 130 132
0.21083516 -0.23023033 -0.90932024 148 130 133
0.21096522 -0.23118813 -0.90832078 145 127 128
0.21056765 -0.23056735 -0.90991193 150 133 136
0.21199544 -0.22880083 -0.90698093 149 133 125
0.21185574 -0.22939608 -0.90697908 147 131 125
0.21130657 -0.22993492 -0.90816104 147 129 128
0.21146655 -0.23070335 -0.90720576 144 127 124
0.21205297 -0.22874534 -0.90685648 149 134 125
0.21186779 -0.22935097 -0.90697515 148 131 125
0.21008176 -0.23476011 -0.90893143 148 130 131
0.20974642 -0.2358508 -0.90939623 150 134 136
0.20987296 -0.23397861 -0.91000378 151 136 138
0.21022138 -0.23465107 -0.90855283 146 128 129
0.20979334 -0.2358236 -0.90926397 150 133 135
0.20991364 -0.23463193 -0.90952629 150 133 136
0.21058755 -0.23418643 -0.90769845 143 124 124
0.21047413 -0.2339901 -0.90814859 145 126 126
0.21061437 -0.23331638 -0.90809935 145 126 127
0.21073267 -0.23390552 -0.90741688 142 123 123
0.21075557 -0.23336837 -0.90764523 143 124 124
0.20932539 -0.23882411 -0.9097259 154 138 142
0.2099009 -0.24009489 -0.90730596 148 128 129
0.20919023 -0.23792231 -0.91046822 156 141 146
0.20904952 -0.23960912 -0.9104839 157 141 147
0.20932968 -0.23742023 -0.91011542 154 139 144
0.20965709 -0.23856664 -0.9086166 151 133 136
0.21021751 -0.23775806 -0.90712863 144 124 123
0.21033399 -0.23683897 -0.9071095 143 122 121
0.21007577 -0.23982742 -0.90679449 146 126 126
0.21023367 -0.23821607 -0.90690583 144 123 123
0.2099283 -0.23662865 -0.90845817 147 129 131
0.20886767 -0.24214001 -0.91034114 157 143 148
0.20933767 -0.24345037 -0.90877229 153 138 140
0.20913973 -0.24397254 -0.90939015 155 142 145
0.20931657 -0.24400747 -0.90875798 153 139 141
0.20935708 -0.24275067 -0.90881544 153 136 139
0.20943551 -0.24354713 -0.90841019 152 136 137
0.20992641 -0.24365291 -0.90665019 147 127 126
0.20984507 -0.24258293 -0.90710491 148 128 129
0.20974706 -0.24171408 -0.90758824 150 130 131
0.20923723 -0.2402847 -0.90962809 155 137 142
0.20930409 -0.24025661 -0.90939361 154 136 140
0.21002381 -0.24101201 -0.90670788 147 126 126
0.20832212 -0.24536127 -0.91039413 156 144 150
0.20826459 -0.24691357 -0.91027516 154 142 148
0.20883207 -0.24539758 -0.9098919 155 144 148
0.20947297 -0.24777783 -0.90750456 150 140 136
0.2095983 -0.24796267 -0.90699703 149 139 133
0.2091987 -0.24776272 -0.90855753 152 141 141
0.20905741 -0.24767433 -0.9091118 152 142 144
0.20979598 -0.24454254 -0.90695775 148 130 129
0.20938618 -0.24496898 -0.90832466 152 139 139
0.20942405 -0.24432856 -0.90831834 152 137 138
0.20964831 -0.24684379 -0.90702176 149 137 133
0.20973621 -0.24530309 -0.90701777 149 133 131
0.20808153 -0.24905773 -0.91034675 151 139 147
0.20801972 -0.25115788 -0.91050267 149 136 144
0.20822085 -0.25119141 -0.91028666 149 136 144
0.20870098 -0.25001636 -0.90970236 150 138 143
0.20931335 -0.25119323 -0.9079197 146 132 133
0.20930661 -0.25161105 -0.90795624 145 131 133
0.20913267 -0.2500914 -0.90870756 149 136 138
0.20916858 -0.24939528 -0.90853661 149 137 139
0.20946161 -0.25017413 -0.90733099 146 134 132
0.20922436 -0.24924149 -0.90831769 149 137 138
0.20955521 -0.249771 -0.90700597 146 134 131
0.20964952 -0.24913104 -0.90669805 147 136 130
0.20791021 -0.25408131 -0.91031528 145 132 140
0.20796235 -0.25231257 -0.91054416 148 134 143
0.20819397 -0.25533041 -0.90990937 143 130 137
0.20878394 -0.25412378 -0.90944302 144 131 136
0.20899664 -0.25461611 -0.90917611 143 130 134
0.20900895 -0.25216645 -0.90928566 147 132 138
0.20919318 -0.25494733 -0.90837061 142 127 131
0.20920768 -0.25286964 -0.90841174 145 129 134
0.20958176 -0.25447434 -0.90676153 139 124 125
0.20943916 -0.25318065 -0.90738362 142 127 129
0.20957786 -0.25372517 -0.90677118 140 126 126
0.20865807 -0.2558614 -0.90944642 142 129 134
0.20891292 -0.25711134 -0.90893191 141 127 131
0.20912695 -0.2595931 -0.90769511 138 123 125
0.20903422 -0.25943089 -0.90811622 138 124 126
0.20933232 -0.25774235 -0.90729517 138 123 125
0.20953487 -0.25588882 -0.90694129 138 122 125
0.20939641 -0.25797939 -0.90698141 138 122 124
0.20920709 -0.25789163 -0.90775812 139 124 127
0.20879473 -0.26164874 -0.90823948 138 124 127
0.20871156 -0.26362059 -0.90809017 137 124 127
0.20890158 -0.26023594 -0.90828836 138 124 127
0.20902625 -0.26320714 -0.90760481 137 123 125
0.20910639 -0.26111349 -0.90751481 137 123 125
0.20922053 -0.26278931 -0.90676177 136 122 123
0.20907435 -0.26058578 -0.90773576 138 124 125
0.2088403 -0.26447737 -0.9079842 136 123 125
0.20908979 -0.26533619 -0.90733206 134 120 123
0.20906018 -0.26370773 -0.90738392 136 123 124
0.21659046 -0.21434355 -0.89283133 109 65 65
0.21657906 -0.21543264 -0.89187479 105 61 62
0.21610002 -0.2165826 -0.89349693 109 66 73
0.21607475 -0.21580796 -0.89439899 112 70 76
0.21618484 -0.21471429 -0.89490736 114 74 76
0.21622528 -0.21483684 -0.89457327 113 73 74
0.21607058 -0.21661618 -0.89361811 109 67 74
0.21628532 -0.21675503 -0.89235276 105 63 68
0.21549721 -0.21972001 -0.89468819 117 74 78
0.21576545 -0.21813774 -0.89415389 112 69 78
0.2159335 -0.21990073 -0.89196473 106 63 70
0.21555157 -0.21938454 -0.89458984 116 73 78
0.2157082 -0.22033584 -0.89301527 111 68 73
0.21612841 -0.21720877 -0.89284164 107 64 71
0.21624371 -0.21786197 -0.8917709 104 62 66
0.21606524 -0.21832828 -0.89237565 106 63 70
0.21629916 -0.21797721 -0.89139771 103 61 64
0.21599133 -0.21814306 -0.8928957 107 65 73
0.21486539 -0.22448112 -0.89359868 124 89 82
0.21510196 -0.22223154 -0.89460188 122 84 81
0.21536925 -0.22257288 -0.89314967 115 74 72
0.2153611 -0.22162926 -0.89403087 117 75 74
0.21491019 -0.2231615 -0.89459002 125 89 84
0.21560185 -0.22246566 -0.89189255 110 67 68
0.21542218 -0.22134797 -0.89392132 116 74 74
0.2156392 -0.22204585 -0.89202946 110 67 68
0.21544242 -0.22077155 -0.89429438 117 75 76
0.21580599 -0.22162773 -0.89139289 106 64 67
0.2156319 -0.22221093 -0.89193153 110 67 68
0.21388711 -0.2278374 -0.89460224 118 84 79
0.21418886 -0.22814511 -0.89312339 113 76 71
0.21437058 -0.22813739 -0.89240527 111 73 68
0.21446584 -0.22829565 -0.89188385 109 70 65
0.21440828 -0.22808604 -0.89230078 111 73 68
0.2144251 -0.22555801 -0.89449257 127 94 87
0.21504146 -0.22565366 -0.89180392 113 74 69
0.21461803 -0.22762492 -0.8918736 112 73 68
0.21527635 -0.22487155 -0.89148945 112 71 67
0.21514751 -0.22547266 -0.89150953 112 71 67
0.21461374 -0.22760707 -0.89190781 112 73 68
0.21458514 -0.22638912 -0.89310914 120 84 78
0.21320671 -0.23111209 -0.89484775 117 81 80
0.21308917 -0.23170955 -0.89486933 118 81 80
0.21343419 -0.23188734 -0.89385277 112 76 73
0.21335426 -0.23099089 -0.89451033 115 79 77
0.21352233 -0.23112512 -0.89399171 113 77 74
0.21412432 -0.22971222 -0.8927514 108 72 66
0.21393573 -0.22908056 -0.8936612 111 77 71
0.21415873 -0.22953817 -0.89265746 108 72 66
0.21283475 -0.23360148 -0.89474952 116 74 79
0.21277201 -0.23574755 -0.8940168 108 59 71
0.21290742 -0.23377533 -0.89435208 113 70 77
0.21339221 -0.23325495 -0.89342177 109 69 71
0.21328531 -0.23313993 -0.89374828 111 71 73
0.21240164 -0.23880722 -0.89470655 108 67 68
0.21259482 -0.23643366 -0.89457452 109 61 71
0.21236736 -0.23977348 -0.8945657 106 68 66
0.21227127 -0.24266198 -0.89440858 103 69 65
0.21228406 -0.24259149 -0.89436781 103 68 65
0.21222088 -0.24271287 -0.89461207 104 71 66
0.21262385 -0.24247335 -0.89283723 98 58 57
0.21245863 -0.24280682 -0.89353025 100 63 61
0.21270458 -0.24392313 -0.89199758 95 59 51
0.21240121 -0.24275997 -0.8938216 101 64 63
0.21230844 -0.24367628 -0.89398432 101 68 63
0.21243517 -0.24468699 -0.89314991 97 65 58
0.21273229 -0.24739444 -0.89132595 87 52 47
0.21242502 -0.24595161 -0.89301598 95 62 57
0.21272035 -0.2443222 -0.89182758 94 59 49
0.21225695 -0.2450317 -0.8939594 99 68 63
0.21205254 -0.24614725 -0.89456421 103 68 66
0.21232194 -0.24657118 -0.893314 97 62 59
0.21261105 -0.24794148 -0.89174795 89 52 50
0.21231854 -0.2475961 -0.89307725 96 58 57
0.21197793 -0.24633645 -0.89483529 104 68 67
0.21234684 -0.25192618 -0.89190924 89 45 51
0.21197915 -0.25137955 -0.89363265 99 57 60
0.21175659 -0.25177088 -0.89450955 105 63 65
0.21221808 -0.25114369 -0.89264882 93 50 55
0.21196124 -0.25133646 -0.89372039 100 57 61
0.21209002 -0.24974486 -0.89352733 98 55 60
0.21237907 -0.25080746 -0.89202958 89 45 51
0.21228233 -0.24843164 -0.89302611 96 56 57
0.21262731 -0.24819416 -0.89161676 89 51 49
0.21235657 -0.24948741 -0.89245033 92 51 54
0.21253932 -0.24836306 -0.89194953 90 52 51
0.21186085 -0.25545508 -0.89339751 100 57 57
0.21195869 -0.2554414 -0.89296657 97 54 55
0.21188812 -0.25390068 -0.89354283 100 57 59
0.21201645 -0.25441962 -0.89288574 97 52 55
0.21182849 -0.25442773 -0.89371675 101 59 59
0.21230108 -0.25425935 -0.89167088 89 43 48
0.21217118 -0.25422832 -0.89224106 93 47 51
0.21227151 -0.25323379 -0.89199096 90 45 50
0.21228464 -0.25424016 -0.89174592 90 44 48
0.2123203 -0.25238308 -0.89193797 89 45 50
0.21197776 -0.25908357 -0.89193463 94 54 51
0.21157487 -0.25756547 -0.89412332 103 67 62
0.21176688 -0.25773174 -0.89323533 100 61 57
0.21188676 -0.25901094 -0.89235377 95 57 53
0.21184203 -0.2579729 -0.89283878 98 58 55
0.21164176 -0.25770295 -0.89379185 102 65 60
0.21175872 -0.2566843 -0.89355713 101 61 58
0.21196111 -0.25699681 -0.89257616 96 54 53
0.21180061 -0.25733802 -0.89319456 100 60 57
0.21182305 -0.25774613 -0.89298463 99 59 56
0.21171817 -0.25587624 -0.89395565 103 62 60
0.21191642 -0.2605935 -0.89167756 92 56 51
0.21200743 -0.26056728 -0.89128911 91 53 49
0.21199039 -0.25993136 -0.89162225 92 53 50
0.21177657 -0.26358175 -0.89107645 91 61 53
0.21165131 -0.26450059 -0.89142329 92 62 57
0.21170211 -0.26406685 -0.89130002 92 62 55
0 0 0 1 0 0 0 1 0 0 0 1 0 0 0 0 0 825 1 0 0
