ply
format ascii 1.0
comment PCL generated
element vertex 998
property float x
property float y
property float z
property uchar red
property uchar green
property uchar blue
element camera 0
property float view_px
property float view_py
property float view_pz
property float x_axisx
property float x_axisy
property float x_axisz
property float y_axisx
property float y_axisy
property float y_axisz
property float z_axisx
property float z_axisy
property float z_axisz
property float focal
property float scalex
property float scaley
property float centerx
property float centery
property int viewportx
property int viewporty
property float k1
property float k2
end_header
-0.347774 -0.078316309 -0.8463645 76 68 68
-0.34609041 -0.079126909 -0.84641528 122 107 103
-0.34834653 -0.079953633 -0.84652501 54 45 50
-0.34726518 -0.079701602 -0.84648579 86 74 75
-0.34476209 -0.079637907 -0.84598333 134 116 113
-0.34368533 -0.078713745 -0.84540153 139 119 117
-0.34340087 -0.077885151 -0.84525782 140 119 118
-0.34182641 -0.0799293 -0.84434891 150 129 127
-0.3439863 -0.078458153 -0.84557295 137 117 116
-0.34523696 -0.080054954 -0.84623975 132 114 111
-0.34295878 -0.076942362 -0.84498554 144 122 121
-0.3454861 -0.077480622 -0.84616011 140 125 117
-0.34513453 -0.078235574 -0.84607387 137 120 115
-0.34231889 -0.076556578 -0.84466499 146 122 123
-0.34472263 -0.076388426 -0.84571892 144 129 121
-0.34368178 -0.076920137 -0.8453052 143 123 120
-0.34539124 -0.083951876 -0.84637511 144 125 117
-0.34356543 -0.082311474 -0.84535295 147 128 123
-0.34395951 -0.083088912 -0.84559506 147 127 122
-0.34303564 -0.082428567 -0.84508651 148 129 124
-0.34238094 -0.083357662 -0.84479725 149 131 127
-0.34284398 -0.081921384 -0.84496212 149 129 125
-0.34564719 -0.083024748 -0.84649646 140 122 115
-0.345577 -0.081369862 -0.84644091 135 117 112
-0.34403637 -0.082252353 -0.84559464 146 126 121
-0.34523085 -0.080696866 -0.84624213 134 116 112
-0.34559619 -0.083789952 -0.84647572 143 124 117
-0.34439397 -0.081948288 -0.84579009 143 124 119
-0.34176633 -0.08159136 -0.8443867 150 131 128
-0.34155774 -0.081057139 -0.84421974 150 130 128
-0.34379983 -0.087364122 -0.84545118 149 133 125
-0.34376913 -0.086364754 -0.84539628 148 132 125
-0.342444 -0.086346261 -0.84488147 151 134 128
-0.34303528 -0.086297505 -0.84510875 150 133 127
-0.34314957 -0.085821852 -0.84513265 149 133 126
-0.34359404 -0.084837623 -0.8453818 148 130 124
-0.34303227 -0.084540583 -0.84511769 149 131 126
-0.34553245 -0.086649753 -0.84622759 145 130 121
-0.34378803 -0.085337549 -0.84543991 148 131 124
-0.34550956 -0.084557325 -0.84638989 144 126 118
-0.34525168 -0.084628507 -0.84625137 145 127 119
-0.3415505 -0.08672186 -0.84449953 151 134 128
-0.34148648 -0.084158644 -0.84433299 150 132 128
-0.34340966 -0.090950884 -0.84583384 132 116 110
-0.34405574 -0.091741696 -0.8462311 124 108 103
-0.34406167 -0.091138281 -0.84615314 123 108 103
-0.3422429 -0.088537566 -0.84498471 148 130 123
-0.34233218 -0.088498764 -0.84501982 146 129 122
-0.34557021 -0.091793843 -0.84692162 102 87 86
-0.34400135 -0.08798302 -0.84557015 148 132 124
-0.34415016 -0.088092625 -0.84564942 146 131 123
-0.34568316 -0.090997629 -0.84681672 110 95 92
-0.34550929 -0.089323506 -0.84641927 129 115 109
-0.34486946 -0.089152426 -0.8461374 133 117 112
-0.34177959 -0.091426432 -0.84515905 155 139 128
-0.34022114 -0.091499373 -0.84423447 146 129 126
-0.3409476 -0.088474289 -0.84426707 149 132 127
-0.34336793 -0.095491052 -0.84628224 111 97 90
-0.3422946 -0.094727516 -0.84578115 137 123 112
-0.34300962 -0.09495645 -0.84607917 121 106 98
-0.34233668 -0.095030017 -0.84583569 135 121 111
-0.34506857 -0.095547162 -0.8469286 74 58 57
-0.34443107 -0.091851704 -0.84641081 118 102 98
-0.34357095 -0.092026092 -0.84603173 128 113 106
-0.34448797 -0.094060816 -0.84655237 94 78 75
-0.3430455 -0.092962168 -0.84584367 126 110 103
-0.34527081 -0.092775807 -0.8468383 96 81 79
-0.34441686 -0.094242834 -0.84652984 93 77 74
-0.34014845 -0.095559523 -0.84459364 138 117 113
-0.34096241 -0.093536437 -0.84488124 147 128 121
-0.34124216 -0.094711728 -0.84521955 145 129 119
-0.34059256 -0.094303221 -0.84473103 143 123 118
-0.33958286 -0.095157146 -0.84417623 136 112 112
-0.33966744 -0.094765067 -0.8441937 137 114 113
-0.33973354 -0.094515629 -0.84421223 138 116 115
-0.34210017 -0.096782967 -0.84600282 130 117 106
-0.3449302 -0.098986477 -0.84740955 28 25 23
-0.34211692 -0.097266294 -0.84608525 126 113 104
-0.3419303 -0.097336203 -0.84602642 132 117 108
-0.34242481 -0.099534117 -0.84655815 103 88 85
-0.34416443 -0.099097982 -0.84714055 51 45 42
-0.34344798 -0.096882313 -0.84652364 91 82 74
-0.34435311 -0.096754648 -0.84684384 73 62 58
-0.34227148 -0.095876716 -0.84592444 132 120 108
-0.34293455 -0.095894367 -0.84617639 118 104 95
-0.34443226 -0.097291164 -0.84695739 63 55 51
-0.34248823 -0.096365355 -0.84608215 120 109 99
-0.33995733 -0.098662101 -0.84483665 124 104 104
-0.3412565 -0.096469283 -0.84544355 140 125 115
-0.34048361 -0.098478667 -0.84519368 126 107 105
-0.33967739 -0.098769315 -0.8446483 122 102 103
-0.34160092 -0.096747644 -0.84573996 139 124 114
-0.33958754 -0.09758018 -0.84444255 127 106 106
-0.33951631 -0.096302681 -0.84425372 132 109 109
-0.34082577 -0.095833346 -0.84508121 140 123 115
-0.33989105 -0.095832638 -0.84445351 136 113 111
-0.34464389 -0.10346914 -0.84690088 41 37 34
-0.34204766 -0.10196231 -0.84665793 122 108 101
-0.34471545 -0.1026182 -0.84678656 36 31 30
-0.34283945 -0.10139068 -0.84659219 94 82 77
-0.34278604 -0.10241795 -0.84673071 99 88 82
-0.34325147 -0.10076933 -0.84661978 79 67 65
-0.34470072 -0.1016601 -0.84696305 35 30 29
-0.34391686 -0.10124582 -0.8467623 59 50 48
-0.34468666 -0.10021406 -0.84728122 33 28 27
-0.34563044 -0.10271202 -0.8470757 7 6 6
-0.34396133 -0.10051058 -0.84694338 56 48 46
-0.34103206 -0.10241783 -0.84613073 131 112 108
-0.3407056 -0.10100982 -0.84568989 126 103 103
-0.3412948 -0.10233683 -0.84632081 131 114 108
-0.33970806 -0.10343233 -0.84525526 133 107 108
-0.34114414 -0.10207516 -0.84617001 130 112 107
-0.34171212 -0.10149818 -0.84652632 129 113 106
-0.33849305 -0.10268345 -0.84424001 128 96 104
-0.3386949 -0.1004104 -0.84414572 119 93 100
-0.34141266 -0.099987276 -0.84609348 123 104 101
-0.34029737 -0.10067939 -0.84534949 124 100 102
-0.33922869 -0.09987095 -0.84447962 118 95 99
-0.34440792 -0.10611801 -0.84793746 49 45 41
-0.3448734 -0.1052077 -0.84758645 34 31 28
-0.34374103 -0.1059285 -0.84762412 73 67 60
-0.34279826 -0.10642117 -0.84749961 106 98 87
-0.34248903 -0.10654901 -0.84752208 117 107 95
-0.34213272 -0.1053094 -0.84725249 127 116 104
-0.34408551 -0.10450085 -0.84710896 61 56 50
-0.34332171 -0.10540017 -0.84728944 88 80 72
-0.34202039 -0.10463127 -0.84710616 130 118 107
-0.3436293 -0.10536812 -0.84728718 77 71 63
-0.34071931 -0.10362767 -0.84606028 134 116 111
-0.34013748 -0.10375117 -0.84563708 134 111 110
-0.33851588 -0.10356867 -0.84436381 132 99 106
-0.33803904 -0.10687559 -0.84451216 133 101 108
-0.33833769 -0.10589328 -0.84459978 133 101 108
-0.33795759 -0.10718031 -0.84449339 133 101 108
-0.33837792 -0.10645639 -0.8447082 134 103 109
-0.34161666 -0.10392212 -0.84680289 136 123 112
-0.33915573 -0.10624021 -0.84526789 134 108 110
-0.33901778 -0.10713341 -0.8453446 135 108 110
-0.34035289 -0.10629719 -0.84626722 136 117 112
-0.34177098 -0.10657007 -0.84749484 139 128 114
-0.34080505 -0.1051843 -0.84640276 136 119 112
-0.34074861 -0.10728846 -0.84680498 138 122 113
-0.34218222 -0.10893311 -0.8479166 123 112 101
-0.34198996 -0.11128725 -0.84762436 112 101 93
-0.33912271 -0.10975363 -0.84543204 130 104 105
-0.33805418 -0.1110009 -0.84470147 143 112 113
-0.33791551 -0.11074127 -0.844594 143 111 113
-0.34027243 -0.11036643 -0.84627658 122 103 100
-0.34039226 -0.11121406 -0.8463881 124 105 101
-0.34034523 -0.11119878 -0.84635383 124 106 101
-0.34026542 -0.11047871 -0.84627491 123 103 100
-0.34106946 -0.10794176 -0.84705848 135 120 111
-0.3416594 -0.10922656 -0.84744734 127 116 105
-0.3402988 -0.10913973 -0.84633189 126 106 103
-0.33914784 -0.10790391 -0.84547675 132 106 108
-0.33858871 -0.10786365 -0.8450188 132 103 107
-0.3391335 -0.10765718 -0.84548372 134 108 109
-0.33974564 -0.10863041 -0.84591448 128 106 105
-0.33786437 -0.10934994 -0.84451681 139 107 111
-0.33769035 -0.10761279 -0.84433615 134 101 109
-0.33897537 -0.115059 -0.84583783 125 106 97
-0.33879814 -0.11508317 -0.84569818 127 108 99
-0.34067482 -0.11306707 -0.84682959 116 101 93
-0.34170005 -0.11277976 -0.84760815 104 90 83
-0.34145689 -0.11319625 -0.84749216 105 90 83
-0.34052324 -0.11328526 -0.84674919 116 101 93
-0.33809289 -0.11389311 -0.84499848 139 116 109
-0.33869758 -0.11208833 -0.84525049 137 112 109
-0.33941492 -0.11299047 -0.84585726 130 111 104
-0.34049994 -0.11149597 -0.84648585 123 106 100
-0.33929786 -0.11314064 -0.8457883 130 111 104
-0.34083322 -0.11208985 -0.84678543 119 105 98
-0.33961639 -0.11288238 -0.84599113 128 110 103
-0.33776081 -0.11465332 -0.84483588 139 118 110
-0.33760291 -0.11264309 -0.84451818 143 115 113
-0.33689362 -0.11459768 -0.8442027 138 116 111
-0.33923617 -0.11543956 -0.84610897 122 103 94
-0.33985147 -0.11612057 -0.84669042 118 100 91
-0.34012908 -0.11774482 -0.84710789 126 108 99
-0.34098187 -0.11557588 -0.84754711 100 81 74
-0.34035593 -0.11694487 -0.84719849 117 99 91
-0.34069967 -0.11680429 -0.84746194 112 94 86
-0.33812463 -0.11846889 -0.84547335 145 129 117
-0.33921543 -0.11811297 -0.84636998 135 118 107
-0.33808967 -0.11586162 -0.84521341 138 119 109
-0.33970064 -0.1182773 -0.84679723 132 115 104
-0.33983305 -0.11792537 -0.84687883 130 112 102
-0.33827564 -0.11710703 -0.84548163 140 122 111
-0.33728319 -0.11649403 -0.84471661 141 123 113
-0.33744001 -0.11626724 -0.84479558 141 122 112
-0.33755967 -0.11658077 -0.84489876 142 123 113
-0.33706403 -0.11675875 -0.84459329 142 123 114
-0.33650434 -0.11689462 -0.84420574 141 123 115
-0.338963 -0.11947501 -0.84614778 138 122 111
-0.33952606 -0.11960149 -0.84658957 132 117 106
-0.33977443 -0.12008302 -0.84665924 128 112 101
-0.34046048 -0.12163886 -0.8468582 115 96 89
-0.3416132 -0.12132597 -0.84787142 106 88 81
-0.34045213 -0.12097661 -0.84700358 118 100 92
-0.34023964 -0.12277254 -0.84679919 111 91 86
-0.33878359 -0.12298542 -0.84605801 123 102 98
-0.33811906 -0.12170951 -0.84562659 135 116 109
-0.33871683 -0.12070024 -0.84586835 134 117 107
-0.33861604 -0.12088053 -0.84582824 134 117 108
-0.33833051 -0.12174745 -0.84573889 133 114 107
-0.3376835 -0.1219942 -0.84538931 135 116 110
-0.33592248 -0.1228093 -0.84427112 132 114 111
-0.33744934 -0.12212951 -0.84524244 135 116 110
-0.33751243 -0.11989674 -0.84513301 145 129 118
-0.33623973 -0.12128493 -0.84439492 139 121 115
-0.33755219 -0.11927362 -0.84512651 148 133 120
-0.33581373 -0.12258214 -0.84418851 133 115 112
-0.33943421 -0.12495168 -0.84609902 109 86 84
-0.33921003 -0.12490604 -0.84602702 113 90 88
-0.33916292 -0.12689732 -0.84601754 124 100 95
-0.33797902 -0.12579989 -0.84563494 142 120 112
-0.33951098 -0.12530044 -0.84612465 109 86 84
-0.33866286 -0.12476652 -0.84585124 123 101 97
-0.33913687 -0.12426522 -0.84600729 112 89 88
-0.33874524 -0.12306773 -0.84603822 123 102 98
-0.33984402 -0.12355035 -0.84651405 110 89 86
-0.3406311 -0.12342168 -0.84694767 104 83 80
-0.34027267 -0.12451237 -0.84654838 100 78 77
-0.34064054 -0.12487052 -0.8466692 94 72 71
-0.33736739 -0.12582172 -0.84527475 143 120 114
-0.33658603 -0.1264222 -0.8447808 144 120 115
-0.33765137 -0.12675543 -0.84545743 148 125 117
-0.3358705 -0.12499252 -0.84429508 137 115 113
-0.33653995 -0.12393007 -0.84471804 134 113 110
-0.33589834 -0.12490284 -0.84431171 137 115 113
-0.33690393 -0.12318386 -0.84494424 131 111 108
-0.34176975 -0.12869024 -0.84757668 45 29 31
-0.34045073 -0.12861176 -0.8466993 87 66 67
-0.34070867 -0.13064358 -0.84780586 40 33 33
-0.34013632 -0.13005871 -0.84714621 71 58 58
-0.34111223 -0.12906677 -0.84736049 55 40 42
-0.33895379 -0.13001834 -0.84631801 114 94 93
-0.33801243 -0.12979385 -0.84591442 137 117 112
-0.33888522 -0.12855011 -0.84607792 124 102 99
-0.33846635 -0.12800752 -0.84589297 134 112 106
-0.33930281 -0.12784971 -0.84614635 118 95 92
-0.33958825 -0.12801147 -0.84625298 111 89 87
-0.33880833 -0.12865381 -0.84606296 125 103 100
-0.33687463 -0.12859602 -0.84518576 149 127 120
-0.33696461 -0.12967774 -0.84533793 145 124 119
-0.33637959 -0.12879749 -0.84492314 151 129 122
-0.33560875 -0.12986939 -0.84458506 151 130 124
-0.33647579 -0.12894812 -0.84499186 150 128 122
-0.33754155 -0.12716827 -0.84542018 149 126 118
-0.33638883 -0.12755181 -0.8447457 147 124 119
-0.33669248 -0.12756734 -0.8449406 148 125 119
-0.33609301 -0.12883279 -0.84474736 150 129 122
-0.33666712 -0.13274363 -0.84515178 140 120 115
-0.33630237 -0.13339485 -0.84489733 141 121 116
-0.33713317 -0.13315938 -0.84534895 139 118 113
-0.33745238 -0.13303022 -0.84552646 137 117 112
-0.3358748 -0.13094775 -0.84482306 146 126 122
-0.33501565 -0.13135839 -0.84430832 150 130 125
-0.33553934 -0.13109928 -0.84462267 148 128 123
-0.33581334 -0.1324195 -0.84469372 145 125 120
-0.33546138 -0.13143858 -0.84455657 148 128 123
-0.33779761 -0.13661222 -0.84554428 129 108 102
-0.3378908 -0.13774903 -0.84558773 124 104 96
-0.33649066 -0.13663907 -0.84500879 143 122 116
-0.33652255 -0.13701621 -0.84502363 141 120 114
-0.33656591 -0.13764149 -0.84504426 138 118 111
-0.33524588 -0.13717167 -0.84445256 151 130 124
-0.33620349 -0.1356847 -0.84479719 144 123 117
-0.33509007 -0.1350137 -0.84415752 146 126 119
-0.33465078 -0.13739859 -0.84416896 153 133 126
-0.33781204 -0.1388112 -0.84542894 116 98 90
-0.33660796 -0.13892847 -0.84482539 126 108 100
-0.33662185 -0.13899711 -0.84476662 124 106 99
-0.33631673 -0.14577301 -0.84449893 52 45 46
-0.33695248 -0.14616445 -0.84538954 66 54 52
-0.33714345 -0.14542836 -0.84468424 37 31 30
-0.33598343 -0.14643389 -0.84501904 79 66 66
-0.33781412 -0.14781785 -0.84587616 58 46 41
-0.33769426 -0.14939445 -0.84522837 36 29 26
-0.33641934 -0.14659463 -0.84534526 78 65 63
-0.33529183 -0.14697723 -0.84443337 75 64 66
-0.33543602 -0.14748593 -0.84436995 67 57 59
-0.33558661 -0.14722423 -0.84455973 71 60 61
-0.33673394 -0.1484101 -0.84497911 51 41 40
-0.33762312 -0.14664854 -0.84616953 75 59 54
-0.33768892 -0.15058671 -0.8447535 19 16 14
-0.33433166 -0.15559021 -0.84463209 102 84 76
-0.33505154 -0.15667072 -0.84576935 85 71 65
-0.33400252 -0.15708859 -0.84505039 122 103 93
-0.33535272 -0.15812589 -0.8467176 83 72 66
-0.33573183 -0.15610918 -0.84598643 79 65 59
-0.33759817 -0.15712702 -0.84797972 44 37 34
-0.33614415 -0.15711415 -0.84688848 59 50 46
-0.33654255 -0.15723234 -0.84725529 53 45 42
-0.33531621 -0.15533602 -0.84450692 78 64 57
-0.33783659 -0.15567479 -0.84534848 15 13 11
-0.33755273 -0.15568069 -0.84535295 23 19 18
-0.33683005 -0.15572751 -0.84543586 45 37 34
-0.33469737 -0.15542661 -0.84469169 97 80 72
-0.33758083 -0.15585954 -0.84575665 27 23 21
-0.33359751 -0.15763429 -0.84502864 129 108 101
-0.33250394 -0.15757278 -0.84425664 138 112 110
-0.33641574 -0.15928015 -0.84768599 46 38 37
-0.33525065 -0.15858214 -0.84666622 86 73 68
-0.33580631 -0.15842544 -0.84715068 68 58 55
-0.3346574 -0.15898412 -0.84614986 105 88 82
-0.33604315 -0.16093108 -0.84736699 53 41 42
-0.33571541 -0.15830061 -0.84707087 72 61 57
-0.33651087 -0.16207543 -0.8478241 34 22 27
-0.33401904 -0.15930746 -0.84571469 124 102 95
-0.33574489 -0.16114967 -0.84716678 62 47 48
-0.33506292 -0.1612749 -0.84669393 83 63 63
-0.33449739 -0.1591838 -0.84604216 109 91 85
-0.33256042 -0.16175114 -0.84494692 139 112 111
-0.33302072 -0.15981489 -0.84505153 139 117 111
-0.33260351 -0.16062719 -0.84484524 142 119 115
-0.33386192 -0.15980516 -0.84566003 125 101 96
-0.33349797 -0.15923846 -0.84532923 133 112 105
-0.3333782 -0.1584855 -0.84517229 135 114 107
-0.33224052 -0.15837739 -0.8443898 144 118 117
-0.33162755 -0.16038045 -0.84414995 152 126 126
-0.33239925 -0.16023923 -0.84466183 145 122 119
-0.3369917 -0.16237228 -0.84798992 21 13 17
-0.33717114 -0.16334647 -0.84747499 21 15 15
-0.33668283 -0.16426986 -0.84658426 35 25 25
-0.33785078 -0.16341119 -0.84790456 1 0 0
-0.33533075 -0.16258143 -0.84666568 74 54 55
-0.33711815 -0.16442367 -0.84679198 22 16 16
-0.33559677 -0.16508847 -0.84619898 46 35 35
-0.33580637 -0.16568503 -0.84622729 34 27 26
-0.33640796 -0.16464497 -0.84623975 41 30 30
-0.33488023 -0.16568382 -0.84616804 47 38 37
-0.33420065 -0.16281796 -0.84605265 100 73 74
-0.33290789 -0.16501333 -0.84532785 84 67 69
-0.3323499 -0.16562213 -0.84494603 82 68 70
-0.33302233 -0.16555434 -0.84542292 74 61 62
-0.333547 -0.16397376 -0.84575671 91 70 71
-0.33342287 -0.16303121 -0.84564471 107 80 82
-0.3314141 -0.16430119 -0.84423369 118 99 102
-0.33170342 -0.16307777 -0.84440142 134 111 113
-0.3321633 -0.16443734 -0.84478134 103 83 86
-0.33182013 -0.16276042 -0.84447509 138 114 115
-0.33170742 -0.16523413 -0.84447831 97 80 84
-0.33573195 -0.16899137 -0.84485054 58 48 44
-0.33529627 -0.16939682 -0.84474528 73 60 55
-0.33779052 -0.16633707 -0.84604388 2 2 1
-0.33650136 -0.16815419 -0.84511912 36 29 27
-0.33708498 -0.16798216 -0.84462035 21 17 15
-0.33708736 -0.1671918 -0.84573179 20 17 15
-0.3358143 -0.16851819 -0.84547859 54 44 40
-0.33419782 -0.16937937 -0.84587866 92 76 70
-0.33557349 -0.16684265 -0.84615827 42 35 33
-0.33610311 -0.16761345 -0.84613395 44 36 33
-0.33645719 -0.16656098 -0.84623611 26 22 20
-0.33499494 -0.16626309 -0.84616506 43 36 34
-0.33223882 -0.1698316 -0.84460551 127 108 103
-0.33389422 -0.16621503 -0.8460409 58 49 47
-0.33369988 -0.1670725 -0.84583974 71 60 57
-0.33343247 -0.16943385 -0.84547359 104 87 81
-0.33182269 -0.16912025 -0.84436458 124 106 103
-0.33324194 -0.16629633 -0.84557128 68 57 57
-0.33270484 -0.16777132 -0.84508634 94 81 78
-0.33171552 -0.16672604 -0.84445494 94 80 82
-0.33150735 -0.16619208 -0.84434396 90 76 80
-0.33396336 -0.17264095 -0.84452701 32 26 23
-0.33334929 -0.17098461 -0.84487712 84 70 65
-0.33326003 -0.1707413 -0.84492922 91 77 72
-0.33387044 -0.1720182 -0.84475547 49 41 37
-0.33368248 -0.18153833 -0.84414452 10 9 9
-0.33826891 -0.18310586 -0.84800404 0 0 0
-0.33803329 -0.18391562 -0.8477146 0 0 0
-0.3365826 -0.18464844 -0.84665889 10 8 7
-0.33457646 -0.18273525 -0.8450442 13 11 10
-0.33467838 -0.18529457 -0.84686792 75 62 56
-0.33697358 -0.1854317 -0.84726393 20 16 15
-0.33434835 -0.18530616 -0.84683311 84 69 62
-0.33492446 -0.18267694 -0.84504825 3 2 2
-0.33544296 -0.18303542 -0.84541905 0 0 0
-0.33767635 -0.18290605 -0.84744489 0 0 0
-0.33641663 -0.18383707 -0.84624577 0 0 0
-0.33695516 -0.18196899 -0.8468551 0 0 0
-0.33720756 -0.18366271 -0.84697163 0 0 0
-0.33654726 -0.18353796 -0.84638345 0 0 0
-0.33762527 -0.18392858 -0.8473314 0 0 0
-0.33337143 -0.18183725 -0.84414542 22 20 20
-0.33836606 -0.18671638 -0.84799904 0 0 0
-0.33817607 -0.18919738 -0.84793401 0 0 0
-0.33609536 -0.18910028 -0.84711063 61 51 49
-0.33594999 -0.1887559 -0.84711564 63 52 50
-0.33698997 -0.18912829 -0.847408 29 24 23
-0.33603445 -0.18870129 -0.84715265 59 49 47
-0.33420256 -0.1865069 -0.84687907 102 84 77
-0.33533505 -0.18842737 -0.84695977 81 68 64
-0.33720824 -0.18759906 -0.84747905 17 14 12
-0.33657897 -0.18633035 -0.84733337 33 27 24
-0.33589339 -0.18652794 -0.84725398 51 41 37
-0.33594084 -0.18605892 -0.84723663 49 40 36
-0.33500618 -0.18568902 -0.84709632 73 60 54
-0.33827212 -0.19208163 -0.84799862 0 0 0
-0.33657303 -0.1931901 -0.84713453 39 32 32
-0.33588967 -0.19257753 -0.84691298 63 53 51
-0.33573321 -0.19319022 -0.84683681 63 52 51
-0.33735856 -0.19222662 -0.84743524 19 16 15
-0.33675709 -0.18990292 -0.84727103 41 34 33
-0.33754703 -0.19014958 -0.84753335 12 10 10
-0.33735609 -0.19000366 -0.84747142 19 16 15
-0.3376449 -0.19062054 -0.84755856 8 7 7
-0.33727321 -0.19237716 -0.84740394 22 18 18
-0.30706677 0.037663538 -0.87109041 116 86 89
-0.30497068 0.034946121 -0.86791831 119 89 92
-0.30534637 0.035918284 -0.86902082 117 88 90
-0.30594987 0.035144065 -0.86846608 119 89 94
-0.30629319 0.036364228 -0.86973226 116 86 91
-0.30609602 0.036793839 -0.87008184 115 86 89
-0.30558321 0.035259131 -0.86846465 119 89 93
-0.30417192 0.0361096 -0.86884743 118 89 88
-0.32352209 0.021700848 -0.87067318 147 138 145
-0.32390893 0.021992262 -0.87113923 149 140 146
-0.32397997 0.022026559 -0.87121767 150 140 146
-0.32384965 0.022066884 -0.87111211 149 140 145
-0.32089713 0.022166066 -0.86868238 143 131 138
-0.32376391 0.020928159 -0.87057197 145 135 142
-0.32383743 0.020876871 -0.87061739 144 135 142
-0.32370758 0.020195035 -0.87019771 141 130 136
-0.32466063 0.020149754 -0.87105918 144 133 139
-0.32294238 0.019764921 -0.8693893 139 121 134
-0.32307816 0.020040644 -0.86960328 139 125 135
-0.32263678 0.017609218 -0.86835784 133 97 124
-0.32412618 0.019194962 -0.87018985 138 124 132
-0.32308257 0.019448135 -0.86939478 138 119 133
-0.32471281 0.018470408 -0.8704282 137 121 129
-0.32446361 0.019085648 -0.87043715 138 125 132
-0.3224104 0.019380253 -0.86880004 137 114 132
-0.32169172 0.017670313 -0.86767125 131 97 123
-0.32142785 0.019337654 -0.86806631 136 112 130
-0.32151484 0.020368572 -0.86849129 139 122 135
-0.32055107 0.020771211 -0.86792856 140 124 134
-0.32138568 0.018960204 -0.86790317 135 109 128
-0.32688758 0.015864402 -0.87146527 135 114 121
-0.32662994 0.015384789 -0.87109029 134 112 120
-0.32676882 0.015154143 -0.87114382 134 111 119
-0.32652315 0.015221524 -0.87094617 134 112 119
-0.32264751 0.015390133 -0.86769307 125 99 113
-0.32399082 0.015721459 -0.86893511 133 99 119
-0.32469407 0.015116369 -0.86934853 134 101 118
-0.32282066 0.016675077 -0.8682313 131 97 121
-0.32279414 0.016521396 -0.86816317 130 97 120
-0.32348081 0.014850705 -0.8682453 126 101 113
-0.32289997 0.015247418 -0.86787319 125 100 113
-0.32547802 0.015383245 -0.87009442 134 107 120
-0.32379404 0.017342409 -0.86925757 134 104 124
-0.32407993 0.017075451 -0.86941952 134 105 123
-0.32582512 0.014128345 -0.87000954 134 104 116
-0.32539591 0.015444876 -0.87004334 134 107 120
-0.3251369 0.015160387 -0.86973751 134 104 119
-0.32434386 0.016134042 -0.8693589 134 103 121
-0.32643178 0.013453585 -0.87034696 134 106 116
-0.32674408 0.01349904 -0.8706345 134 105 116
-0.32673132 0.011174466 -0.86995035 133 112 115
-0.3268896 0.010139395 -0.86978537 132 115 115
-0.32708779 0.011103699 -0.87029463 134 114 116
-0.32634747 0.010918891 -0.86947459 131 110 114
-0.32600459 0.010005481 -0.86886412 129 110 113
-0.32588097 0.0099464273 -0.86874151 128 109 112
-0.3258796 0.01093846 -0.8690545 130 108 113
-0.32341605 0.013065516 -0.86764854 120 104 106
-0.32478601 0.011694088 -0.8683725 126 103 109
-0.32473376 0.010681557 -0.86800915 124 102 107
-0.32399672 0.013035244 -0.86812913 123 104 108
-0.32430065 0.012201981 -0.86812294 124 103 108
-0.32443267 0.013656706 -0.86869305 126 104 110
-0.32689515 0.0096932342 -0.86965626 132 115 115
-0.327521 0.0082921041 -0.86998129 135 117 118
-0.32922745 0.0058881054 -0.87116224 143 124 124
-0.3262246 0.0076640006 -0.86832565 132 112 114
-0.32718968 0.0070261387 -0.8692162 136 116 117
-0.32656738 0.0086070821 -0.86901081 132 113 115
-0.32757518 0.0080671925 -0.86998045 135 117 119
-0.32874849 0.0062395367 -0.87073129 141 122 123
-0.32644898 0.0074718492 -0.86851889 133 113 114
-0.32570583 0.009315066 -0.86839259 128 109 111
-0.32534817 0.0078761904 -0.86763054 129 107 110
-0.32523143 0.0089231664 -0.86786813 127 106 109
-0.33011487 0.0022088166 -0.87094921 133 122 124
-0.32735217 0.0030582747 -0.8679179 139 123 120
-0.32744601 0.0032984093 -0.8681426 138 121 120
-0.32863438 0.0021895831 -0.86913073 137 124 122
-0.32789567 0.0028434275 -0.86850059 138 122 121
-0.32780734 0.0034145692 -0.86864579 136 120 119
-0.32763663 0.0029398613 -0.86822021 139 123 120
-0.32901362 0.0053267581 -0.87073588 140 123 123
-0.32977328 0.0030510514 -0.87084514 135 122 124
-0.32925081 0.0044588759 -0.87071806 138 122 123
-0.326316 0.005779977 -0.86783391 135 113 114
-0.32892093 0.0036136389 -0.8700664 135 120 121
-0.32846013 0.0040155081 -0.86967766 135 118 120
-0.32713833 0.0049955812 -0.86850548 134 115 116
-0.32993978 0.0035841344 -0.87119323 137 124 125
-0.33081406 0.0014263627 -0.87147897 136 125 127
-0.33023992 0.0003384091 -0.87032437 139 124 130
-0.33099374 -0.0013962594 -0.87050819 148 131 140
-0.33119518 -0.0016480084 -0.87064993 149 132 141
-0.33033004 -0.0012721852 -0.8697328 144 126 137
-0.33018503 -0.00037935958 -0.86994189 141 125 133
-0.3300148 3.7461592e-05 -0.86991668 139 123 130
-0.32998911 -0.0018398681 -0.86906588 145 125 138
-0.32986742 -0.0010681357 -0.8692615 142 124 134
-0.32908535 -0.00097755832 -0.86838955 138 121 129
-0.32804504 0.000849167 -0.86783731 141 125 125
-0.32861629 -0.00036637438 -0.86805367 139 122 127
-0.32959169 0.0015728304 -0.87006509 135 122 124
-0.32933176 0.0011871373 -0.86958265 136 122 125
-0.32801574 0.00042400358 -0.86762685 141 125 126
-0.33031127 -0.0045739324 -0.86796016 141 125 136
-0.33106983 -0.0024330977 -0.87009752 148 131 141
-0.33040932 -0.0020021785 -0.86950731 147 128 140
-0.33084995 -0.0039186371 -0.86901087 144 128 138
-0.33147097 -0.0041867043 -0.86966407 147 132 141
-0.33101887 -0.004641884 -0.86882871 143 128 137
-0.33150807 -0.0058070868 -0.86887175 144 130 140
-0.32986882 -0.0022004454 -0.86873418 144 125 137
-0.32923591 -0.0023480218 -0.86791188 141 122 133
-0.33165732 -0.0065560592 -0.86864465 145 132 140
-0.33115608 -0.0069558895 -0.86775231 142 129 137
-0.33166146 -0.0078505166 -0.86791134 145 134 140
-0.33141997 -0.0077812104 -0.8676309 143 133 138
-0.33425927 -0.012653313 -0.86800051 139 120 130
-0.33635378 -0.013009626 -0.87015307 140 137 135
-0.33567768 -0.013512413 -0.86901611 134 122 127
-0.33601841 -0.013447165 -0.86945409 135 127 129
-0.33559552 -0.012911423 -0.86935288 139 130 133
-0.33559647 -0.012845946 -0.86940092 140 131 134
-0.33657011 -0.012732415 -0.87060034 144 144 139
-0.33606696 -0.011718969 -0.87073892 152 151 147
-0.33663172 -0.0122604 -0.87099707 148 149 143
-0.33375314 -0.011485 -0.86823177 147 132 140
-0.33380178 -0.012147831 -0.86781454 141 123 133
-0.33351055 -0.011693956 -0.8677786 143 126 135
-0.33733189 -0.016867865 -0.86833185 133 117 120
-0.33751002 -0.016593931 -0.86874741 133 120 121
-0.33600545 -0.015561978 -0.86781782 131 112 119
-0.33622062 -0.014326203 -0.86901963 133 122 125
-0.33687177 -0.014420239 -0.86969465 134 129 127
-0.33684617 -0.014338858 -0.86972809 134 129 128
-0.33648628 -0.015080178 -0.86874217 133 120 123
-0.34189242 -0.021087904 -0.86970961 119 102 113
-0.34239894 -0.02099386 -0.87032807 120 104 114
-0.33868447 -0.019079182 -0.8678807 127 104 111
-0.33874205 -0.018699225 -0.86834186 129 106 114
-0.34068704 -0.021104539 -0.86831635 118 97 108
-0.34090078 -0.02124892 -0.86843371 118 97 108
-0.33919829 -0.018107016 -0.86933219 126 110 114
-0.33924758 -0.018845502 -0.86879659 128 107 115
-0.3385179 -0.018035058 -0.86869717 131 109 116
-0.33944947 -0.019114329 -0.86878866 128 106 115
-0.33785543 -0.017584281 -0.86837476 133 111 116
-0.3464722 -0.024299566 -0.87051678 96 70 81
-0.34589091 -0.023340655 -0.87122291 113 91 100
-0.34808439 -0.024891848 -0.8711946 45 34 38
-0.34649533 -0.023911256 -0.87103254 95 74 82
-0.34575769 -0.023724351 -0.87061518 118 90 101
-0.34204492 -0.022864491 -0.86812723 118 92 108
-0.34196931 -0.021760503 -0.86915797 120 98 112
-0.34190345 -0.021999391 -0.86887109 119 97 111
-0.34358087 -0.023864854 -0.86832941 123 84 103
-0.34291688 -0.022065045 -0.86974955 122 97 111
-0.34376055 -0.022836816 -0.86965793 123 92 107
-0.34362134 -0.023122068 -0.86913896 122 89 105
-0.34318897 -0.022511275 -0.86946452 122 94 109
-0.34210718 -0.021532679 -0.86956769 120 100 114
-0.3446573 -0.022841068 -0.87061006 124 95 108
-0.34504908 -0.022823362 -0.87103838 122 97 108
-0.34541261 -0.02283424 -0.87140095 120 99 108
-0.34127799 -0.022265093 -0.86788988 116 93 106
-0.30320337 -0.040196236 -0.83234513 127 113 109
-0.30328006 -0.040423963 -0.83229643 128 113 110
-0.30162296 -0.040794536 -0.83207446 114 89 91
-0.30176184 -0.040289875 -0.83221114 114 92 92
-0.30001557 -0.04002469 -0.83216166 94 57 63
-0.30119944 -0.039755274 -0.83229905 107 81 81
-0.30027449 -0.039947707 -0.83219552 97 63 67
-0.30056244 -0.03900959 -0.83241397 98 67 68
-0.30891547 -0.044898279 -0.83202469 135 120 129
-0.30839959 -0.044077169 -0.83213276 136 122 129
-0.30761889 -0.043747336 -0.83204722 138 123 129
-0.30721319 -0.044353921 -0.83179301 138 124 129
-0.30711469 -0.042397793 -0.83229846 139 124 129
-0.30479506 -0.04113495 -0.83230263 134 118 119
-0.30462322 -0.042345699 -0.831954 133 117 119
-0.3064093 -0.042121265 -0.8322382 139 124 128
-0.30587852 -0.04200843 -0.83220214 137 122 125
-0.30522105 -0.041846503 -0.83216345 135 120 122
-0.30451924 -0.044854179 -0.83134198 137 121 122
-0.30306202 -0.044462163 -0.83130538 135 117 117
-0.30312353 -0.041601669 -0.83197427 128 112 112
-0.30480608 -0.043147583 -0.83176297 133 118 120
-0.30625227 -0.04475867 -0.83151585 138 124 128
-0.30461335 -0.044095773 -0.83152616 135 119 121
-0.29988196 -0.044504859 -0.83135772 99 58 65
-0.30143225 -0.044742256 -0.83125424 119 90 93
-0.30059156 -0.044831663 -0.8312813 108 73 78
-0.3024205 -0.041469321 -0.83195442 124 105 105
-0.30079481 -0.04120243 -0.83193094 105 74 80
-0.30181322 -0.041443661 -0.83192849 117 94 96
-0.30178073 -0.042489279 -0.83168423 119 95 97
-0.30144304 -0.043449093 -0.83144391 118 90 94
-0.3107664 -0.045746252 -0.83221495 132 117 128
-0.31281331 -0.047739182 -0.83228111 130 116 124
-0.31148812 -0.048473444 -0.83166766 129 114 123
-0.31072348 -0.048431184 -0.83144498 129 114 123
-0.31098646 -0.047337618 -0.8318339 130 115 125
-0.30807909 -0.046477269 -0.8313998 135 120 127
-0.30793053 -0.047322728 -0.83118474 133 117 125
-0.30883852 -0.048774812 -0.83100796 129 112 122
-0.30726379 -0.048046533 -0.83091122 132 114 123
-0.30721983 -0.048554212 -0.83078957 131 112 122
-0.3094911 -0.047009714 -0.83155686 132 117 126
-0.30820414 -0.045367546 -0.83173376 136 121 129
-0.30980682 -0.046374161 -0.83180618 132 117 127
-0.31023258 -0.046594471 -0.83183873 131 116 127
-0.30868596 -0.045014713 -0.83194023 135 121 129
-0.3086141 -0.04514293 -0.83188814 135 121 129
-0.30276474 -0.047535699 -0.83069825 137 125 123
-0.30427569 -0.048563085 -0.83057767 135 121 124
-0.30540797 -0.048286811 -0.83067662 133 115 122
-0.30340868 -0.048072752 -0.83062893 137 124 124
-0.30300215 -0.045352723 -0.83110368 135 118 117
-0.30359712 -0.048098959 -0.83063227 136 123 124
-0.30592462 -0.046632055 -0.83106399 134 117 124
-0.30509099 -0.04667693 -0.8309809 134 115 121
-0.30663899 -0.045535397 -0.83137363 137 122 128
-0.30599752 -0.046398442 -0.83112305 135 118 124
-0.30660549 -0.047331784 -0.83096594 134 116 124
-0.30546024 -0.045434773 -0.83129311 137 121 125
-0.30193549 -0.048607811 -0.8305853 129 113 112
-0.29963103 -0.04596784 -0.83114356 97 56 63
-0.30017504 -0.047483958 -0.83092034 107 74 79
-0.30042949 -0.046725065 -0.83096623 108 75 80
-0.30042616 -0.047686443 -0.83086818 110 80 84
-0.30052921 -0.045446094 -0.83117729 108 73 78
-0.29947215 -0.045508996 -0.8312149 94 51 59
-0.30235222 -0.045490306 -0.83108485 131 111 111
-0.30243406 -0.047577005 -0.83070332 134 119 118
-0.30234662 -0.045771614 -0.83103412 131 112 112
-0.30055177 -0.045974754 -0.83108056 108 75 80
-0.31531081 -0.052585457 -0.83165592 115 96 110
-0.31511104 -0.051796004 -0.83182162 118 100 113
-0.31528708 -0.051495623 -0.83196652 119 102 114
-0.31671992 -0.051542994 -0.83241791 123 104 116
-0.3133271 -0.04900156 -0.83207947 128 114 122
-0.31360552 -0.049598925 -0.83199024 125 111 120
-0.31356651 -0.051520653 -0.83141702 117 100 113
-0.31309688 -0.050627861 -0.83153397 121 105 116
-0.31377178 -0.0511375 -0.83159173 119 102 114
-0.31119996 -0.05107908 -0.83094001 122 106 117
-0.31159502 -0.05183766 -0.83086634 120 104 115
-0.31197625 -0.051783316 -0.83096659 119 103 114
-0.31197268 -0.05131888 -0.83106703 120 104 115
-0.31060255 -0.049930815 -0.83105165 126 111 120
-0.3120926 -0.051390097 -0.83107924 120 103 115
-0.3078382 -0.051527876 -0.83028167 127 110 119
-0.30697662 -0.050523698 -0.83035398 129 111 121
-0.30735233 -0.05001073 -0.83050454 128 110 120
-0.30769125 -0.050117947 -0.83053124 127 109 120
-0.3081612 -0.050540913 -0.83051568 126 108 119
-0.31032452 -0.050042309 -0.83097756 126 111 120
-0.30946288 -0.049094502 -0.83104134 128 112 122
-0.30899391 -0.050189231 -0.83072519 126 109 119
-0.3087126 -0.049611215 -0.83080447 128 110 120
-0.30802864 -0.049547289 -0.83070511 128 110 120
-0.30316299 -0.051366467 -0.83007485 137 125 124
-0.30307022 -0.051573951 -0.83004242 137 125 124
-0.30313015 -0.052645355 -0.82987785 137 124 123
-0.30562085 -0.052344214 -0.82993823 132 118 122
-0.30294195 -0.05010787 -0.83026725 138 127 125
-0.30464458 -0.050605737 -0.8302052 134 122 124
-0.30429542 -0.048913874 -0.83051407 135 122 124
-0.30543798 -0.049134761 -0.83052117 133 117 123
-0.30537099 -0.05123404 -0.83011633 132 119 123
-0.30378982 -0.049527273 -0.83037478 136 125 125
-0.29956406 -0.049630348 -0.83073765 103 69 74
-0.30023175 -0.051560618 -0.830396 111 82 86
-0.29941073 -0.049960896 -0.83072078 102 67 72
-0.29963699 -0.05169227 -0.83047235 105 72 78
-0.29926252 -0.050676733 -0.83065569 101 65 71
-0.29968217 -0.04916146 -0.83079296 105 72 76
-0.30023387 -0.049217369 -0.83071542 111 82 85
-0.30060035 -0.050287444 -0.83050501 115 88 90
-0.30206853 -0.051894698 -0.83007431 130 113 113
-0.30175391 -0.04898791 -0.8305608 128 111 110
-0.29865274 -0.051725455 -0.83063215 96 58 66
-0.29859447 -0.050223514 -0.83082974 95 56 63
-0.31911612 -0.055345718 -0.83225173 124 104 115
-0.31922495 -0.055690162 -0.83221197 125 105 115
-0.31970751 -0.056166846 -0.83232015 127 107 116
-0.31750342 -0.052761558 -0.83231628 120 99 113
-0.31592083 -0.053086612 -0.83170927 116 96 110
-0.3169274 -0.054538708 -0.83163899 118 98 111
-0.31812996 -0.054599401 -0.83200824 121 100 112
-0.31804827 -0.056149963 -0.83156228 121 100 111
-0.31735006 -0.054518644 -0.83177996 119 99 111
-0.31678075 -0.055674598 -0.83128929 118 97 109
-0.31521943 -0.056481455 -0.8305887 113 92 102
-0.31525639 -0.055150602 -0.83095014 114 93 105
-0.31673208 -0.055706725 -0.83126563 117 97 109
-0.31593609 -0.054481387 -0.83133864 116 96 109
-0.31543523 -0.053758074 -0.83137214 115 95 109
-0.31251174 -0.056283999 -0.83001137 110 91 102
-0.31220862 -0.056235891 -0.82996356 110 92 103
-0.31090739 -0.054467186 -0.8301087 114 98 109
-0.31336167 -0.056633983 -0.83009732 110 90 101
-0.31166896 -0.055191327 -0.83009356 113 95 106
-0.31093818 -0.056223564 -0.82972038 109 92 104
-0.31180465 -0.053665519 -0.83047485 117 100 110
-0.31301096 -0.054236747 -0.83060449 114 96 107
-0.31323305 -0.053297382 -0.83090293 114 96 109
-0.31173387 -0.053131532 -0.83059877 117 101 112
-0.31228259 -0.053294268 -0.83068329 116 99 111
-0.31386483 -0.054960273 -0.83061236 112 93 104
-0.30697665 -0.055346809 -0.82944101 124 109 116
-0.30698133 -0.053997252 -0.829687 126 111 118
-0.30717221 -0.053454086 -0.82980436 126 111 118
-0.30941072 -0.055738892 -0.82960516 113 97 108
-0.30703029 -0.053720992 -0.82974207 126 111 118
-0.30760252 -0.056450021 -0.82930082 119 104 113
-0.30976209 -0.053791367 -0.83008134 118 103 113
-0.3104831 -0.05392937 -0.83015072 116 100 111
-0.30836913 -0.053343114 -0.82998794 123 108 116
-0.31040549 -0.052824575 -0.83038795 120 105 114
-0.31007347 -0.056091078 -0.82960844 110 94 106
-0.30513391 -0.055986125 -0.82933432 127 115 120
-0.30486137 -0.056454811 -0.82929152 128 117 121
-0.30376109 -0.05432469 -0.82961178 133 121 122
-0.30512607 -0.055860657 -0.82935011 128 115 120
-0.3051022 -0.055106528 -0.82944387 128 115 119
-0.30614266 -0.054516852 -0.8295567 127 113 119
-0.30294576 -0.052842777 -0.82984334 137 124 123
-0.30571511 -0.053430464 -0.82975203 130 116 120
-0.30643746 -0.05462832 -0.82953811 127 112 118
-0.30567244 -0.053415544 -0.82975453 130 116 120
-0.30127445 -0.056025833 -0.82972026 121 104 105
-0.30145785 -0.055748969 -0.82970679 122 106 109
-0.30032536 -0.055433482 -0.82995522 113 88 90
-0.30122268 -0.055272788 -0.82979184 120 101 105
-0.29908076 -0.053209413 -0.83038151 100 64 72
-0.30112648 -0.053406797 -0.83002973 120 98 102
-0.30264059 -0.055799171 -0.82950073 133 125 126
-0.30200067 -0.055203509 -0.82967341 127 114 116
-0.30052522 -0.053895805 -0.8300634 114 89 94
-0.30267057 -0.054193679 -0.8296929 135 125 124
-0.3208285 -0.059048578 -0.83213806 134 115 122
-0.32098383 -0.059130739 -0.83219373 135 115 123
-0.31923416 -0.057462085 -0.83175296 126 105 115
-0.32006055 -0.059574436 -0.83169162 132 115 119
-0.31938586 -0.058029305 -0.83170283 127 108 116
-0.31874761 -0.059297495 -0.83117253 127 111 113
-0.3210637 -0.059809957 -0.83208352 136 118 123
-0.31979433 -0.060440149 -0.83140367 133 118 117
-0.31960982 -0.059344161 -0.83154023 130 113 117
-0.31761914 -0.060113177 -0.83060515 125 112 109
-0.31509483 -0.059924487 -0.82981926 119 103 103
-0.31829366 -0.060523067 -0.83073866 127 115 110
-0.31531185 -0.059285659 -0.83002603 118 102 103
-0.3157247 -0.059261728 -0.83016622 119 103 104
-0.31823105 -0.058107473 -0.83119839 123 106 111
-0.31676179 -0.058063455 -0.83074749 119 101 106
-0.31802365 -0.057415307 -0.83127069 122 103 110
-0.31634596 -0.057454493 -0.83073801 117 98 105
-0.31542537 -0.056836993 -0.83057237 114 93 102
-0.31487012 -0.057036471 -0.83035916 112 92 101
-0.31120232 -0.059836861 -0.82905984 109 91 95
-0.31105337 -0.057510819 -0.8294729 109 92 102
-0.31160519 -0.059611246 -0.82917064 110 93 97
-0.3122991 -0.0595982 -0.82929069 112 95 99
-0.3108103 -0.058115706 -0.82931775 108 90 100
-0.3106159 -0.057168532 -0.82946324 108 90 102
-0.31344491 -0.057745673 -0.82987714 112 94 101
-0.31153926 -0.057249419 -0.82961375 110 92 103
-0.3137612 -0.059646003 -0.82953459 116 100 102
-0.31303754 -0.0583563 -0.82966858 113 96 102
-0.3124828 -0.058094677 -0.82961679 112 95 102
-0.31297639 -0.058171839 -0.82969588 113 95 102
-0.30752829 -0.058564346 -0.82893544 116 101 107
-0.30874172 -0.059813209 -0.82881886 111 94 100
-0.30767611 -0.059792772 -0.82875896 112 97 103
-0.3087984 -0.060349006 -0.82874143 109 93 98
-0.30709961 -0.060007665 -0.82869244 112 98 104
-0.30694452 -0.056944333 -0.82914525 121 107 114
-0.30797231 -0.056819629 -0.82926822 117 102 111
-0.30822894 -0.057775389 -0.82911295 116 100 107
-0.30708665 -0.057000879 -0.82914835 121 106 113
-0.31030005 -0.058245134 -0.82922482 108 90 99
-0.3039301 -0.058197126 -0.8290956 125 116 119
-0.30308416 -0.058090236 -0.82918084 126 118 120
-0.30330688 -0.059494928 -0.82899487 120 109 112
-0.30332392 -0.057781838 -0.82919687 128 120 122
-0.30276024 -0.06039536 -0.82893473 116 104 107
-0.3034758 -0.058967382 -0.82904303 122 112 115
-0.30425504 -0.057934172 -0.82910621 126 116 120
-0.30557317 -0.059478015 -0.82880265 118 106 111
-0.30562818 -0.057453942 -0.8291049 123 111 117
-0.30474207 -0.057357863 -0.82916695 126 116 120
-0.30347231 -0.057319846 -0.82924098 130 122 124
-0.30046219 -0.058453914 -0.82962662 108 82 83
-0.30054116 -0.05859394 -0.82959867 109 83 84
-0.30152836 -0.059489492 -0.82929188 112 92 94
-0.30109268 -0.059357177 -0.82941419 110 89 90
-0.30030233 -0.05945646 -0.82961905 107 84 84
-0.30159247 -0.059860189 -0.82925636 112 94 95
-0.30093727 -0.056774225 -0.82972044 119 99 98
-0.30160367 -0.057716191 -0.82947755 120 103 104
-0.30264172 -0.058373522 -0.82919532 125 115 117
-0.30135995 -0.057932075 -0.82949978 117 98 99
-0.30268109 -0.057837866 -0.82925123 128 119 121
-0.32310915 -0.063566841 -0.83238113 145 128 135
-0.32236385 -0.062670618 -0.83211279 143 126 132
-0.32081211 -0.061014567 -0.83173609 137 121 123
-0.3221561 -0.063450843 -0.83185875 143 126 133
-0.32156509 -0.061628576 -0.83194774 140 123 127
-0.32117522 -0.061653484 -0.83177292 139 122 125
-0.32172745 -0.062799275 -0.83179581 141 125 130
-0.32219476 -0.061013773 -0.83233941 142 124 130
-0.32010478 -0.062344454 -0.83117497 135 121 121
-0.31925005 -0.063195959 -0.8306573 130 115 116
-0.31886721 -0.064411186 -0.83027512 127 110 114
-0.32027224 -0.062473003 -0.83122319 135 121 122
-0.31935298 -0.061884154 -0.83093756 131 118 117
-0.31904334 -0.061725743 -0.83083421 130 117 115
-0.31621552 -0.064411357 -0.82944167 118 104 104
-0.31564337 -0.063884616 -0.82935119 117 104 103
-0.31488705 -0.063111067 -0.82924253 116 103 101
-0.31750533 -0.064126857 -0.82985169 122 106 108
-0.3147853 -0.061686374 -0.82941282 118 103 102
-0.31701592 -0.060984802 -0.83023667 124 110 107
-0.31756452 -0.061731216 -0.83028162 125 111 109
-0.31624097 -0.061620764 -0.8298685 122 107 106
-0.31762141 -0.062144682 -0.83022577 125 110 109
-0.31768379 -0.062517166 -0.83017898 124 109 109
-0.31058449 -0.062624536 -0.82855093 103 85 91
-0.31124085 -0.061500981 -0.82880205 107 90 93
-0.31117815 -0.06233516 -0.8286851 106 88 93
-0.31121504 -0.061909199 -0.8287456 106 89 93
-0.31332192 -0.063668765 -0.82885218 110 97 97
-0.31414658 -0.061274495 -0.82932323 116 102 100
-0.31358954 -0.062426265 -0.82906747 113 99 98
-0.3134782 -0.063180149 -0.82894301 111 98 98
-0.31342837 -0.062860198 -0.82897943 112 98 98
-0.31375042 -0.061039701 -0.82928896 116 100 99
-0.31414777 -0.062738761 -0.82911831 114 101 100
-0.30682296 -0.061193299 -0.82853419 110 94 102
-0.30800545 -0.061244935 -0.82857394 109 93 100
-0.30849227 -0.061515726 -0.8285675 107 91 98
-0.31018311 -0.06144413 -0.82867682 105 87 92
-0.30443543 -0.063873865 -0.82852364 102 85 92
-0.30382466 -0.063566737 -0.82862973 104 86 92
-0.30443504 -0.061962031 -0.82868367 109 93 99
-0.30316758 -0.061330959 -0.82883221 112 99 103
-0.30290648 -0.062832728 -0.82875967 107 91 96
-0.30518994 -0.061811943 -0.82862842 108 93 99
-0.30366582 -0.061165802 -0.82879996 112 99 103
-0.29944965 -0.06246262 -0.82977545 95 71 73
-0.30054447 -0.062972598 -0.82940483 98 75 79
-0.30206823 -0.063873149 -0.82889247 101 81 86
-0.30152407 -0.063762829 -0.82907933 99 78 83
-0.29899305 -0.063279681 -0.82994908 90 65 69
-0.30124521 -0.062830873 -0.82916981 102 81 84
-0.30209509 -0.063026801 -0.82893181 104 86 90
-0.30111477 -0.062770605 -0.82920825 101 80 83
-0.30217481 -0.061619479 -0.82899964 110 94 97
-0.30196559 -0.061018988 -0.82909316 111 95 98
-0.30265212 -0.062129699 -0.82884061 110 94 99
-0.29873559 -0.063113019 -0.8300547 90 64 67
-0.32337505 -0.066079184 -0.83215159 143 129 135
-0.32392845 -0.067078784 -0.83234382 143 129 134
-0.32289448 -0.067756027 -0.831662 140 128 131
-0.32330292 -0.067818873 -0.83188826 141 128 132
-0.32248867 -0.065864317 -0.83166665 142 128 133
-0.32257253 -0.067215845 -0.83154517 140 128 132
-0.31875414 -0.066963606 -0.82991362 120 101 109
-0.31927958 -0.067338489 -0.83008987 122 104 112
-0.31890014 -0.0666648 -0.83001143 122 103 111
-0.31944677 -0.066939123 -0.83020878 124 107 114
-0.31901166 -0.065134354 -0.83024383 127 111 114
-0.32190883 -0.065138489 -0.83147782 141 126 131
-0.32103956 -0.065476209 -0.831065 136 121 126
-0.32131648 -0.065174229 -0.83122087 138 123 128
-0.3219043 -0.067382231 -0.8311944 138 126 129
-0.32218519 -0.067313649 -0.83132267 139 127 130
-0.32028249 -0.066131376 -0.83066016 132 117 120
-0.31572506 -0.06593205 -0.82911789 112 97 100
-0.31648973 -0.067837037 -0.82911724 107 89 98
-0.31464589 -0.067930624 -0.82859474 99 82 89
-0.31630307 -0.067072302 -0.82915092 110 92 99
-0.31549191 -0.06608212 -0.82903636 110 95 99
-0.3159982 -0.067886472 -0.8289752 105 87 96
-0.31508109 -0.064756222 -0.82907355 114 101 101
-0.31785169 -0.066498302 -0.82965773 117 98 106
-0.31667417 -0.06657999 -0.82930988 113 96 102
-0.3179228 -0.065418229 -0.82980895 120 103 108
-0.3182525 -0.066752806 -0.82974195 118 98 107
-0.31254524 -0.06450136 -0.82862359 106 92 95
-0.31309935 -0.066076055 -0.8285346 101 86 91
-0.31444398 -0.065361641 -0.82882679 109 96 97
-0.31433764 -0.064702533 -0.82888389 111 100 98
-0.30282393 -0.066925466 -0.82866228 103 78 82
-0.30377248 -0.064703517 -0.82854509 101 82 89
-0.30334502 -0.068275467 -0.82857126 105 77 79
-0.30065602 -0.066626146 -0.82941705 94 66 70
-0.30008507 -0.06574551 -0.82959455 91 64 69
-0.30087107 -0.066748783 -0.8293364 95 67 71
-0.30063719 -0.06745027 -0.82947904 94 66 69
-0.30087692 -0.068039939 -0.82941896 96 67 69
-0.29973912 -0.065385476 -0.82971352 89 62 67
-0.30110255 -0.066315107 -0.82923931 96 69 73
-0.30006129 -0.064655468 -0.82959998 90 66 72
-0.30010635 -0.065260738 -0.82958466 91 65 70
-0.30137363 -0.065172225 -0.8291446 96 73 78
-0.30262667 -0.064477764 -0.82870924 101 82 88
-0.32364726 -0.068869509 -0.83199233 139 127 131
-0.32405648 -0.069722056 -0.83218414 136 124 129
-0.32395706 -0.070210643 -0.83210266 134 122 127
-0.32387415 -0.071471289 -0.83198911 130 118 124
-0.32386923 -0.072227903 -0.83194447 129 116 123
-0.32307714 -0.070190147 -0.83159643 134 122 126
-0.32396179 -0.072185107 -0.83200067 129 116 123
-0.32019502 -0.070829041 -0.83020926 123 106 114
-0.32013944 -0.07210473 -0.83010131 125 109 115
-0.31976497 -0.070222393 -0.83006322 121 102 112
-0.32006091 -0.071764402 -0.83008969 124 108 115
-0.32006076 -0.071895607 -0.83008105 125 108 115
-0.31886205 -0.069404967 -0.8297267 117 96 108
-0.32117099 -0.070919 -0.83062255 126 111 118
-0.32124522 -0.070237078 -0.83069158 128 113 120
-0.32122666 -0.070584618 -0.83066458 127 112 119
-0.32051405 -0.070209675 -0.83038467 124 107 115
-0.32220677 -0.070609733 -0.83107656 134 121 125
-0.32224077 -0.069961004 -0.83112681 135 123 126
-0.31781879 -0.069168776 -0.82938802 114 91 104
-0.31712025 -0.07052467 -0.82912207 115 92 103
-0.31812206 -0.070243441 -0.8293941 117 96 106
-0.31706885 -0.07079161 -0.82909149 115 92 104
-0.31708795 -0.068478867 -0.82921952 108 88 99
-0.3161999 -0.069465332 -0.82892781 108 86 97
-0.31602114 -0.069895647 -0.82885849 109 87 98
-0.31697783 -0.069724947 -0.82913196 112 89 102
-0.31543693 -0.068510294 -0.82875955 101 83 92
-0.30296329 -0.068543442 -0.82863128 106 77 79
-0.30146688 -0.071182244 -0.82915312 109 87 87
-0.30234712 -0.071986973 -0.82876813 117 97 96
-0.29958713 -0.069543265 -0.82997942 93 66 67
-0.30146316 -0.068566464 -0.82919395 99 71 73
-0.30238381 -0.068390399 -0.82881778 103 74 76
-0.30250871 -0.071440302 -0.8287046 116 95 95
-0.30164242 -0.069043584 -0.82911038 102 75 76
-0.30235359 -0.071502365 -0.8287673 116 95 94
-0.32378891 -0.074076474 -0.83189023 125 111 117
-0.32444075 -0.073508061 -0.83227104 126 112 119
-0.32378265 -0.073019527 -0.83188975 127 114 120
-0.32393003 -0.072425239 -0.83197725 128 115 122
-0.32255226 -0.075220823 -0.83117127 124 109 117
-0.32428297 -0.075606488 -0.83217317 122 106 113
-0.32353958 -0.075105198 -0.83174336 124 108 115
-0.32410705 -0.075490378 -0.83207148 122 107 114
-0.31912452 -0.076090947 -0.82955599 122 104 113
-0.31837603 -0.075070813 -0.82924199 122 103 112
-0.31936452 -0.075519212 -0.8296845 122 104 113
-0.32087454 -0.075747177 -0.83037472 122 105 114
-0.32034016 -0.075974032 -0.83012092 122 105 114
-0.3219226 -0.076163262 -0.83084577 122 106 115
-0.32094589 -0.074082024 -0.83043659 124 107 115
-0.32098001 -0.073604599 -0.83045202 125 109 116
-0.31977731 -0.073241509 -0.82993263 123 105 112
-0.32225183 -0.074978031 -0.83099973 125 110 118
-0.32190818 -0.072430432 -0.83085507 129 116 121
-0.32124808 -0.074812651 -0.83056611 123 106 115
-0.31809539 -0.075773895 -0.82914281 123 104 113
-0.31738701 -0.074589282 -0.82899261 125 106 114
-0.31733689 -0.074224204 -0.8289907 125 106 113
-0.31751338 -0.073801719 -0.82905042 124 106 113
-0.31614029 -0.074093454 -0.82868993 123 102 111
-0.31543598 -0.072974183 -0.82855433 117 93 103
-0.31641003 -0.07362406 -0.82877606 122 101 109
-0.31692502 -0.073193587 -0.82892281 121 101 109
-0.31609708 -0.073895216 -0.82868654 122 101 110
-0.3027584 -0.074254438 -0.82859856 111 93 95
-0.3030661 -0.072747447 -0.82852119 120 102 101
-0.30127719 -0.075644374 -0.82933509 93 72 74
-0.30182704 -0.07537967 -0.82905251 97 78 81
-0.30091977 -0.07432428 -0.82948697 93 73 74
-0.30126375 -0.072834663 -0.8293128 103 84 83
-0.30007505 -0.072467633 -0.8298893 93 73 71
-0.30062929 -0.072608151 -0.82962036 98 78 76
-0.30228123 -0.075322755 -0.82882929 102 83 86
-0.30241194 -0.072828546 -0.82875419 115 96 95
-0.32449862 -0.077160746 -0.83235413 120 104 111
-0.3232097 -0.076795466 -0.83158654 122 105 113
-0.3226043 -0.076596223 -0.83122438 122 106 115
-0.32367438 -0.077701598 -0.83190781 121 104 112
