ply
format ascii 1.0
comment PCL generated
element vertex 968
property float x
property float y
property float z
property uchar red
property uchar green
property uchar blue
element camera 1
property float view_px
property float view_py
property float view_pz
property float x_axisx
property float x_axisy
property float x_axisz
property float y_axisx
property float y_axisy
property float y_axisz
property float z_axisx
property float z_axisy
property float z_axisz
property float focal
property float scalex
property float scaley
property float centerx
property float centery
property int viewportx
property int viewporty
property float k1
property float k2
end_header
-0.16219482 -0.49788311 -0.74239671 193 177 188
-0.16200656 -0.49759877 -0.74211681 192 175 187
-0.16184285 -0.49716529 -0.74198145 190 172 184
-0.15976283 -0.49694002 -0.73957282 189 176 184
-0.15965641 -0.49727303 -0.73941791 189 178 184
-0.16224995 -0.49837032 -0.74250108 194 178 189
-0.16223201 -0.50110072 -0.74244565 194 178 190
-0.16080904 -0.50062406 -0.74065638 195 180 192
-0.16196539 -0.50101537 -0.74196887 194 177 190
-0.16173398 -0.49934059 -0.74173111 194 179 190
-0.16114289 -0.49969152 -0.74105161 195 180 191
-0.16137949 -0.50135744 -0.74129546 194 178 191
-0.16120131 -0.49936688 -0.74112338 195 180 191
-0.16010819 -0.49995434 -0.73985428 195 182 192
-0.15912762 -0.49919492 -0.73870784 194 185 190
-0.16080393 -0.49830288 -0.74065852 193 181 189
-0.16065562 -0.4981423 -0.74048489 193 182 189
-0.1604251 -0.4986605 -0.74021828 194 182 190
-0.15942588 -0.50107706 -0.73906344 196 182 193
-0.16230696 -0.50528932 -0.74219799 195 182 187
-0.16226554 -0.50402188 -0.74224204 194 180 188
-0.16135524 -0.50416863 -0.74109554 193 178 188
-0.1603635 -0.50514024 -0.73995775 191 176 186
-0.16209233 -0.50210136 -0.74208474 194 177 190
-0.16046803 -0.50574899 -0.74000174 192 177 186
-0.16140673 -0.50518519 -0.74104065 194 180 187
-0.16013709 -0.50566024 -0.73966616 191 176 186
-0.16093659 -0.50294083 -0.74074739 193 176 190
-0.15948419 -0.50354749 -0.73907048 193 178 190
-0.16060618 -0.50385195 -0.74033946 191 175 188
-0.16118237 -0.50216305 -0.74105418 194 178 191
-0.15928534 -0.50238973 -0.73888326 196 181 193
-0.1593316 -0.50220579 -0.73894233 197 181 194
-0.16237003 -0.50615215 -0.74220943 195 182 186
-0.16223086 -0.50944567 -0.74157685 188 171 189
-0.16284688 -0.50951475 -0.74250269 184 166 187
-0.16204368 -0.50652504 -0.74157858 195 182 188
-0.16196774 -0.50754535 -0.74141496 193 178 188
-0.16107114 -0.50908995 -0.7403872 187 170 186
-0.16186672 -0.50640637 -0.7414121 195 182 187
-0.15978405 -0.50975955 -0.73904496 182 164 182
-0.16016814 -0.50808567 -0.73955429 187 170 183
-0.16024527 -0.50818807 -0.73962909 187 170 183
-0.1596704 -0.50673097 -0.73911017 188 172 184
-0.16114853 -0.50663793 -0.74065655 192 178 186
-0.16015905 -0.50833189 -0.73953122 186 170 183
-0.16136406 -0.50587726 -0.74092329 194 181 187
-0.16303621 -0.51153803 -0.74234402 184 167 184
-0.1633234 -0.5129599 -0.74243873 184 167 181
-0.16226719 -0.51131111 -0.74131727 186 169 186
-0.16275987 -0.51262677 -0.74174511 185 168 182
-0.16213654 -0.51132816 -0.74114352 186 169 186
-0.16192894 -0.51083153 -0.74101555 186 168 186
-0.16198772 -0.51107228 -0.7410326 186 168 186
-0.16163248 -0.51119816 -0.74066895 183 165 184
-0.16210429 -0.5111357 -0.74113464 186 169 186
-0.16039088 -0.51049405 -0.73954308 181 163 181
-0.15986922 -0.51222646 -0.73876786 172 155 174
-0.16091292 -0.51132751 -0.73994172 179 161 180
-0.16052474 -0.5110814 -0.73959041 179 161 180
-0.16028072 -0.51267821 -0.7391122 171 154 174
-0.16363101 -0.51467919 -0.74240339 180 163 177
-0.16321503 -0.51448476 -0.74191874 180 163 177
-0.16338302 -0.51421851 -0.7422204 181 164 178
-0.16240062 -0.51539421 -0.74069452 177 161 175
-0.16432633 -0.51749152 -0.74246031 170 152 170
-0.16423811 -0.51736969 -0.74238479 170 152 170
-0.16417296 -0.51723921 -0.74233752 171 153 170
-0.16324766 -0.51612407 -0.74151152 174 157 173
-0.16194274 -0.51756257 -0.73975503 169 153 169
-0.16163874 -0.51695937 -0.73960298 169 153 169
-0.16183437 -0.51527548 -0.74013424 176 160 174
-0.16133086 -0.51577705 -0.73956585 172 155 171
-0.16157906 -0.51482761 -0.73998767 176 159 174
-0.16089888 -0.51458317 -0.73937815 171 154 172
-0.16096041 -0.51450241 -0.73945302 172 155 172
-0.1632739 -0.51851976 -0.74084276 165 148 166
-0.16301848 -0.51906377 -0.74042773 163 146 164
-0.16167811 -0.51835173 -0.73934263 165 148 166
-0.16127954 -0.51761621 -0.73913658 166 148 166
-0.16646966 -0.49003369 -0.75710154 166 128 160
-0.16562538 -0.48884094 -0.75712478 159 129 148
-0.16496851 -0.48731551 -0.7580775 144 116 126
-0.16705541 -0.49091181 -0.75742418 160 119 155
-0.16698085 -0.49044529 -0.75774425 160 117 155
-0.167077 -0.49111292 -0.75726074 160 120 156
-0.16647744 -0.49056023 -0.75640494 169 136 166
-0.16823135 -0.49390376 -0.7579059 161 136 159
-0.16771117 -0.49365371 -0.75650084 161 137 161
-0.16817486 -0.4940272 -0.75758815 161 138 160
-0.16745438 -0.49150982 -0.75802243 159 120 155
-0.16746272 -0.49194387 -0.75757349 160 124 156
-0.16893007 -0.49652782 -0.75802344 171 150 170
-0.16900729 -0.49798766 -0.75722992 178 158 176
-0.16885138 -0.49621746 -0.75801808 170 149 169
-0.16898759 -0.49763757 -0.7574169 176 156 174
-0.16845027 -0.49761555 -0.75592983 176 155 172
-0.16841452 -0.49682531 -0.75637633 172 151 169
-0.16746679 -0.495498 -0.75430399 168 149 167
-0.16783053 -0.49714229 -0.75441962 174 154 170
-0.16722666 -0.49417135 -0.75438291 163 144 164
-0.16800377 -0.49447629 -0.75669521 163 141 162
-0.16780868 -0.49657714 -0.75471288 172 151 168
-0.16739731 -0.49498171 -0.75441206 166 147 166
-0.1705206 -0.50084406 -0.7579633 168 151 171
-0.17086971 -0.501387 -0.75793362 167 150 170
-0.169484 -0.50150132 -0.75601774 162 141 169
-0.16929261 -0.50149173 -0.7556566 162 140 169
-0.16938497 -0.49861303 -0.75784379 176 156 176
-0.1690446 -0.50110352 -0.75545043 165 140 171
-0.16939959 -0.49859226 -0.75788736 176 156 176
-0.1686559 -0.50010538 -0.75504678 169 145 171
-0.16912706 -0.49897581 -0.75700051 174 153 175
-0.168163 -0.49877524 -0.75441802 175 152 171
-0.16890681 -0.50072539 -0.75539905 167 142 171
-0.16865176 -0.49825516 -0.75607759 177 156 174
-0.16885988 -0.49883991 -0.75633007 175 153 174
-0.17157595 -0.50355428 -0.75777382 173 153 173
-0.17216519 -0.50487995 -0.75798661 181 158 177
-0.17008759 -0.50216115 -0.75664181 159 143 168
-0.17016456 -0.50239283 -0.75664914 160 143 168
-0.17059799 -0.50318098 -0.75685763 166 146 170
-0.17111848 -0.50498277 -0.75682336 175 147 170
-0.17068921 -0.50581503 -0.75608003 174 140 164
-0.17008789 -0.50242931 -0.75655371 160 142 168
-0.16964442 -0.50423717 -0.75533992 165 137 163
-0.16940853 -0.50551945 -0.75454623 169 135 160
-0.1693892 -0.50426942 -0.75486732 166 136 163
-0.1694482 -0.50291061 -0.75535619 162 138 166
-0.16934283 -0.50471783 -0.75465423 167 136 162
-0.16943893 -0.50246465 -0.75546151 161 138 167
-0.17092738 -0.5087477 -0.75446236 161 119 145
-0.17146902 -0.50630629 -0.75662088 177 145 167
-0.17122597 -0.50806957 -0.75520736 166 128 152
-0.17105596 -0.50644618 -0.75608104 174 139 163
-0.17166077 -0.50802135 -0.75571108 169 133 156
-0.17235601 -0.50640726 -0.75751865 183 154 173
-0.17196985 -0.50630713 -0.75716448 181 151 171
-0.17237969 -0.50709814 -0.7571677 178 149 168
-0.17199521 -0.50960177 -0.75537533 160 122 144
-0.17271701 -0.50787532 -0.75738919 173 144 161
-0.17324905 -0.50960141 -0.75751132 162 132 145
-0.17299332 -0.50723231 -0.75815201 178 152 167
-0.17303191 -0.50876307 -0.75752234 168 138 153
-0.16987318 -0.50669605 -0.75468457 167 126 153
-0.17402838 -0.51218033 -0.75713629 157 124 136
-0.17492087 -0.51352185 -0.7569558 155 118 132
-0.17441308 -0.5132519 -0.75674736 156 119 133
-0.17441019 -0.51311821 -0.7568295 156 120 133
-0.17497188 -0.5129866 -0.75733149 155 121 134
-0.17325211 -0.51305008 -0.75551081 160 123 139
-0.17344733 -0.51166296 -0.7567001 161 128 141
-0.17343031 -0.51118821 -0.75693709 161 130 143
-0.17295033 -0.51061928 -0.75643051 161 127 143
-0.17293949 -0.51249146 -0.75532132 161 126 142
-0.17204699 -0.51051521 -0.75495237 160 120 142
-0.17239898 -0.51102221 -0.75525659 160 122 142
-0.17192119 -0.51060694 -0.75468463 159 119 142
-0.172066 -0.51101398 -0.75469416 160 120 142
-0.17193227 -0.51047319 -0.75478142 159 119 142
-0.18184529 -0.51719505 -0.75798517 191 178 176
-0.18087435 -0.51744217 -0.7575165 190 176 175
-0.17981035 -0.51686639 -0.75749898 179 162 163
-0.17886014 -0.51725274 -0.75690788 177 159 161
-0.17981437 -0.51658827 -0.75770336 177 159 162
-0.17874289 -0.51721519 -0.75689709 176 158 160
-0.17926179 -0.51605469 -0.75791293 171 150 155
-0.1746774 -0.51689744 -0.75451112 170 140 156
-0.17538998 -0.51555687 -0.75592977 164 134 144
-0.17510572 -0.5154711 -0.75577617 164 133 144
-0.17530914 -0.51630878 -0.75535858 168 139 151
-0.17446858 -0.51434875 -0.75606376 159 124 136
-0.17541896 -0.51702988 -0.75495046 171 143 156
-0.17550167 -0.51498878 -0.75639921 161 130 140
-0.17481868 -0.51439792 -0.75629145 159 124 136
-0.17599556 -0.51563084 -0.75633103 164 136 144
-0.17519474 -0.51485366 -0.75626212 161 129 139
-0.17608057 -0.51468986 -0.75703418 159 128 138
-0.17731638 -0.51626337 -0.75688624 167 142 148
-0.17764202 -0.51683396 -0.75676072 169 147 152
-0.17714325 -0.51441318 -0.75805938 156 125 137
-0.17367689 -0.51425523 -0.7554341 159 121 137
-0.17374241 -0.51595688 -0.75446439 165 130 150
-0.18580489 -0.51923931 -0.7579698 182 164 171
-0.18593165 -0.5212757 -0.75700188 179 163 180
-0.18443525 -0.51920396 -0.75762182 188 172 178
-0.18552905 -0.5213728 -0.75682557 184 169 184
-0.18528877 -0.51960129 -0.75764191 185 169 176
-0.18503428 -0.51914054 -0.75780547 186 170 175
-0.18279409 -0.51927996 -0.75714076 193 180 183
-0.18297797 -0.51963651 -0.75700259 192 180 184
-0.18359484 -0.52106369 -0.75641364 191 179 186
-0.18356994 -0.52025366 -0.75684619 191 178 184
-0.18240516 -0.51935869 -0.75698048 194 183 184
-0.18269245 -0.52077371 -0.75629854 195 184 187
-0.17776509 -0.52028018 -0.75444585 169 150 165
-0.1777724 -0.52039623 -0.75436896 169 150 165
-0.18055609 -0.52071351 -0.75556976 192 181 182
-0.17903784 -0.52082998 -0.75468951 178 163 174
-0.17943849 -0.51968813 -0.75570762 184 170 173
-0.17955776 -0.52006811 -0.75550157 185 171 174
-0.180112 -0.51777035 -0.75705951 187 173 172
-0.17919607 -0.51841366 -0.75637883 183 167 168
-0.18142025 -0.51958144 -0.75654876 197 186 184
-0.18085368 -0.518803 -0.7567668 193 180 179
-0.1809857 -0.51971382 -0.7563197 195 183 182
-0.18020469 -0.5191341 -0.75635219 189 176 176
-0.17678148 -0.51772308 -0.75549334 173 151 159
-0.17709266 -0.51781166 -0.75566387 173 152 158
-0.17678379 -0.51896513 -0.75463396 171 149 163
-0.17686225 -0.51903343 -0.75464511 171 149 163
-0.18568964 -0.52153236 -0.75680208 182 167 183
-0.18176806 -0.52367216 -0.75436068 190 179 184
-0.18242349 -0.52347815 -0.75479496 185 170 180
-0.18314822 -0.52300447 -0.7553944 181 163 177
-0.18299416 -0.52346802 -0.75506455 180 162 176
-0.18343741 -0.52324742 -0.75537896 177 158 175
-0.18348704 -0.52228683 -0.75580728 185 170 182
-0.18305825 -0.52215081 -0.75573629 189 174 184
-0.18153973 -0.52328449 -0.75447512 192 181 185
-0.18109852 -0.52172363 -0.75516802 194 184 187
-0.17996001 -0.52191579 -0.7544558 183 170 180
-0.18392169 -0.49333891 -0.77002323 127 98 111
-0.1799463 -0.4920435 -0.77104336 152 131 126
-0.17970282 -0.49381641 -0.77018964 159 140 135
-0.17842767 -0.49141541 -0.77142262 145 126 126
-0.1788335 -0.49147475 -0.77137315 146 126 126
-0.17863561 -0.49322161 -0.77055734 162 140 135
-0.17895198 -0.49075368 -0.77170801 140 121 121
-0.17869101 -0.49064985 -0.77177089 139 120 122
-0.17628266 -0.49351186 -0.77044994 160 135 145
-0.17426525 -0.49321741 -0.77007562 148 114 146
-0.17396487 -0.49313983 -0.77006173 146 111 146
-0.17431818 -0.49247557 -0.77101493 147 114 147
-0.17691222 -0.49345502 -0.77073067 163 139 144
-0.175136 -0.49177912 -0.77217567 151 121 147
-0.17681369 -0.49241036 -0.77136487 155 131 140
-0.177169 -0.49332494 -0.770787 162 140 142
-0.17681095 -0.49168271 -0.77171016 148 126 136
-0.17116445 -0.49367213 -0.77139109 96 80 92
-0.17242268 -0.49326444 -0.77050877 128 101 126
-0.17218047 -0.49296153 -0.7703011 139 111 135
-0.17041865 -0.49376553 -0.77176738 84 73 78
-0.17121576 -0.49237603 -0.77008885 155 129 146
-0.17246276 -0.4934842 -0.77082914 116 91 115
-0.17274821 -0.49318388 -0.77094609 122 95 123
-0.17049254 -0.4937292 -0.77232438 74 65 71
-0.17056027 -0.49376786 -0.7722137 75 65 72
-0.17115782 -0.49372953 -0.77171487 88 73 85
-0.17377429 -0.49315694 -0.77004057 144 109 145
-0.17074648 -0.49409947 -0.77290028 70 56 64
-0.17382306 -0.49296308 -0.77023697 145 109 147
-0.17083819 -0.49426407 -0.77297956 73 59 67
-0.17174982 -0.49606517 -0.77365553 129 109 126
-0.17183638 -0.49600792 -0.77371591 129 107 125
-0.17020886 -0.49474263 -0.77253866 80 73 76
-0.17132849 -0.49764773 -0.77333874 167 148 166
-0.17076299 -0.49737373 -0.77288789 154 133 153
-0.17109844 -0.49660957 -0.77319169 138 124 136
-0.17015545 -0.49811584 -0.77248472 165 138 165
-0.15832579 -0.49265838 -0.73775923 191 175 186
-0.15846431 -0.49404162 -0.73806822 193 179 189
-0.15631662 -0.49337646 -0.7353794 192 177 186
-0.1574747 -0.49314883 -0.73675555 192 177 187
-0.15704928 -0.49324259 -0.73625088 192 177 187
-0.15813372 -0.49328616 -0.73756176 193 178 188
-0.15647489 -0.49260467 -0.73546302 192 176 186
-0.15593123 -0.49303839 -0.73479956 193 179 187
-0.15667209 -0.49024266 -0.73528135 191 176 186
-0.15682282 -0.49182111 -0.73579073 191 175 185
-0.15905815 -0.49746925 -0.73865426 192 184 188
-0.15840408 -0.49775398 -0.73772067 196 188 192
-0.15833096 -0.49787119 -0.73760939 197 189 193
-0.15805422 -0.49565211 -0.7374512 195 184 191
-0.15808111 -0.49649504 -0.73741335 196 186 192
-0.15779942 -0.49532267 -0.7372182 195 182 190
-0.15817128 -0.49627236 -0.73752207 196 185 192
-0.15753254 -0.49791858 -0.73674673 196 187 191
-0.15661277 -0.4944548 -0.73581809 194 180 188
-0.15671064 -0.49593893 -0.73601067 194 181 187
-0.15601577 -0.49537966 -0.73514503 194 180 187
-0.156023 -0.49430883 -0.73509985 194 180 188
-0.15651497 -0.49497649 -0.73572648 194 180 188
-0.15653755 -0.49454886 -0.73573214 194 180 188
-0.15891048 -0.50039464 -0.73841751 197 185 193
-0.1589177 -0.49827367 -0.73841697 194 186 190
-0.15825167 -0.50053108 -0.73762953 199 184 194
-0.15850487 -0.50066888 -0.73792702 198 184 194
-0.1581573 -0.49908611 -0.73743254 198 187 194
-0.15769026 -0.50159478 -0.73707825 197 180 192
-0.15592027 -0.50182557 -0.73514915 190 172 182
-0.15706827 -0.50006032 -0.7362982 194 181 188
-0.15792452 -0.50039369 -0.73725951 198 184 193
-0.15806812 -0.50149173 -0.73748672 199 182 194
-0.15571105 -0.50149947 -0.7349121 189 172 181
-0.15678304 -0.49904314 -0.73598313 194 182 188
-0.15584724 -0.50080645 -0.73504561 190 175 183
-0.15710984 -0.49858743 -0.73631155 195 185 189
-0.15721591 -0.4986062 -0.73641932 195 185 190
-0.15872569 -0.50202388 -0.73825759 198 182 194
-0.15918641 -0.50558531 -0.73866129 189 173 185
-0.15849285 -0.50545275 -0.73797768 190 175 186
-0.15821996 -0.50461191 -0.73770493 192 177 188
-0.15766142 -0.50386667 -0.73713839 192 174 188
-0.1569168 -0.5047577 -0.73639965 185 167 184
-0.15772179 -0.50489664 -0.73720843 189 173 186
-0.15677524 -0.50459391 -0.73625618 185 166 184
-0.15597548 -0.50544822 -0.73546189 179 158 180
-0.15730898 -0.50347376 -0.73678124 191 172 188
-0.15607202 -0.50351471 -0.73544949 185 165 183
-0.15591678 -0.5047307 -0.73537678 181 159 181
-0.15603583 -0.50335002 -0.73539644 186 166 182
-0.15751606 -0.50231141 -0.73693842 195 177 191
-0.15660295 -0.50379914 -0.73605531 187 166 185
-0.15900484 -0.50719696 -0.73840976 186 170 183
-0.15922409 -0.5072397 -0.73862046 186 169 183
-0.15913634 -0.50968844 -0.73838276 180 162 180
-0.15824077 -0.50890499 -0.73748416 179 162 179
-0.15866199 -0.50920039 -0.73791295 180 162 180
-0.15617341 -0.50936157 -0.73552823 175 162 172
-0.15635686 -0.5094251 -0.7356925 175 161 173
-0.15635659 -0.50894922 -0.73573232 176 163 174
-0.1569176 -0.50960702 -0.73619574 175 160 174
-0.15817684 -0.50611043 -0.73765463 188 174 184
-0.15538116 -0.50901639 -0.73478192 173 159 171
-0.15668578 -0.50795507 -0.73611999 180 167 176
-0.1571985 -0.50586367 -0.73669225 184 167 182
-0.15541388 -0.50903738 -0.73481417 173 159 171
-0.15567598 -0.5090062 -0.73507792 174 161 172
-0.15945299 -0.51192147 -0.73837548 172 154 174
-0.15911815 -0.50997841 -0.73832291 179 160 179
-0.15847194 -0.51144332 -0.73745745 169 150 172
-0.15813366 -0.51172519 -0.7371102 166 147 170
-0.15780443 -0.51138878 -0.73684412 167 149 171
-0.15781166 -0.51046008 -0.73694438 171 154 175
-0.15705685 -0.51046354 -0.73624653 170 155 173
-0.15769446 -0.51027751 -0.73685342 172 155 175
-0.1567113 -0.5107289 -0.73590243 169 154 171
-0.1554061 -0.50982231 -0.73477942 172 160 169
-0.15668158 -0.51012635 -0.73593074 172 157 172
-0.16647471 -0.49323013 -0.75376779 164 148 166
-0.16647588 -0.49371266 -0.75343513 161 145 163
-0.16543169 -0.49399027 -0.75165528 158 145 161
-0.16594465 -0.49334267 -0.7528463 160 146 163
-0.164562 -0.49327192 -0.75069278 165 152 165
-0.16608472 -0.49614513 -0.75084794 161 149 162
-0.1663761 -0.49432474 -0.75282025 157 142 160
-0.16613019 -0.49437863 -0.75237745 156 142 159
-0.16632752 -0.49540403 -0.75182045 160 146 161
-0.16776705 -0.49783754 -0.75373101 176 156 171
-0.16752753 -0.49654922 -0.75379103 171 152 168
-0.16719595 -0.49723405 -0.75217706 171 155 168
-0.16755357 -0.49798098 -0.75289643 175 157 170
-0.16724308 -0.49498877 -0.75388336 165 147 166
-0.16757201 -0.49671796 -0.75382841 172 153 169
-0.16539559 -0.49542972 -0.75043827 162 150 162
-0.16563256 -0.49543673 -0.75077528 161 148 162
-0.16790813 -0.49842674 -0.75395012 178 159 173
-0.16790181 -0.49907514 -0.75361407 177 159 174
-0.16785707 -0.50132364 -0.75239277 174 162 178
-0.16812631 -0.50064701 -0.75338787 172 153 174
-0.16839208 -0.50029099 -0.75421596 169 145 170
-0.16800642 -0.49936891 -0.75372553 175 156 173
-0.16709951 -0.500682 -0.75052279 179 175 181
-0.16716427 -0.4982101 -0.75146168 174 158 170
-0.16724604 -0.50068098 -0.7510283 180 175 181
-0.16701137 -0.49846596 -0.75086045 173 160 171
-0.16727272 -0.49931347 -0.75151616 177 166 175
-0.16720067 -0.49998668 -0.75107294 178 170 178
-0.16782746 -0.50501412 -0.75123948 175 151 169
-0.16877286 -0.50263584 -0.75410718 163 136 167
-0.16890936 -0.5042299 -0.75390112 168 137 164
-0.1679679 -0.50584823 -0.75128549 177 151 167
-0.16851071 -0.50562388 -0.75256681 174 144 164
-0.16812396 -0.50519252 -0.75184309 174 148 167
-0.16827902 -0.5021987 -0.75305516 168 148 173
-0.16788784 -0.50214404 -0.75210917 173 161 178
-0.16749388 -0.5049215 -0.75044471 179 162 173
-0.16741642 -0.50363988 -0.75057667 180 169 178
-0.16790225 -0.50393575 -0.75169432 173 153 172
-0.16999985 -0.50959396 -0.75294262 162 114 142
-0.17039664 -0.50889999 -0.75383866 162 117 144
-0.16961011 -0.50838441 -0.75321317 166 124 150
-0.16976157 -0.50808698 -0.75365448 165 122 148
-0.16909172 -0.50834328 -0.75240117 171 133 157
-0.16930351 -0.50594932 -0.75421268 171 135 160
-0.16962187 -0.50719762 -0.75398833 167 126 152
-0.16861247 -0.50806928 -0.75165695 174 141 163
-0.16859663 -0.50823277 -0.75154305 174 141 163
-0.16868055 -0.50637138 -0.75262398 174 142 163
-0.16817795 -0.50710088 -0.75115377 176 147 166
-0.16829897 -0.50855631 -0.75072449 176 144 165
-0.16819441 -0.50604099 -0.75169939 176 148 166
-0.17070489 -0.51043594 -0.75332224 161 116 142
-0.17117685 -0.50977784 -0.75405264 159 115 142
-0.17094173 -0.51100355 -0.75336701 161 117 142
-0.17028332 -0.51357734 -0.75136292 169 139 158
-0.17091441 -0.51231605 -0.75272888 164 126 147
-0.17084971 -0.5113039 -0.753133 162 119 143
-0.17105213 -0.5135926 -0.75228727 167 134 152
-0.1718017 -0.51251543 -0.75370902 162 121 142
-0.17140384 -0.51193863 -0.75350189 162 120 142
-0.16968594 -0.51327795 -0.75076491 171 141 159
-0.16935317 -0.50987089 -0.75181031 167 125 150
-0.16903423 -0.51136881 -0.75063998 173 140 160
-0.16945027 -0.51193285 -0.75103295 170 136 156
-0.16983137 -0.510616 -0.75221837 164 121 146
-0.17097996 -0.51674324 -0.75045663 174 151 167
-0.17301334 -0.5169481 -0.75284094 170 141 161
-0.17092645 -0.51592451 -0.75083876 172 147 164
-0.17046383 -0.51468378 -0.75097382 171 144 162
-0.17268799 -0.51716071 -0.75231624 171 144 163
-0.17073765 -0.514979 -0.75114471 171 144 162
-0.17099662 -0.51580673 -0.75099295 172 146 164
-0.17320292 -0.5168668 -0.75311995 169 139 160
-0.17288056 -0.5142706 -0.75413972 163 126 145
-0.17212225 -0.51542723 -0.7525925 169 138 158
-0.17176811 -0.51371509 -0.75309354 165 130 148
-0.17263158 -0.51541126 -0.75321835 167 135 154
-0.17207235 -0.51485509 -0.75284284 167 135 154
-0.17297614 -0.51429367 -0.75427938 163 126 144
-0.17810433 -0.52115846 -0.75401962 171 153 170
-0.17471522 -0.51818377 -0.7537061 170 142 162
-0.17584471 -0.5184505 -0.75429136 172 147 163
-0.17591326 -0.51962 -0.7535972 169 145 165
-0.17582496 -0.51906431 -0.75389904 169 145 163
-0.17519557 -0.51991534 -0.75288045 166 138 163
-0.17413403 -0.52066624 -0.75160414 160 127 161
-0.17437445 -0.52121496 -0.75140285 158 126 162
-0.17727844 -0.52124345 -0.75347328 169 147 168
-0.1765013 -0.52105868 -0.75304008 167 142 166
-0.17523591 -0.51963615 -0.75309998 167 140 163
-0.1746093 -0.51887751 -0.75316662 168 139 162
-0.17380022 -0.51898676 -0.75250059 164 133 160
-0.17306061 -0.5179022 -0.75232512 170 142 163
-0.17282246 -0.51916045 -0.75119662 165 136 163
-0.17338027 -0.51989353 -0.75140256 161 129 161
-0.17332153 -0.51875901 -0.7520811 166 135 161
-0.17317399 -0.51957798 -0.75135583 163 132 161
-0.17328127 -0.52100712 -0.75054228 157 123 160
-0.18180414 -0.52501535 -0.75362718 181 167 177
-0.17980514 -0.52263343 -0.75399315 181 166 177
-0.18065646 -0.52294767 -0.75422144 186 173 181
-0.18043089 -0.523449 -0.75384122 182 167 177
-0.18039541 -0.52349895 -0.75379646 181 166 177
-0.18155551 -0.52438074 -0.75386405 186 173 180
-0.17789465 -0.52249104 -0.75310963 168 150 166
-0.1797525 -0.52376723 -0.75332445 174 158 171
-0.17904377 -0.52447867 -0.75251281 168 154 164
-0.17975959 -0.5248633 -0.75266081 171 157 167
-0.18012604 -0.52495313 -0.75280178 173 159 169
-0.1808631 -0.52496749 -0.75318658 177 162 173
-0.17914209 -0.52378607 -0.75298703 171 155 168
-0.17440547 -0.52245831 -0.7506659 155 125 157
-0.1746608 -0.52242154 -0.75085729 156 126 158
-0.17588753 -0.52423453 -0.75065207 157 136 153
-0.17676619 -0.52209651 -0.75256753 164 142 164
-0.17677225 -0.52310503 -0.75195783 161 142 160
-0.17611657 -0.52223301 -0.7520169 162 137 162
-0.17517784 -0.52154589 -0.75175977 160 130 163
-0.17606084 -0.5236485 -0.7511149 157 136 157
-0.17704229 -0.52273363 -0.75237828 164 144 162
-0.17568049 -0.5221191 -0.7517724 160 134 162
-0.17614776 -0.52180439 -0.75230038 163 138 164
-0.18235469 -0.52708197 -0.7527805 167 154 166
-0.18187265 -0.52757126 -0.75227565 164 151 164
-0.18191634 -0.52606338 -0.75311571 175 161 172
-0.18288864 -0.52720457 -0.75297904 166 153 164
-0.18064003 -0.52601159 -0.7524727 170 157 167
-0.18077643 -0.52791309 -0.75151348 157 145 158
-0.1815019 -0.52680153 -0.75250417 169 156 168
-0.18095323 -0.52799189 -0.75156516 157 146 159
-0.1812937 -0.52635449 -0.75263566 171 158 169
-0.17962866 -0.52617967 -0.75184155 163 151 160
-0.18139587 -0.52777064 -0.75192159 161 149 163
-0.16636635 -0.4899444 -0.76688248 112 96 90
-0.18425596 -0.49352843 -0.76989681 124 94 110
-0.17424436 -0.49358946 -0.76966983 148 116 147
-0.1754394 -0.49409831 -0.76951551 156 130 146
-0.17276227 -0.49376464 -0.76767749 149 121 146
-0.17277972 -0.49398321 -0.7674886 149 122 146
-0.17090714 -0.49323639 -0.76635778 153 131 146
-0.17218825 -0.49342403 -0.76756978 150 123 146
-0.17267817 -0.49335438 -0.76828378 149 119 146
-0.17118672 -0.49325168 -0.76666778 153 129 146
-0.17012 -0.49255842 -0.76704645 158 137 148
-0.17158702 -0.49281681 -0.76818484 153 126 148
-0.1703946 -0.4922615 -0.76854515 162 139 151
-0.17312975 -0.49300194 -0.76970446 149 116 148
-0.17183314 -0.49247298 -0.76981759 158 129 151
-0.17259081 -0.49279323 -0.76970983 153 121 149
-0.18593651 -0.4941557 -0.76950836 114 84 105
-0.18220972 -0.49747053 -0.76835656 162 140 149
-0.18352903 -0.49740511 -0.7682839 143 115 131
-0.18305282 -0.49648386 -0.76873398 145 120 130
-0.18208176 -0.49699616 -0.76857924 161 140 147
-0.1824999 -0.49533671 -0.76929128 146 125 128
-0.18184069 -0.49584973 -0.76911211 158 140 141
-0.18484935 -0.49536648 -0.76907599 123 92 112
-0.18480419 -0.49615619 -0.7687338 124 92 112
-0.18424626 -0.49437565 -0.76956308 128 101 115
-0.18328385 -0.49461353 -0.76954305 137 114 121
-0.17940213 -0.49517706 -0.76945317 168 150 146
-0.17799173 -0.49542528 -0.76940703 176 155 152
-0.17840204 -0.49484676 -0.76970923 170 150 146
-0.17886639 -0.49473509 -0.76974154 167 148 144
-0.17787857 -0.49505669 -0.76962495 174 153 149
-0.18093124 -0.49471858 -0.76961195 159 142 137
-0.18128577 -0.49698356 -0.76859963 170 150 154
-0.17956777 -0.49779597 -0.76814157 184 163 166
-0.18154351 -0.49642175 -0.76886564 165 147 149
-0.18108177 -0.49796847 -0.76814669 176 156 163
-0.18148521 -0.49556425 -0.76924711 160 143 142
-0.18027379 -0.49719462 -0.76844984 177 157 159
-0.17745361 -0.49673772 -0.76859289 185 163 163
-0.17644304 -0.49589154 -0.76877642 174 149 158
-0.17645201 -0.49594244 -0.76875001 174 150 158
-0.17628308 -0.49554569 -0.76892638 170 146 155
-0.17605655 -0.49611804 -0.76853287 173 148 160
-0.17417857 -0.49496633 -0.76856059 154 126 151
-0.17633387 -0.49741888 -0.76775354 183 160 166
-0.17696773 -0.49791837 -0.76767701 191 168 170
-0.17598255 -0.49728483 -0.76769239 180 156 164
-0.17604145 -0.49765527 -0.76745039 183 160 165
-0.17421065 -0.49661168 -0.76738209 164 140 155
-0.17461008 -0.49741587 -0.76697898 172 148 158
-0.17381349 -0.49519262 -0.76819956 153 126 150
-0.17341655 -0.49589455 -0.76704663 158 134 151
-0.17319906 -0.49548599 -0.76700312 156 132 150
-0.17356132 -0.49593025 -0.76725066 158 133 151
-0.17341125 -0.49623466 -0.76678616 160 136 152
-0.17375825 -0.49717233 -0.76664382 165 142 154
-0.17276196 -0.49424908 -0.76722383 150 125 147
-0.17939073 -0.50117809 -0.7662046 186 167 172
-0.17932741 -0.50104243 -0.76628208 187 167 172
-0.17865498 -0.49986517 -0.76691431 191 171 173
-0.17856488 -0.5010342 -0.76603901 198 181 178
-0.18003608 -0.50123978 -0.76637024 177 156 168
-0.17997028 -0.50066996 -0.76675063 177 155 168
-0.18123086 -0.49979496 -0.76731551 170 149 163
-0.18003359 -0.49889591 -0.76766378 180 158 167
-0.17938654 -0.49903926 -0.76756263 183 161 169
-0.17963308 -0.4984445 -0.76784968 184 162 168
-0.18055269 -0.49860165 -0.76782751 178 157 165
-0.17970173 -0.49950686 -0.76736468 180 158 168
-0.17570242 -0.49905446 -0.7662847 188 168 168
-0.17615522 -0.49925354 -0.76634467 192 173 171
-0.17695746 -0.49850389 -0.76724857 194 172 172
-0.17520547 -0.49809906 -0.766752 180 158 163
-0.17521034 -0.49869323 -0.76632428 183 162 165
-0.15230756 -0.49166438 -0.7304346 184 172 178
-0.15181372 -0.49032211 -0.72971427 183 173 179
-0.15144524 -0.4904674 -0.72930336 183 171 178
-0.15230979 -0.49059165 -0.73031884 184 175 180
-0.16255897 -0.49758682 -0.74352407 190 174 186
-0.16346721 -0.50173545 -0.74497646 191 168 185
-0.16269571 -0.50160819 -0.74348187 192 173 188
-0.16350593 -0.50033778 -0.7454465 187 164 183
-0.16324721 -0.50020278 -0.74497128 187 165 183
-0.16293655 -0.50062263 -0.74423689 189 169 185
-0.16228889 -0.50170332 -0.74257874 193 178 189
-0.16237254 -0.50045264 -0.742814 193 176 188
-0.16301949 -0.4984585 -0.74460071 187 166 183
-0.16286466 -0.4982332 -0.74417609 188 169 184
-0.16236451 -0.5011462 -0.74278903 193 176 189
-0.16417311 -0.50408608 -0.74555314 190 169 182
-0.16397291 -0.5028221 -0.74575907 190 166 184
-0.16432078 -0.50413239 -0.74573922 189 168 182
-0.16322915 -0.50576955 -0.74360853 192 178 184
-0.16421749 -0.50399405 -0.74564946 190 168 182
-0.16371565 -0.50355226 -0.74512559 191 170 184
-0.16438191 -0.50366884 -0.74600035 189 167 182
-0.16275373 -0.50452322 -0.74321538 194 178 186
-0.16350548 -0.50242007 -0.74493951 191 169 185
-0.16357958 -0.50305426 -0.74501628 191 170 185
-0.16349977 -0.50197476 -0.74497747 191 168 186
-0.16355164 -0.50316232 -0.74494886 191 170 185
-0.1633745 -0.50374234 -0.7445333 192 172 185
-0.16481486 -0.50957447 -0.74470705 185 172 183
-0.16553371 -0.50943601 -0.74553102 185 174 181
-0.16501816 -0.50972772 -0.74488145 185 173 182
-0.16532905 -0.50796062 -0.74577171 186 171 180
-0.16465025 -0.50696754 -0.74537671 186 167 180
-0.16512381 -0.50782752 -0.74559641 186 170 180
-0.16463859 -0.50763851 -0.74513984 185 168 181
-0.16389382 -0.50774932 -0.74422175 186 167 183
-0.16349654 -0.5081085 -0.74362236 186 168 184
-0.16282377 -0.50792128 -0.74272084 188 172 186
-0.16423582 -0.50705338 -0.74479294 187 168 181
-0.16325715 -0.50645536 -0.74352795 191 176 184
-0.16299081 -0.50622404 -0.74319351 192 178 184
-0.16346152 -0.5076037 -0.74364603 187 170 184
-0.16616827 -0.50995815 -0.74612564 186 176 181
-0.16601747 -0.51334041 -0.74541616 190 176 186
-0.16653343 -0.51300597 -0.7461555 186 172 183
-0.16485842 -0.51347858 -0.74409705 187 172 183
-0.16587619 -0.5128876 -0.7453261 189 176 185
-0.16445491 -0.51277244 -0.74375206 185 170 181
-0.1654124 -0.51104766 -0.74508518 185 174 181
-0.16462086 -0.5130806 -0.74389124 186 171 182
-0.16572092 -0.50979316 -0.74562937 185 175 181
-0.16541615 -0.51012588 -0.74524081 185 174 181
-0.16517113 -0.51003957 -0.74498916 185 173 182
-0.16434953 -0.51033777 -0.74404436 184 170 183
-0.16374908 -0.51164502 -0.74316669 184 168 182
-0.16358829 -0.51241982 -0.74285871 184 167 181
-0.16636194 -0.51413876 -0.74563932 188 173 184
-0.16766021 -0.51667047 -0.7463609 180 161 174
-0.1669938 -0.51674771 -0.74557012 178 159 175
-0.16701233 -0.51673508 -0.74559456 178 159 175
-0.16604219 -0.5146516 -0.74511021 185 170 183
-0.16686028 -0.51666117 -0.74544561 178 159 175
-0.16553411 -0.51529235 -0.74438739 182 166 180
-0.16547801 -0.51644146 -0.74399602 176 158 175
-0.16531174 -0.5174703 -0.74352336 170 151 171
-0.16421849 -0.51653022 -0.74259984 173 156 172
-0.16404364 -0.51368052 -0.74315315 185 169 181
-0.16581154 -0.5136739 -0.74513459 190 176 186
-0.16426374 -0.5140897 -0.74329209 184 167 180
-0.16495132 -0.51401252 -0.74408233 186 171 182
-0.16662547 -0.51765525 -0.74488759 171 151 171
-0.16817392 -0.51902902 -0.74608773 165 140 163
-0.16613385 -0.51831645 -0.74407935 166 146 168
-0.16639942 -0.5180825 -0.74446821 167 145 168
-0.16621023 -0.51790071 -0.74432701 168 147 170
-0.16633622 -0.51839232 -0.7442767 165 144 167
-0.16654077 -0.51868248 -0.74439293 164 142 165
-0.16483174 -0.51771224 -0.74293411 169 150 169
-0.16506296 -0.51791817 -0.74309844 168 149 169
-0.16529736 -0.51905781 -0.74290562 162 144 164
-0.16627492 -0.48631975 -0.7615878 124 109 94
-0.16634382 -0.48915496 -0.75833297 157 114 144
-0.16608903 -0.48725551 -0.76019871 142 117 116
-0.16665673 -0.48702097 -0.76133192 122 103 97
-0.1669112 -0.48911947 -0.75925869 146 109 134
-0.16667798 -0.4875828 -0.76176208 128 112 104
-0.16663784 -0.48667088 -0.76209599 116 103 89
-0.16666254 -0.4884671 -0.76193672 139 125 118
-0.16671358 -0.48845828 -0.76146847 139 120 118
-0.16668846 -0.4893451 -0.76173216 151 134 132
-0.16845307 -0.49335942 -0.76089323 160 140 156
-0.16857478 -0.49380824 -0.76006413 160 139 158
-0.16781686 -0.49264488 -0.7601006 161 142 154
-0.1681592 -0.4930948 -0.7603215 160 141 155
-0.1675142 -0.49192202 -0.76092666 161 144 151
-0.16740148 -0.49170259 -0.76107794 162 145 151
-0.16811702 -0.49269944 -0.76136237 160 142 153
-0.16705348 -0.49049863 -0.75924283 160 123 151
-0.16738732 -0.49149033 -0.75927025 160 130 153
-0.16725513 -0.490942 -0.75877476 159 122 153
-0.16740894 -0.49171549 -0.75977296 161 137 152
-0.16801563 -0.49306738 -0.75842053 160 132 157
-0.16719478 -0.49088576 -0.75915277 160 125 152
-0.17017306 -0.49662265 -0.76137161 159 133 155
-0.17039537 -0.4974165 -0.76068735 164 138 159
-0.17135355 -0.49787849 -0.76124543 166 137 157
-0.1697963 -0.49757263 -0.75968498 168 144 166
-0.16967593 -0.49538803 -0.76189011 156 133 154
-0.16945857 -0.49734455 -0.7591967 173 152 171
-0.16940852 -0.49695557 -0.75949633 171 151 170
-0.16897133 -0.49458367 -0.76038927 161 140 160
-0.16911809 -0.49637836 -0.75897074 170 150 169
-0.16863103 -0.49493021 -0.75835514 164 142 163
-0.16901483 -0.49538869 -0.7596463 166 145 165
-0.1688467 -0.49463627 -0.75973207 162 141 161
-0.17043498 -0.50031543 -0.758259 169 152 172
-0.17036097 -0.49852839 -0.75952631 168 144 165
-0.17116497 -0.4983142 -0.76062047 167 140 160
-0.17052996 -0.49814281 -0.76002103 168 142 163
-0.1716148 -0.50038671 -0.75952864 167 146 164
-0.17083335 -0.50015765 -0.75880504 168 148 167
-0.17211434 -0.50175095 -0.75947702 174 154 167
-0.17165343 -0.50169021 -0.75862378 168 151 167
-0.17175472 -0.50172085 -0.75880045 170 152 167
-0.17256971 -0.50131798 -0.76062882 178 154 165
-0.17276692 -0.50120443 -0.76108134 180 155 165
-0.17280148 -0.50071603 -0.76145422 179 152 163
-0.16987018 -0.49818188 -0.75918216 170 146 168
-0.17426729 -0.50427687 -0.76185572 190 171 171
-0.17488049 -0.50572729 -0.76144749 188 174 177
-0.17306744 -0.50559992 -0.75922239 188 167 178
-0.17363113 -0.5049119 -0.76080537 190 172 174
-0.17379664 -0.50445622 -0.76140988 190 173 172
-0.17294914 -0.50469708 -0.75943154 189 163 175
-0.17340426 -0.50380784 -0.76090044 190 166 171
-0.17287299 -0.50486666 -0.75917876 188 163 176
-0.17250945 -0.50197357 -0.76010281 179 157 168
-0.17227352 -0.50367677 -0.75868875 179 158 173
-0.17333715 -0.50253052 -0.76139003 190 163 168
-0.17227858 -0.50233483 -0.75945318 177 156 169
-0.17306831 -0.50224376 -0.76103145 186 161 168
-0.18103535 -0.50955987 -0.76210552 155 127 146
-0.17926973 -0.50950712 -0.76180035 164 141 156
-0.17424005 -0.5059945 -0.76090848 189 177 177
-0.17525059 -0.50646871 -0.7613492 186 171 175
-0.1770229 -0.50753576 -0.76202101 180 162 172
-0.17619687 -0.50794554 -0.76126039 179 163 170
-0.1763328 -0.5083282 -0.76115173 177 161 168
-0.17497236 -0.50698411 -0.76091015 184 171 173
-0.17387553 -0.50594389 -0.76069117 189 178 177
-0.17411058 -0.50808805 -0.75966233 174 153 159
-0.17529458 -0.50972778 -0.75960976 164 139 151
-0.1767281 -0.50936228 -0.76086259 170 151 161
-0.17694101 -0.50969678 -0.76083094 168 148 159
-0.17589681 -0.50900459 -0.76045513 171 151 160
-0.1756459 -0.50930226 -0.76010495 168 146 156
-0.17279992 -0.5059213 -0.7584728 187 164 179
-0.1728545 -0.50624412 -0.75840545 185 161 176
-0.17362668 -0.50606632 -0.76015592 188 173 176
-0.17360801 -0.50876284 -0.75858009 168 143 153
-0.17807446 -0.50990629 -0.76136112 168 149 161
-0.18161152 -0.51290417 -0.7604236 153 129 144
-0.18126881 -0.51060641 -0.76158923 153 126 144
-0.18026826 -0.51218456 -0.76055533 159 138 151
-0.18051435 -0.51134318 -0.76105231 157 134 149
-0.17953153 -0.51070189 -0.76121014 161 140 154
-0.17919509 -0.51131564 -0.7608133 163 143 155
-0.17859814 -0.51259726 -0.75991511 156 130 143
-0.18048556 -0.51294476 -0.7601667 156 133 147
-0.17864642 -0.51071191 -0.76103598 166 146 158
-0.17922348 -0.51261985 -0.76005286 157 132 145
-0.17790875 -0.51035917 -0.76106524 167 147 158
-0.17609921 -0.51283717 -0.75826782 154 121 135
-0.17580722 -0.5118435 -0.75872838 155 125 138
-0.17531587 -0.51171756 -0.75839651 156 125 138
-0.17755497 -0.50976604 -0.76124108 169 151 162
-0.17767315 -0.50994849 -0.76122016 168 150 161
-0.1764936 -0.51212549 -0.75907683 155 125 138
-0.17736422 -0.50981903 -0.76107043 168 149 160
-0.17465758 -0.51011038 -0.75891995 161 133 145
-0.17719661 -0.51178765 -0.75978965 158 132 144
-0.17580435 -0.50985217 -0.75991035 165 141 152
-0.18305176 -0.51717496 -0.75830746 187 171 171
-0.18302056 -0.51668197 -0.75859284 182 164 166
-0.18340334 -0.5174706 -0.7582252 189 173 172
-0.18220507 -0.51449174 -0.7596795 161 139 150
-0.1840201 -0.51752698 -0.75835419 188 170 170
-0.1823405 -0.51456058 -0.75967419 161 139 150
-0.17907576 -0.51542139 -0.75830513 167 143 150
-0.17874348 -0.51461673 -0.75874358 161 134 144
-0.18122126 -0.51619101 -0.75841558 180 164 166
-0.18033102 -0.51549292 -0.75861651 172 152 157
-0.18157488 -0.51391065 -0.7598598 156 134 146
-0.18132712 -0.51626951 -0.75839442 181 165 167
-0.17753743 -0.51444489 -0.75838888 155 125 137
-0.18690275 -0.51909435 -0.75840038 169 147 161
-0.18780234 -0.5192827 -0.75857496 160 137 156
-0.18546213 -0.5176422 -0.75866991 184 163 164
-0.15450732 -0.48985368 -0.73264933 185 177 184
-0.1554855 -0.49014923 -0.73381454 190 179 186
-0.15466866 -0.48935068 -0.73278528 180 168 179
-0.15554494 -0.49006146 -0.73387456 189 177 185
-0.15387668 -0.48976949 -0.73194867 182 175 182
-0.15521307 -0.49125594 -0.73367244 191 181 187
-0.15566152 -0.49042684 -0.73405862 191 179 187
-0.15473129 -0.49090603 -0.73305672 190 182 187
-0.15553313 -0.49192336 -0.7341519 192 180 187
-0.15598029 -0.49131483 -0.73457229 192 179 187
-0.15505697 -0.49232894 -0.7336632 191 181 187
-0.15519482 -0.4932901 -0.73395997 193 180 187
-0.15519431 -0.49329805 -0.73396033 193 180 187
-0.15401345 -0.49184248 -0.7323339 190 179 185
-0.15304841 -0.49302259 -0.73140085 186 172 178
-0.1529815 -0.49324685 -0.73135459 186 171 177
-0.1531041 -0.49360591 -0.73153937 187 171 178
-0.1527563 -0.49310496 -0.73109311 185 170 177
-0.15319179 -0.49140388 -0.73138463 186 177 181
-0.15408532 -0.49033377 -0.73222846 188 183 186
-0.15568949 -0.49432942 -0.73469669 194 179 187
-0.1556503 -0.49431616 -0.73464715 194 179 187
-0.15545897 -0.50188464 -0.734658 188 170 180
-0.15512715 -0.50166756 -0.73431683 187 170 179
-0.15516539 -0.50457042 -0.7345556 178 157 178
-0.15531874 -0.50271785 -0.7345736 185 166 179
-0.15461324 -0.50376952 -0.73393518 178 158 176
-0.15413205 -0.50323111 -0.73341227 177 156 173
-0.15422122 -0.50482756 -0.73361999 173 150 174
-0.1542114 -0.5042367 -0.73356581 175 152 174
-0.15512499 -0.50621659 -0.73460096 174 151 176
-0.15486917 -0.50832832 -0.73428744 172 155 171
-0.1550812 -0.50873142 -0.73448682 172 157 171
-0.15442254 -0.50749934 -0.73386711 171 152 172
-0.15422444 -0.50764781 -0.73367435 170 151 170
-0.15503937 -0.51019865 -0.73438716 169 157 168
-0.15466124 -0.51106888 -0.73394006 163 151 165
-0.16676809 -0.49803469 -0.75030386 171 157 168
-0.16469088 -0.49762642 -0.74799639 174 153 172
-0.16486968 -0.49736661 -0.7484085 172 153 170
-0.16469504 -0.49680209 -0.74859309 171 153 169
-0.16475034 -0.49661067 -0.74879688 170 152 169
-0.1644111 -0.49515876 -0.74940079 166 151 166
-0.16426641 -0.49616703 -0.74850935 171 152 170
-0.16520692 -0.49580368 -0.7499333 164 151 164
-0.16395557 -0.4962582 -0.74782544 174 154 172
-0.16399498 -0.49638566 -0.74787873 174 154 172
-0.1642531 -0.49564949 -0.74883205 169 152 168
-0.16420308 -0.4953959 -0.74879986 169 153 169
-0.16427197 -0.49555418 -0.7489177 169 152 168
-0.16687454 -0.49975795 -0.75024468 176 168 176
-0.16676424 -0.50020838 -0.75004601 176 169 178
-0.16602841 -0.49857375 -0.74922431 170 152 169
-0.16651191 -0.50026828 -0.74967974 177 168 178
-0.16623193 -0.49969131 -0.74935466 175 162 175
-0.16471992 -0.50170267 -0.74710238 187 165 183
-0.16432761 -0.50180012 -0.74659461 189 162 183
-0.16567335 -0.49951836 -0.74863201 175 157 173
-0.16444238 -0.49920335 -0.7471801 180 156 176
-0.16501704 -0.49851471 -0.7479949 175 153 172
-0.1643457 -0.49835983 -0.74720788 178 154 175
-0.16482945 -0.49807325 -0.74784344 174 152 172
-0.16541855 -0.49819654 -0.74853623 171 151 169
-0.16696635 -0.50409114 -0.74977106 182 166 178
-0.1666255 -0.50269514 -0.74947935 184 175 184
-0.16720667 -0.50321025 -0.75025821 182 174 181
-0.1663655 -0.50451052 -0.74847746 184 166 179
-0.16603042 -0.50518179 -0.74757105 185 165 178
-0.16637592 -0.50302577 -0.74902731 185 172 184
-0.166712 -0.50550073 -0.7488144 182 161 174
-0.16682665 -0.50528497 -0.74911958 182 161 174
-0.16578043 -0.50415254 -0.74762523 186 171 182
-0.16576011 -0.50356734 -0.74780935 186 173 184
-0.16576841 -0.50267857 -0.74812979 187 175 186
-0.16551141 -0.50352949 -0.74751127 187 171 183
-0.16568552 -0.50247246 -0.74809724 187 174 186
-0.16497786 -0.50419521 -0.74660951 188 166 180
-0.16619621 -0.50784886 -0.74684221 186 170 178
-0.16695157 -0.50655836 -0.74887282 182 161 173
-0.16646472 -0.50640291 -0.74796808 183 163 175
-0.16645624 -0.50801069 -0.74728239 185 170 177
-0.16651124 -0.5060482 -0.74820828 183 161 174
-0.16662219 -0.50618714 -0.74837142 182 161 174
-0.1667029 -0.50901496 -0.74735415 185 172 178
-0.16682878 -0.5085988 -0.74777782 184 170 177
-0.16769218 -0.50690418 -0.7501924 178 154 169
-0.16818473 -0.50873196 -0.75038624 176 145 165
-0.16702034 -0.50865042 -0.74813241 183 166 175
-0.16768917 -0.50906938 -0.74926937 179 154 169
-0.16875038 -0.51272476 -0.74963993 176 149 166
-0.16884464 -0.51201457 -0.75007617 175 146 164
-0.16855653 -0.5132091 -0.74915391 177 152 168
-0.16860892 -0.51131648 -0.7500273 175 145 165
-0.16843511 -0.51004887 -0.75030839 176 142 164
-0.16843791 -0.51300466 -0.74906754 177 153 169
-0.16731042 -0.51325488 -0.74732208 182 163 178
-0.16697493 -0.5102191 -0.74747193 183 167 176
-0.16655366 -0.51033366 -0.74661911 186 175 180
-0.16714175 -0.51167309 -0.74748296 183 164 177
-0.16754033 -0.5099656 -0.74863833 180 157 171
-0.16735445 -0.51072371 -0.74810791 181 160 174
-0.16751285 -0.51175767 -0.74819386 181 157 174
-0.17071004 -0.51729065 -0.74988616 176 154 169
-0.17005494 -0.5156585 -0.75007677 174 150 167
-0.16871905 -0.5167219 -0.74783128 176 155 169
-0.16922927 -0.51720977 -0.74820906 178 157 171
-0.16826725 -0.51736504 -0.74690807 177 157 171
-0.16950317 -0.51459962 -0.74991161 173 148 164
-0.16948581 -0.51526237 -0.74958259 174 149 166
-0.16872397 -0.51371682 -0.74918306 176 152 168
-0.1674623 -0.51462781 -0.74695128 181 163 177
-0.16797245 -0.51704216 -0.74664229 178 158 172
-0.16852154 -0.51431477 -0.74862826 177 154 169
-0.16704573 -0.51378894 -0.74671048 184 167 181
-0.16803814 -0.51501876 -0.74761868 179 158 173
-0.17200574 -0.51954079 -0.74999392 166 138 165
-0.17196567 -0.51930785 -0.75008446 167 139 165
-0.17081451 -0.51811314 -0.74953407 175 152 170
-0.1716186 -0.52084821 -0.7489906 156 125 157
-0.16993003 -0.51901954 -0.74823403 168 144 163
-0.17143354 -0.51995087 -0.74922508 163 135 162
-0.17184958 -0.5212847 -0.74900919 153 120 155
-0.17107633 -0.52017194 -0.74878818 161 132 160
-0.17003272 -0.51789063 -0.74884486 178 156 171
-0.16950762 -0.51796883 -0.74818778 177 155 170
-0.16937225 -0.51921767 -0.74746865 166 141 162
-0.16878365 -0.519081 -0.74678463 166 142 162
-0.17438063 -0.52346754 -0.75009805 153 125 151
-0.17354766 -0.52191401 -0.7502982 154 120 157
-0.16635706 -0.48688647 -0.76313347 109 96 83
-0.16660599 -0.48798716 -0.76438814 114 98 90
-0.16747047 -0.48917288 -0.76523316 135 116 111
-0.16729932 -0.48817667 -0.76403165 129 112 104
-0.16650738 -0.48778698 -0.76420361 111 96 87
-0.16745183 -0.48900765 -0.76412338 141 124 118
-0.16745509 -0.4887369 -0.76413429 138 121 113
-0.16667004 -0.48740619 -0.76218551 125 112 100
-0.16716024 -0.4901599 -0.76338273 158 143 139
-0.16758171 -0.4897235 -0.76444072 150 132 128
-0.17134775 -0.49387366 -0.76584482 153 131 147
-0.17046478 -0.49390385 -0.76509744 156 135 150
-0.16966438 -0.49328133 -0.76456189 157 137 151
-0.16961317 -0.49322179 -0.76452976 157 137 150
-0.16905721 -0.49219137 -0.76486689 155 135 143
-0.16860063 -0.49158382 -0.76475793 155 134 139
-0.16950294 -0.49224779 -0.76584095 155 135 143
-0.16801241 -0.49069986 -0.76474577 155 136 136
-0.16735059 -0.49068847 -0.76311016 159 144 143
-0.16763987 -0.49055865 -0.76404679 157 140 139
-0.1669296 -0.4904108 -0.76251459 161 147 144
-0.16839278 -0.49276227 -0.76230407 159 141 152
-0.16858605 -0.49217945 -0.7637459 156 136 145
-0.16782513 -0.49201754 -0.76211017 161 144 151
-0.17088856 -0.49578249 -0.76339453 161 136 153
-0.17129536 -0.49677959 -0.76254976 161 134 153
-0.17006743 -0.49540076 -0.76280731 156 132 152
-0.17128161 -0.49444729 -0.76514816 155 132 149
-0.1719804 -0.49605924 -0.76399183 159 132 150
-0.17184779 -0.49623042 -0.76370239 160 133 151
-0.17128433 -0.49620196 -0.76327866 162 135 153
-0.17285523 -0.49709225 -0.76478487 164 139 153
-0.17320327 -0.4972122 -0.76554799 166 143 154
-0.1729538 -0.49769053 -0.76431507 167 141 154
-0.17302668 -0.49717736 -0.76512921 165 141 153
-0.1730157 -0.49679768 -0.76556206 164 140 153
-0.17278171 -0.49598289 -0.76594138 160 138 151
-0.16987932 -0.49564505 -0.76212656 154 129 151
-0.17856246 -0.50164801 -0.76567179 199 183 179
-0.17483695 -0.50177568 -0.7637158 191 167 170
-0.17741978 -0.50114506 -0.76556796 208 192 182
-0.17713869 -0.50157672 -0.76515204 206 190 182
-0.17536435 -0.50050962 -0.76496547 191 169 170
-0.17568934 -0.50028908 -0.76530629 192 172 171
-0.17753235 -0.50064296 -0.76595277 208 191 181
-0.17532787 -0.50036335 -0.76506436 190 169 169
-0.1754159 -0.50050795 -0.76499283 191 170 170
-0.17519884 -0.50032258 -0.76503187 189 167 169
-0.17575136 -0.50124389 -0.76457214 196 175 174
-0.17380634 -0.50030047 -0.76428801 179 154 162
-0.17345215 -0.50037169 -0.76321548 182 156 162
-0.17262846 -0.49818203 -0.76291782 167 138 155
-0.17316006 -0.49948815 -0.76320052 176 149 159
-0.17335513 -0.50113761 -0.76231372 186 158 164
-0.17333664 -0.49997735 -0.76324767 180 153 161
-0.17284645 -0.49966609 -0.76223087 176 147 159
-0.17964207 -0.50208187 -0.76572108 184 166 172
-0.17932619 -0.5031656 -0.76508588 184 165 171
-0.18040693 -0.50366795 -0.76512587 168 145 163
-0.18020545 -0.50245315 -0.7656976 175 155 168
-0.17838353 -0.50240362 -0.76521826 200 184 180
-0.18039191 -0.50577557 -0.76406687 158 131 159
-0.1779172 -0.50585353 -0.7634151 187 167 181
-0.18038394 -0.50493801 -0.7644732 163 137 159
-0.17809677 -0.50552899 -0.76361781 187 167 180
-0.17879778 -0.50407982 -0.76449817 186 167 174
-0.1785887 -0.5048179 -0.76408643 185 164 176
-0.17429219 -0.50288099 -0.7627666 185 161 168
-0.17416577 -0.50327194 -0.76240051 188 166 168
-0.17485973 -0.50319451 -0.7629841 186 161 170
-0.17694291 -0.50529569 -0.76315045 188 168 179
-0.17621742 -0.50443691 -0.76317555 188 165 176
-0.1766832 -0.50346631 -0.76393121 195 176 179
-0.17538641 -0.50324047 -0.76329833 188 164 172
-0.17665796 -0.50222796 -0.76452047 202 185 180
-0.17705782 -0.50202793 -0.76484704 206 190 182
-0.17683585 -0.50252891 -0.76447564 201 184 180
-0.1769238 -0.50201809 -0.7647751 205 189 181
-0.17374879 -0.50230092 -0.76254088 188 162 166
-0.17785512 -0.50812685 -0.76225978 177 158 170
-0.17786011 -0.50599378 -0.76332211 188 168 181
-0.17979974 -0.50827014 -0.76253033 168 142 159
-0.17863967 -0.50762993 -0.76264495 176 154 169
-0.17844149 -0.5059405 -0.76349604 181 159 176
-0.17929558 -0.50642228 -0.7634334 172 148 168
-0.17961089 -0.5066992 -0.76335382 169 144 164
-0.1807711 -0.506383 -0.76382178 154 126 154
-0.18141261 -0.50897092 -0.76250631 152 123 145
-0.17915322 -0.50651604 -0.76334465 174 150 169
-0.17755915 -0.50713444 -0.7626031 183 163 175
-0.1776405 -0.50726563 -0.76259792 182 163 175
0 0 0 1 0 0 0 1 0 0 0 1 0 0 0 0 0 968 1 0 0
