ply
format ascii 1.0
comment PCL generated
element vertex 625
property float x
property float y
property float z
property uchar red
property uchar green
property uchar blue
element camera 1
property float view_px
property float view_py
property float view_pz
property float x_axisx
property float x_axisy
property float x_axisz
property float y_axisx
property float y_axisy
property float y_axisz
property float z_axisx
property float z_axisy
property float z_axisz
property float focal
property float scalex
property float scaley
property float centerx
property float centery
property int viewportx
property int viewporty
property float k1
property float k2
end_header
-0.10569888 -0.42312357 -0.68848616 178 153 164
-0.10804532 -0.42685831 -0.68928009 220 210 223
-0.10748691 -0.42667428 -0.6890533 224 217 226
-0.10791394 -0.426718 -0.68923408 220 211 222
-0.10707822 -0.42630249 -0.68890607 215 205 213
-0.10666335 -0.42647856 -0.68871486 210 199 208
-0.10634739 -0.42593852 -0.68862027 198 185 192
-0.10551821 -0.42692819 -0.68818974 196 180 193
-0.10548868 -0.42526197 -0.68829876 191 173 180
-0.10495995 -0.42588359 -0.68802428 192 172 183
-0.10627252 -0.42403188 -0.68872809 189 174 174
-0.1044891 -0.42476583 -0.68790191 187 166 174
-0.10498317 -0.42754158 -0.68791336 196 178 194
-0.11341445 -0.43106118 -0.69174308 207 178 205
-0.11305334 -0.43059596 -0.69154572 205 177 206
-0.11279951 -0.4316349 -0.69138855 216 182 214
-0.10843122 -0.43158865 -0.68925846 216 171 206
-0.10793506 -0.43042251 -0.68907636 221 189 216
-0.10827833 -0.43149179 -0.68919224 215 172 206
-0.10882547 -0.42969236 -0.68951154 230 205 232
-0.10876182 -0.43073273 -0.68944246 223 187 219
-0.10909522 -0.4287596 -0.68965381 228 209 234
-0.10580719 -0.43120629 -0.68812984 198 169 190
-0.107266 -0.43147799 -0.68873537 210 168 198
-0.10716989 -0.4299821 -0.68875223 219 193 216
-0.10715453 -0.43018875 -0.68873781 218 189 213
-0.10583428 -0.42981949 -0.68819159 204 184 202
-0.10579313 -0.43061867 -0.68814617 201 178 197
-0.10571172 -0.42995366 -0.68813443 202 181 199
-0.10703994 -0.4283995 -0.68875802 229 219 234
-0.11327937 -0.43360856 -0.6914959 225 207 225
-0.11237882 -0.43222418 -0.69111145 223 190 223
-0.11357904 -0.43449908 -0.69158977 228 218 229
-0.1124888 -0.43372676 -0.69105428 232 211 232
-0.11233343 -0.43371847 -0.69097042 232 212 233
-0.11156658 -0.43207997 -0.69067752 229 190 228
-0.1123374 -0.43423885 -0.69093317 235 219 235
-0.10932424 -0.43538594 -0.68951595 229 220 228
-0.10917997 -0.43480381 -0.68946201 228 214 225
-0.1090605 -0.43468213 -0.68941647 226 211 223
-0.10991246 -0.4345423 -0.689744 234 219 230
-0.10811254 -0.43406552 -0.68905395 217 195 213
-0.10853489 -0.43269834 -0.68922377 221 187 211
-0.10859489 -0.43247178 -0.68926835 220 184 211
-0.10987301 -0.43389028 -0.68974525 233 211 227
-0.10899145 -0.43212125 -0.68947625 220 180 212
-0.11079675 -0.43330413 -0.69021207 234 207 232
-0.11060464 -0.43464214 -0.69002283 240 226 237
-0.10732102 -0.43421537 -0.6887446 211 188 206
-0.10564823 -0.43505356 -0.68801725 200 182 193
-0.10645743 -0.43406752 -0.68837059 205 180 197
-0.10577442 -0.43429899 -0.68807662 200 178 192
-0.10557315 -0.43474674 -0.68798786 199 180 192
-0.10536281 -0.43252024 -0.68791807 192 166 184
-0.11292253 -0.43632236 -0.69107687 239 236 241
-0.11339734 -0.4365924 -0.69130892 237 233 239
-0.11316825 -0.43671259 -0.6911726 238 234 240
-0.11188034 -0.43575093 -0.69056565 244 241 244
-0.11181029 -0.43793154 -0.69045597 235 222 235
-0.11153379 -0.43620083 -0.69036561 244 238 244
-0.11333022 -0.43782732 -0.69115478 239 232 242
-0.1127043 -0.43738207 -0.69087732 240 233 242
-0.11252032 -0.43847677 -0.69076997 233 221 235
-0.1080182 -0.43679839 -0.68900132 202 188 202
-0.10791009 -0.43916062 -0.68896139 159 134 158
-0.10814257 -0.43907553 -0.68904591 165 141 164
-0.11075186 -0.43907949 -0.6899938 219 200 218
-0.1093867 -0.43798029 -0.68949813 210 193 210
-0.10948547 -0.43764699 -0.68953413 218 202 218
-0.11083611 -0.43832657 -0.69003779 227 210 226
-0.11032776 -0.43813097 -0.68984663 223 207 223
-0.10842326 -0.43607813 -0.68915838 218 207 218
-0.10905771 -0.43609366 -0.68940169 223 214 224
-0.10829285 -0.43621495 -0.68910539 216 204 216
-0.10982085 -0.43760726 -0.68966293 221 207 221
-0.10710929 -0.43852463 -0.68865293 158 135 158
-0.10724914 -0.43599191 -0.68871224 203 191 204
-0.1070281 -0.43780369 -0.68861896 170 151 170
-0.10613873 -0.43916902 -0.688245 142 117 141
-0.10584427 -0.4374119 -0.68811423 171 152 168
-0.10619516 -0.43592274 -0.68825579 198 184 195
-0.10538281 -0.43903127 -0.68792564 141 116 139
-0.10604355 -0.43620098 -0.68819201 192 177 189
-0.11244154 -0.44313392 -0.69057357 222 206 218
-0.10948685 -0.44219196 -0.68945938 185 162 175
-0.10921585 -0.44193915 -0.68936831 180 156 171
-0.10781014 -0.44220531 -0.6888594 160 135 150
-0.11030974 -0.44270062 -0.68974203 199 177 188
-0.110018 -0.44291127 -0.68963277 196 174 184
-0.10767427 -0.44224304 -0.68880993 159 133 148
-0.11116903 -0.43991005 -0.6901322 220 200 218
-0.1102246 -0.43973669 -0.68979406 201 179 199
-0.11057293 -0.4400031 -0.68991292 208 186 205
-0.1100723 -0.44021943 -0.68972486 197 175 194
-0.10797842 -0.43970993 -0.68897879 155 129 153
-0.10645204 -0.44309089 -0.68828702 156 132 144
-0.10729677 -0.44075027 -0.6887008 149 122 143
-0.10720946 -0.44121936 -0.68865275 150 124 144
-0.10611834 -0.43961143 -0.6882323 138 111 136
-0.10562607 -0.44141024 -0.68797892 146 120 139
-0.1057558 -0.44156167 -0.68802947 147 122 140
-0.11192799 -0.44544029 -0.69020116 208 189 201
-0.1116387 -0.44440472 -0.69015008 212 193 202
-0.11349556 -0.44401363 -0.69095778 221 206 223
-0.11256016 -0.44439188 -0.69052315 214 194 209
-0.11391419 -0.44460779 -0.6910823 218 202 223
-0.11351739 -0.44412738 -0.69095671 220 205 222
-0.10947686 -0.44606534 -0.689264 184 164 174
-0.10776091 -0.44530365 -0.6887002 169 149 159
-0.10773161 -0.44658583 -0.68861467 174 157 167
-0.1099772 -0.4460119 -0.68944448 187 167 176
-0.10883389 -0.4453021 -0.68908072 176 156 165
-0.10886032 -0.44353011 -0.6891979 180 157 166
-0.11106879 -0.44584781 -0.68984479 203 184 192
-0.11104006 -0.44505253 -0.68988353 205 186 194
-0.11111705 -0.4436689 -0.68999648 212 192 199
-0.11052693 -0.44488853 -0.68971014 199 179 187
-0.11037005 -0.44629019 -0.68956757 191 172 180
-0.10640083 -0.44717288 -0.68807548 176 162 171
-0.10709127 -0.4463011 -0.68839365 171 154 164
-0.10560805 -0.44346318 -0.6879167 156 132 144
-0.10617333 -0.44371095 -0.68814671 159 135 147
-0.11185922 -0.45000803 -0.68997401 201 183 193
-0.11166462 -0.45099622 -0.68987757 202 184 193
-0.11147372 -0.44944265 -0.68984753 202 184 193
-0.10746788 -0.44951448 -0.68837184 180 162 177
-0.11051249 -0.45095119 -0.68945247 199 181 190
-0.11043585 -0.45107865 -0.68941724 199 180 190
-0.10997676 -0.44992313 -0.68930048 194 177 186
-0.10925718 -0.44997245 -0.68902594 190 173 183
-0.10747779 -0.44819322 -0.6884405 177 161 173
-0.10864769 -0.44766086 -0.6888895 183 167 177
-0.10951266 -0.44931769 -0.68915379 190 173 182
-0.11088017 -0.44976038 -0.68962735 199 182 190
-0.11001937 -0.44868973 -0.68934953 193 176 185
-0.10779321 -0.44759762 -0.68858814 177 162 172
-0.11002158 -0.44798675 -0.68936831 192 176 185
-0.10682049 -0.45083261 -0.68805689 184 162 180
-0.1065974 -0.44891018 -0.68806511 180 162 175
-0.10670082 -0.4477731 -0.68816108 177 162 172
-0.10645615 -0.45016184 -0.68794888 182 162 179
-0.1123747 -0.45191264 -0.69010824 201 183 195
-0.10808983 -0.45343214 -0.68855631 187 167 190
-0.10788918 -0.45265821 -0.68846828 186 165 187
-0.10831785 -0.45248452 -0.68860024 183 162 186
-0.10891572 -0.45262575 -0.68879837 181 160 186
-0.10709988 -0.45393747 -0.68822914 192 172 191
-0.10720957 -0.45381212 -0.68826914 191 172 191
-0.10714865 -0.45171505 -0.68818164 186 165 183
-0.10633304 -0.45351064 -0.68791366 189 170 187
-0.10629626 -0.45533076 -0.68795162 192 174 191
-0.08720313 -0.44328836 -0.682127 92 62 78
-0.087502979 -0.44305307 -0.68216497 93 63 78
-0.08364439 -0.44318041 -0.6815567 87 65 79
-0.076348253 -0.44257683 -0.68029696 103 83 106
-0.076353543 -0.44294733 -0.68031347 103 83 104
-0.076152846 -0.44262484 -0.68027377 104 83 107
-0.088401139 -0.44431227 -0.68242204 94 63 78
-0.088314563 -0.44448844 -0.6824131 93 62 78
-0.089491308 -0.44600251 -0.68279654 97 66 80
-0.089926921 -0.44677272 -0.68295246 98 67 81
-0.09005212 -0.4458999 -0.68292421 100 68 83
-0.089224361 -0.44395125 -0.68260646 98 69 84
-0.08977329 -0.44511631 -0.68280685 99 68 83
-0.091716066 -0.44600487 -0.68334788 107 78 93
-0.091607228 -0.44654837 -0.68334836 106 75 90
-0.090875752 -0.44409263 -0.68303448 106 80 95
-0.087272711 -0.44700009 -0.68238014 86 58 70
-0.08421053 -0.44375366 -0.68169093 86 64 76
-0.085561208 -0.44602984 -0.68204331 84 59 69
-0.084894717 -0.44450554 -0.68184644 86 63 75
-0.085411578 -0.4448989 -0.68195391 87 63 75
-0.087584466 -0.44521651 -0.68231261 90 60 75
-0.084161341 -0.44340894 -0.68166178 87 65 77
-0.085202672 -0.44409695 -0.68186903 87 64 76
-0.087792709 -0.44685996 -0.68245471 88 59 72
-0.086409658 -0.44385248 -0.68203956 90 63 77
-0.084240973 -0.44344291 -0.68167645 87 65 77
-0.081562147 -0.4469443 -0.68130553 97 79 86
-0.082237005 -0.44606704 -0.68141162 85 64 73
-0.080367342 -0.44696233 -0.68104297 110 94 101
-0.080342054 -0.44495994 -0.68094009 98 79 93
-0.080818519 -0.44701362 -0.68114495 105 89 96
-0.083451495 -0.44666421 -0.6817078 77 54 61
-0.082507573 -0.44347912 -0.68132532 88 67 81
-0.083704636 -0.44500011 -0.68166596 82 60 69
-0.083974205 -0.44615057 -0.68178904 78 56 62
-0.08268699 -0.44495571 -0.68144798 83 61 72
-0.076612957 -0.44444019 -0.68040985 108 89 101
-0.076212987 -0.44559777 -0.68039906 117 97 99
-0.07643728 -0.44495538 -0.68040532 112 93 100
-0.077389315 -0.44672272 -0.68060362 120 102 100
-0.076498725 -0.44689855 -0.68048793 124 105 98
-0.07857129 -0.44527367 -0.68070573 107 90 102
-0.080051996 -0.44580179 -0.68091947 106 89 100
-0.077808775 -0.44414592 -0.68055409 103 84 100
-0.077764243 -0.4448922 -0.68058479 107 90 103
-0.079357967 -0.44496346 -0.68079054 103 85 99
-0.078185938 -0.44423956 -0.68060654 102 83 99
-0.075879999 -0.44424656 -0.68031347 106 85 99
-0.076000385 -0.44593984 -0.6803897 118 97 98
-0.074368566 -0.44586802 -0.68022841 105 75 92
-0.075085104 -0.44596976 -0.68030196 111 85 95
-0.075557418 -0.44660836 -0.68037218 119 95 95
-0.075214602 -0.44420323 -0.68024117 102 78 99
-0.07577952 -0.44373232 -0.68028307 102 81 100
-0.074403755 -0.44401938 -0.6801039 105 85 107
-0.092561893 -0.4482542 -0.68364924 107 76 91
-0.093302585 -0.45042375 -0.68391782 105 79 92
-0.092172556 -0.44992563 -0.68364447 102 73 85
-0.091896676 -0.44757575 -0.6834709 106 74 89
-0.089460522 -0.45051798 -0.68308645 97 66 77
-0.089941844 -0.44972545 -0.68312061 94 65 76
-0.088787921 -0.45082495 -0.68297315 98 66 77
-0.087916441 -0.44857594 -0.68260956 91 61 73
-0.08835683 -0.45100889 -0.68289953 98 67 77
-0.09165667 -0.44781795 -0.6834268 105 72 87
-0.088602245 -0.44782686 -0.68269449 90 61 73
-0.089863561 -0.44901305 -0.68305385 94 64 76
-0.091065079 -0.44735435 -0.68326271 103 71 85
-0.090603441 -0.44838551 -0.68320131 98 68 81
-0.089881957 -0.44731146 -0.68297684 97 66 80
-0.087590046 -0.45093033 -0.68274689 97 65 75
-0.085016683 -0.4497771 -0.68220961 87 58 64
-0.084147975 -0.4487142 -0.68198252 81 54 59
-0.084522769 -0.44956952 -0.68210739 85 56 62
-0.084230214 -0.44919616 -0.6820299 83 55 60
-0.084941104 -0.44894147 -0.6821394 83 56 62
-0.085567385 -0.44766149 -0.68214762 81 55 62
-0.087844864 -0.44885057 -0.68261921 92 62 73
-0.085845776 -0.44873708 -0.68228149 85 58 65
-0.086312093 -0.44790399 -0.68228984 84 57 66
-0.08547923 -0.44812959 -0.6821714 82 56 63
-0.080377489 -0.45065963 -0.68134886 80 53 74
-0.082477972 -0.45060733 -0.68176758 90 61 71
-0.080831699 -0.44973922 -0.68136054 92 68 82
-0.080439359 -0.45066994 -0.68136227 80 53 74
-0.081479594 -0.45031512 -0.68154103 89 61 75
-0.083498195 -0.4494479 -0.68189597 88 61 66
-0.082913928 -0.44792429 -0.68166375 88 66 71
-0.083648771 -0.44951662 -0.68193382 87 59 64
-0.081598312 -0.44784436 -0.68136835 101 82 88
-0.08191108 -0.44861585 -0.68148965 101 80 85
-0.078997016 -0.45098886 -0.68120438 88 65 84
-0.076909579 -0.4498587 -0.68085754 116 101 106
-0.077121228 -0.45063689 -0.68097675 113 100 109
-0.076264746 -0.44880486 -0.68066108 125 110 107
-0.078033991 -0.44976309 -0.68095505 101 79 89
-0.07658574 -0.44767085 -0.68054903 122 101 94
-0.077576533 -0.44760406 -0.68067944 119 100 97
-0.07889764 -0.44833001 -0.68092406 107 87 93
-0.077972814 -0.44904676 -0.68085915 103 79 84
-0.079180576 -0.44810843 -0.68094373 109 90 96
-0.072820798 -0.44893721 -0.68031466 114 85 102
-0.073197827 -0.44814131 -0.680264 111 80 95
-0.074915737 -0.44850072 -0.68047041 126 107 104
-0.07260792 -0.44803205 -0.68019468 106 71 92
-0.072387062 -0.44771898 -0.68013883 102 64 88
-0.074718915 -0.45111001 -0.68077821 125 114 125
-0.075864352 -0.44780585 -0.68049031 127 108 100
-0.075855933 -0.4505043 -0.68083125 126 116 122
-0.073851742 -0.44961959 -0.68049031 126 106 112
-0.075345017 -0.45114329 -0.68085396 125 116 126
-0.071233526 -0.45051327 -0.68027848 128 106 120
-0.072156876 -0.44793147 -0.680134 104 66 90
-0.071964793 -0.44852182 -0.68016988 109 75 97
-0.070872024 -0.45002529 -0.6801706 128 103 117
-0.092310987 -0.45197505 -0.68378639 109 81 93
-0.092479609 -0.45291328 -0.68388402 120 92 105
-0.091923468 -0.45436758 -0.68385261 133 103 119
-0.089804389 -0.4546808 -0.68345201 122 92 106
-0.091447622 -0.45505422 -0.68379933 137 107 123
-0.088279516 -0.45197505 -0.68295276 104 72 83
-0.088277861 -0.45502856 -0.68318146 111 81 93
-0.088730074 -0.45214698 -0.68305314 108 76 88
-0.091480151 -0.45195121 -0.68360525 107 77 89
-0.090664387 -0.45371965 -0.68354964 125 95 109
-0.091455385 -0.45138052 -0.68356389 101 71 82
-0.091106735 -0.45196459 -0.68352926 107 77 89
-0.088938124 -0.45213997 -0.68309402 109 77 89
-0.085303843 -0.45473573 -0.68260616 104 75 87
-0.087068647 -0.45434722 -0.68290776 104 74 85
-0.084740408 -0.45487148 -0.68251061 104 76 87
-0.085518427 -0.45302588 -0.68253046 98 67 76
-0.08449433 -0.4523994 -0.68229783 95 64 71
-0.086696811 -0.45495158 -0.68287957 106 77 88
-0.086106822 -0.45302251 -0.68263751 99 68 77
-0.085541293 -0.45155555 -0.68242657 95 62 70
-0.087645024 -0.4524892 -0.68287188 101 70 80
-0.084784769 -0.45170167 -0.68230259 93 61 68
-0.087478779 -0.45345774 -0.68291491 103 72 83
-0.085971437 -0.45210782 -0.68254477 97 65 73
-0.08117678 -0.45237508 -0.68164027 83 54 75
-0.080235519 -0.45498329 -0.68178129 99 71 73
-0.080431804 -0.45456448 -0.68176585 97 68 74
-0.081447721 -0.45291546 -0.68174309 87 58 76
-0.080357388 -0.45383203 -0.68167263 92 63 73
-0.083302818 -0.45139113 -0.6819976 88 56 66
-0.083163999 -0.45167941 -0.68198907 89 57 68
-0.083692178 -0.45321125 -0.68219906 97 66 77
-0.082106203 -0.45207378 -0.68180263 86 56 72
-0.082669981 -0.45191413 -0.68190539 87 57 70
-0.082196549 -0.45215803 -0.68182653 86 56 73
-0.07880643 -0.45484805 -0.68158513 97 67 76
-0.076571696 -0.45484862 -0.68129802 88 53 77
-0.077893481 -0.45358109 -0.68136632 107 85 94
-0.076828271 -0.45284694 -0.68117058 110 92 104
-0.077355526 -0.4532173 -0.68126804 108 89 99
-0.078430116 -0.45177269 -0.68123901 99 80 94
-0.079825111 -0.45268568 -0.68147653 87 60 74
-0.077299982 -0.45162609 -0.68111253 114 101 111
-0.079455815 -0.45343456 -0.68152368 97 72 80
-0.078729816 -0.4531281 -0.68141884 104 84 91
-0.075245909 -0.45476478 -0.68112695 93 60 89
-0.072304316 -0.45187426 -0.6805588 124 105 124
-0.075117357 -0.45371389 -0.68103528 98 68 91
-0.072765693 -0.45166302 -0.68060237 119 98 116
-0.074267216 -0.45151225 -0.68076175 121 106 120
-0.075936913 -0.45394826 -0.68114763 96 66 89
-0.073740661 -0.4515284 -0.68070298 121 104 119
-0.070351139 -0.4512817 -0.68023282 141 122 130
-0.069233619 -0.45175019 -0.68012762 152 132 136
-0.071727842 -0.45157626 -0.68047965 131 111 124
-0.071165815 -0.45190412 -0.68043929 137 116 127
-0.069087379 -0.45218506 -0.68016404 156 134 137
-0.068331018 -0.45416871 -0.68032199 170 142 143
-0.06809476 -0.45250174 -0.68008882 160 137 139
-0.067771927 -0.4529002 -0.68013269 158 132 137
-0.068017066 -0.45461321 -0.68037236 168 138 141
-0.091570653 -0.45608437 -0.68392497 139 112 127
-0.090409331 -0.45816088 -0.68389255 137 116 126
-0.091508582 -0.45584154 -0.68388671 139 111 126
-0.090554386 -0.45798054 -0.68390483 137 116 126
-0.089889482 -0.45828122 -0.68379331 136 115 125
-0.089628175 -0.45619068 -0.68354076 129 101 115
-0.090720885 -0.45604715 -0.68374103 137 109 124
-0.085056067 -0.45651302 -0.68272346 113 87 98
-0.087863073 -0.45516902 -0.68311244 108 78 90
-0.087539569 -0.45526564 -0.68306041 108 79 91
-0.085322365 -0.45585096 -0.68269742 110 84 95
-0.086069763 -0.45539126 -0.68279779 108 80 92
-0.082519211 -0.45785722 -0.68252861 114 87 93
-0.080179505 -0.4588303 -0.6821925 126 112 116
-0.082420163 -0.45868316 -0.68259931 120 97 103
-0.082927935 -0.45803639 -0.68262511 114 87 93
-0.080296472 -0.45863086 -0.68219298 124 109 113
-0.083567001 -0.45610392 -0.68246073 108 80 89
-0.083231635 -0.45712605 -0.68254983 111 83 91
-0.082093604 -0.45526674 -0.68211162 103 75 81
-0.082777828 -0.45509049 -0.68219519 103 75 84
-0.08340048 -0.45633832 -0.68246704 108 80 89
-0.083530843 -0.45595822 -0.6824348 107 79 89
-0.077574149 -0.4586966 -0.68182915 119 91 106
-0.077751249 -0.4566853 -0.68164194 102 74 92
-0.076246895 -0.45609203 -0.68138105 93 56 82
-0.077609897 -0.45753154 -0.68171185 109 81 98
-0.079177611 -0.45876068 -0.68204767 123 105 113
-0.079549029 -0.45626917 -0.68182796 106 81 87
-0.078722619 -0.4561879 -0.68171299 102 75 86
-0.079404637 -0.45771083 -0.68196559 116 96 104
-0.077494957 -0.4552547 -0.68145412 90 56 76
-0.079304874 -0.4572095 -0.68189847 112 90 98
-0.079008438 -0.45548335 -0.68167341 98 69 78
-0.075945303 -0.4555591 -0.68128681 90 54 82
-0.074878059 -0.45565194 -0.68116212 102 71 100
-0.074930124 -0.45693821 -0.68130338 112 83 109
-0.065694749 -0.45776126 -0.68081337 143 117 133
-0.064511932 -0.45667306 -0.68065703 131 100 120
-0.066327885 -0.45701742 -0.68069029 132 100 133
-0.066262648 -0.45749217 -0.68076503 138 110 135
-0.066149279 -0.4579235 -0.68083358 144 119 136
-0.067361064 -0.45546553 -0.68048894 155 123 137
-0.066962905 -0.45662475 -0.68064189 143 112 137
-0.065277554 -0.45552319 -0.68047702 121 82 121
-0.067268945 -0.45740056 -0.68074965 143 115 142
-0.067616567 -0.45611125 -0.68057865 156 126 141
-0.066361114 -0.45585626 -0.68053234 137 102 130
-0.089741677 -0.4595286 -0.68390381 135 114 123
-0.082135826 -0.46138814 -0.68291193 115 92 105
-0.080963627 -0.4605034 -0.68258804 118 97 108
-0.080237567 -0.46095791 -0.68256807 111 83 100
-0.080892622 -0.45996043 -0.68248022 122 105 113
-0.08052814 -0.46037364 -0.68250358 117 95 107
-0.081362836 -0.45956925 -0.68250954 123 105 112
-0.082735054 -0.46135429 -0.68300378 116 93 105
-0.08238522 -0.46029115 -0.68279761 119 98 107
-0.077485241 -0.4612363 -0.68224639 121 90 109
-0.077568352 -0.46157289 -0.68231612 123 94 113
-0.078654043 -0.46219903 -0.68257576 111 76 99
-0.078909263 -0.46213636 -0.68260056 106 68 93
-0.078437567 -0.46240199 -0.68258059 117 86 107
-0.077272572 -0.45985478 -0.68197632 113 77 98
-0.078914985 -0.46063608 -0.68233407 111 78 97
-0.078626297 -0.46131122 -0.68241757 104 64 89
-0.07979428 -0.4621717 -0.68272686 100 60 86
-0.077964291 -0.45926782 -0.68196195 120 93 107
-0.080100656 -0.4645932 -0.68321139 98 62 86
-0.080533035 -0.46364632 -0.68309724 98 59 85
-0.078054957 -0.46465552 -0.68293744 133 117 130
-0.079335772 -0.46497881 -0.68317586 111 84 103
-0.079068847 -0.4638589 -0.68293184 114 84 105
-0.072623074 -0.44288683 -0.67974657 118 102 130
-0.074124552 -0.44288799 -0.67996985 112 95 119
-0.071443819 -0.44307548 -0.67958587 122 108 136
-0.070529811 -0.44313076 -0.6794641 125 108 138
-0.069811322 -0.44131616 -0.6791923 147 139 158
-0.069938697 -0.44205976 -0.67928046 138 126 150
-0.069539905 -0.44318753 -0.6793319 128 109 139
-0.072857186 -0.44393608 -0.67986655 111 93 120
-0.073077716 -0.44453672 -0.67995316 108 85 111
-0.073759958 -0.44341609 -0.67995417 110 95 119
-0.072731562 -0.44427365 -0.67987812 110 90 117
-0.070587613 -0.44633549 -0.67976403 112 79 106
-0.068909995 -0.44439539 -0.6793558 126 101 132
-0.069584012 -0.44476101 -0.67948073 121 92 122
-0.071171939 -0.44636938 -0.67984557 108 71 98
-0.070275605 -0.44616941 -0.67970651 115 83 111
-0.070765711 -0.44520536 -0.67968392 113 83 112
-0.071002342 -0.4454858 -0.67974192 111 79 108
-0.070091836 -0.4448832 -0.67956138 117 87 117
-0.072163247 -0.44682863 -0.68002355 101 62 88
-0.069673277 -0.44362795 -0.67939079 124 103 134
-0.070789985 -0.44564033 -0.67972624 111 78 106
-0.068349645 -0.44427022 -0.67926937 131 108 139
-0.070691533 -0.44928771 -0.68006223 125 95 110
-0.071803227 -0.44760305 -0.68004638 105 65 89
-0.069563329 -0.44988379 -0.67995846 138 113 122
-0.06953869 -0.44939253 -0.67990941 135 109 122
-0.11490095 -0.43774933 -0.69200522 230 225 235
-0.11455312 -0.43782914 -0.69181645 232 227 236
-0.10408223 -0.42295998 -0.68778253 183 162 169
-0.1027391 -0.42329556 -0.68723303 177 154 163
-0.10183614 -0.42278165 -0.68686479 167 145 157
-0.10285496 -0.42375705 -0.68727201 176 150 158
-0.10341834 -0.42353001 -0.68750644 184 160 167
-0.10469257 -0.42632607 -0.68787611 192 172 185
-0.10358473 -0.42693287 -0.68735051 180 155 171
-0.10370152 -0.42572933 -0.68748933 184 160 172
-0.10214651 -0.42755127 -0.68677431 152 126 146
-0.10143566 -0.42761248 -0.68651944 137 111 133
-0.10324422 -0.42671096 -0.68722284 175 150 166
-0.10326114 -0.42596853 -0.68728429 177 152 165
-0.10514926 -0.43083265 -0.68786228 190 163 182
-0.10478611 -0.42989877 -0.68773741 188 162 181
-0.1038163 -0.43076974 -0.68728834 176 153 170
-0.10378373 -0.42857692 -0.6873489 179 154 172
-0.10357912 -0.43032408 -0.68720108 174 152 168
-0.10253481 -0.4315193 -0.68679112 161 141 152
-0.10201346 -0.43050158 -0.68663424 147 125 141
-0.10036518 -0.43134445 -0.68604165 140 121 120
-0.10244558 -0.43065444 -0.68678069 153 130 148
-0.10176206 -0.42989811 -0.68656129 140 116 136
-0.10170247 -0.42849416 -0.68658763 141 115 136
-0.10136983 -0.42934665 -0.68643975 133 108 129
-0.10254447 -0.42838293 -0.68689257 157 133 152
-0.10196812 -0.42967033 -0.68664259 144 120 140
-0.10245769 -0.43052745 -0.68678856 152 130 148
-0.10284802 -0.42920411 -0.68697309 162 138 157
-0.10517393 -0.43171138 -0.68784416 189 160 180
-0.10448455 -0.43312323 -0.68753421 184 165 178
-0.10392896 -0.43205193 -0.68730372 177 155 171
-0.10429294 -0.43340468 -0.68744999 183 165 178
-0.10364275 -0.435247 -0.68717796 186 165 173
-0.102208 -0.43553618 -0.68667406 169 149 164
-0.10031369 -0.43283582 -0.6860168 145 126 126
-0.099745698 -0.43297115 -0.68582118 137 119 123
-0.10302406 -0.43524456 -0.68695498 180 159 166
-0.10050802 -0.43406627 -0.6860857 147 128 139
-0.10091222 -0.43247363 -0.6862238 151 131 130
-0.1014764 -0.43169099 -0.68642056 153 133 137
-0.10350983 -0.43387088 -0.68712461 180 158 170
-0.1035124 -0.43460199 -0.68712473 183 161 171
-0.10104711 -0.4324277 -0.68627071 152 132 132
-0.10131697 -0.43296716 -0.68636388 156 137 136
-0.10506479 -0.43581751 -0.68777025 192 176 185
-0.10454138 -0.43574163 -0.68755227 190 172 181
-0.10354829 -0.43664312 -0.68714994 169 145 158
-0.1041518 -0.43932059 -0.68742418 129 102 127
-0.10386726 -0.43916222 -0.68730676 129 103 127
-0.10122815 -0.43801716 -0.68633944 128 105 129
-0.10081358 -0.43695208 -0.68620294 131 110 138
-0.10070144 -0.43782288 -0.68614668 129 107 130
-0.10180891 -0.43863001 -0.68654537 126 102 125
-0.10155424 -0.43723181 -0.68646675 133 111 138
-0.10246517 -0.43603978 -0.686768 165 143 159
-0.10240581 -0.43685088 -0.68675625 151 128 148
-0.10323356 -0.43769953 -0.68705076 148 123 143
-0.10334082 -0.43909377 -0.68710274 126 100 125
-0.10420062 -0.43975478 -0.68743789 128 102 126
-0.10516112 -0.44125333 -0.68779099 142 117 136
-0.10460364 -0.4405809 -0.68758106 135 109 131
-0.10389811 -0.44290757 -0.68721348 146 122 137
-0.10485026 -0.44271976 -0.68762207 149 124 139
-0.10385696 -0.44116431 -0.68725407 135 109 130
-0.1020459 -0.44320032 -0.68652838 143 121 130
-0.1010754 -0.44289312 -0.68619424 140 117 126
-0.1020546 -0.43975097 -0.6866132 126 100 120
-0.10286219 -0.44076502 -0.68687999 131 106 126
-0.10336069 -0.44180813 -0.68703079 138 113 131
-0.10529802 -0.44464809 -0.68773413 161 141 152
-0.10485885 -0.44355881 -0.68759578 154 131 143
-0.1042696 -0.44417578 -0.68731999 155 134 146
-0.10374469 -0.44500414 -0.68708038 161 142 154
-0.10572753 -0.44699234 -0.68781489 175 162 170
-0.10405087 -0.44514015 -0.68719876 162 143 155
-0.10365348 -0.44513077 -0.68704027 162 144 155
-0.10153171 -0.44371259 -0.68633848 145 124 132
-0.10214456 -0.44423151 -0.68653589 151 131 140
-0.10117082 -0.4437024 -0.68621361 144 123 130
-0.10131996 -0.44419143 -0.6862511 149 129 136
-0.10249081 -0.44441035 -0.68665081 154 134 144
-0.10238581 -0.44517019 -0.68659222 160 142 151
-0.1050816 -0.44753033 -0.68753529 179 165 175
-0.10568067 -0.44886917 -0.68770665 181 164 177
-0.10498843 -0.44857988 -0.68744469 181 165 178
-0.10528281 -0.44972235 -0.68750423 183 164 180
-0.10381457 -0.45035779 -0.68688488 182 158 181
-0.10386303 -0.44929075 -0.68695861 182 162 180
-0.10413565 -0.44941783 -0.68706113 182 162 180
-0.10028865 -0.45006222 -0.68574148 175 154 171
-0.10133952 -0.44968584 -0.68607098 182 161 177
-0.10030212 -0.44964686 -0.68575102 177 158 172
-0.10008592 -0.45012438 -0.68567801 173 153 170
-0.10220884 -0.45078936 -0.68632519 179 154 178
-0.1004088 -0.45084271 -0.68576837 170 147 169
-0.10287175 -0.45007765 -0.68655634 183 160 181
-0.10159851 -0.44911343 -0.68616384 186 166 179
-0.103247 -0.44877133 -0.68675303 182 163 179
-0.10261229 -0.44918343 -0.68651193 184 163 179
-0.10314936 -0.45069504 -0.68662113 183 157 182
-0.099273987 -0.45097151 -0.68541902 161 137 160
-0.098605759 -0.4506827 -0.68522948 152 128 150
-0.099128328 -0.4501808 -0.68537271 163 139 159
-0.095262334 -0.44821393 -0.68424064 118 84 107
-0.095555447 -0.44973585 -0.68438917 115 89 107
-0.095196724 -0.44913298 -0.68427509 115 85 106
-0.094016932 -0.44937077 -0.68402165 111 80 98
-0.094141245 -0.44975084 -0.68406868 110 81 98
-0.10527255 -0.45194727 -0.68744755 185 162 184
-0.10520431 -0.45277473 -0.68744296 187 165 186
-0.10584333 -0.45439014 -0.68774271 191 172 189
-0.10592491 -0.4516578 -0.68770039 185 162 183
-0.10510705 -0.45492864 -0.68745226 190 174 186
-0.10455894 -0.45419365 -0.68721235 188 170 184
-0.10492125 -0.45463336 -0.68737006 189 172 185
-0.10482433 -0.45324096 -0.68730271 188 166 186
-0.10013144 -0.45237789 -0.68570566 170 149 167
-0.10131555 -0.4544096 -0.68611592 181 162 172
-0.099708132 -0.45332214 -0.68560052 174 152 167
-0.10001806 -0.45347857 -0.68569857 175 153 168
-0.10016888 -0.45369875 -0.68574983 176 155 169
-0.10125005 -0.45177662 -0.68603587 173 150 171
-0.10261787 -0.45376098 -0.68649757 181 163 176
-0.10248856 -0.45214814 -0.68642586 179 156 177
-0.10350584 -0.45485124 -0.68679339 186 171 179
-0.10032192 -0.45175964 -0.68574888 168 147 167
-0.095885515 -0.45160225 -0.68456858 118 99 112
-0.096402831 -0.45412213 -0.68484992 156 137 145
-0.097643428 -0.45392534 -0.68510771 158 138 147
-0.096828721 -0.45445171 -0.68496495 163 143 150
-0.095818348 -0.45284313 -0.68463689 136 117 127
-0.095945656 -0.45449525 -0.68477505 160 142 147
-0.098937616 -0.45138505 -0.68534744 156 134 155
-0.099498533 -0.45343497 -0.68554443 173 151 165
-0.0983641 -0.45246565 -0.68522495 153 132 147
-0.097283714 -0.45177603 -0.68492657 136 115 131
-0.098709561 -0.45278364 -0.68532282 159 138 153
-0.095602147 -0.45445308 -0.68469614 158 139 145
-0.09453591 -0.45395285 -0.68441904 143 121 132
-0.095066816 -0.45388693 -0.68453598 146 125 135
-0.093435317 -0.45382917 -0.68415928 133 107 122
-0.095637314 -0.45149493 -0.68450654 116 97 110
-0.093807228 -0.45135683 -0.68408066 107 84 96
-0.093153015 -0.45296782 -0.68403816 122 96 111
-0.093456812 -0.45335579 -0.68413287 128 102 117
-0.10599531 -0.45538485 -0.68783158 191 174 189
-0.10384504 -0.45610383 -0.68699962 183 166 178
-0.10088117 -0.45692223 -0.68619692 172 147 164
-0.10001617 -0.45573452 -0.68580979 178 155 167
-0.099690586 -0.45826989 -0.68607867 152 122 141
-0.10327385 -0.45530623 -0.68674839 185 170 177
-0.10120505 -0.45631492 -0.6862126 178 155 170
-0.10277446 -0.45600495 -0.68666089 181 163 175
-0.10114881 -0.45625159 -0.68618971 178 156 170
-0.10234617 -0.45582992 -0.68651474 181 163 174
-0.097136371 -0.4578833 -0.68539476 147 122 142
-0.096871346 -0.45754611 -0.68529367 149 125 143
-0.097826116 -0.45734471 -0.68553251 154 128 143
-0.09664505 -0.45743534 -0.68522304 150 126 144
-0.096092612 -0.45609182 -0.68495554 160 139 150
-0.0959846 -0.45668742 -0.68497926 154 133 148
-0.09715908 -0.45648834 -0.68527502 159 136 147
-0.099110231 -0.4579629 -0.68590611 152 124 141
-0.097875774 -0.45621088 -0.68539298 165 141 152
-0.098796211 -0.45766678 -0.68579638 154 126 143
-0.099025771 -0.45815948 -0.68591499 150 121 139
-0.095205352 -0.45510268 -0.68464983 164 144 150
-0.093044288 -0.4571273 -0.68436897 149 129 137
-0.094453603 -0.45604107 -0.68457675 159 140 146
-0.09284094 -0.4560563 -0.68420875 147 123 135
-0.095575549 -0.45891473 -0.68507385 134 110 140
-0.09433037 -0.45867804 -0.68478924 139 117 138
-0.094897754 -0.45838809 -0.68488371 140 118 140
-0.093042195 -0.45792043 -0.68444937 148 129 137
-0.095243551 -0.45777652 -0.68490279 145 123 143
-0.093920924 -0.45719823 -0.68457144 153 134 142
-0.091540426 -0.45678514 -0.68399101 139 114 127
-0.091293655 -0.45862246 -0.68413228 140 120 129
-0.096377537 -0.46028844 -0.68543667 130 103 130
-0.096439898 -0.46011645 -0.68543553 131 105 133
-0.09682253 -0.46030286 -0.68556273 132 106 133
-0.096686877 -0.45992795 -0.68548387 133 108 136
-0.097899564 -0.45928958 -0.68573385 139 110 136
-0.096911646 -0.45978773 -0.68552756 134 109 136
-0.092660226 -0.46066198 -0.68464106 130 106 119
-0.095395803 -0.45930684 -0.68507683 132 107 136
-0.093589142 -0.45982984 -0.6847508 133 110 126
-0.093343668 -0.46010691 -0.68472874 132 109 122
-0.092318915 -0.45901439 -0.68439376 140 120 132
-0.095078871 -0.46107033 -0.68520021 123 95 116
-0.091264889 -0.46079838 -0.68436712 132 108 120
-0.091382906 -0.46155748 -0.68446904 127 101 117
-0.091718055 -0.45981202 -0.68435127 137 116 126
-0.090737574 -0.45967004 -0.68413746 138 116 125
-0.090025105 -0.46010721 -0.68403852 135 112 121
0 0 0 1 0 0 0 1 0 0 0 1 0 0 0 0 0 625 1 0 0
