ply
format ascii 1.0
comment PCL generated
element vertex 914
property float x
property float y
property float z
property uchar red
property uchar green
property uchar blue
element camera 1
property float view_px
property float view_py
property float view_pz
property float x_axisx
property float x_axisy
property float x_axisz
property float y_axisx
property float y_axisy
property float y_axisz
property float z_axisx
property float z_axisy
property float z_axisz
property float focal
property float scalex
property float scaley
property float centerx
property float centery
property int viewportx
property int viewporty
property float k1
property float k2
end_header
0.24154894 0.042422224 -0.87924445 108 75 63
0.24074815 0.042327896 -0.87900275 116 83 68
0.24095865 0.042549208 -0.87915945 114 81 67
0.24119402 0.042247601 -0.87907434 111 78 65
0.23945488 0.038526963 -0.87748182 115 80 68
0.23991814 0.037644781 -0.87721604 110 76 63
0.24306652 0.039362632 -0.87842005 87 53 50
0.2429882 0.038672324 -0.87816435 88 54 50
0.24198663 0.03876482 -0.87799037 94 60 54
0.24221438 0.037214816 -0.87749922 93 59 53
0.24206056 0.03783064 -0.87768131 94 60 54
0.24303044 0.039139241 -0.87833512 87 53 50
0.2415529 0.038919888 -0.87793511 99 65 57
0.24241681 0.040203735 -0.87854159 94 60 54
0.2421291 0.039346728 -0.87820786 95 61 54
0.24186672 0.039801858 -0.87828296 99 65 57
0.24033363 0.039701648 -0.87787515 114 80 66
0.24441926 0.038412448 -0.87843055 79 45 46
0.24630141 0.037785623 -0.87899208 73 42 41
0.24474357 0.038619235 -0.87863743 78 45 45
0.24443521 0.037650578 -0.87817055 79 46 46
0.24470946 0.039016958 -0.87876242 78 45 45
0.23838961 0.035025004 -0.87671816 115 80 65
0.23913981 0.033538654 -0.87637055 104 67 60
0.23880222 0.035221819 -0.87673759 112 77 64
0.23938055 0.033789504 -0.87641013 103 66 60
0.2399853 0.036298245 -0.8768996 106 71 60
0.23813649 0.035522792 -0.87680262 117 81 67
0.24386689 0.034825232 -0.87722397 81 47 46
0.24393688 0.034681249 -0.87719733 81 47 46
0.24401204 0.03474763 -0.87722611 80 47 46
0.24355263 0.034620874 -0.87712258 82 48 47
0.24411832 0.033985976 -0.87704474 80 47 45
0.24361151 0.034565952 -0.8771174 82 48 47
0.24061179 0.036699373 -0.87704772 103 68 59
0.24055777 0.035728887 -0.87683505 100 65 58
0.2411603 0.035600521 -0.87693244 95 60 55
0.24085099 0.035172619 -0.87677991 96 60 56
0.24168271 0.036221325 -0.87716883 94 59 54
0.24062204 0.036811542 -0.87707305 103 69 59
0.24795252 0.036226071 -0.87912333 68 41 39
0.24763539 0.035276145 -0.87865257 71 42 41
0.24751115 0.03444913 -0.8783049 73 43 43
0.24484298 0.036996886 -0.87811005 78 45 45
0.2473775 0.034944333 -0.87842673 72 43 42
0.24680986 0.035744306 -0.87847763 73 43 42
0.24694899 0.036541473 -0.87882084 72 42 41
0.24423476 0.035896789 -0.87757397 80 46 46
0.24492788 0.035790928 -0.87776577 79 46 46
0.24451703 0.034909006 -0.8774069 79 46 45
0.24479631 0.035305858 -0.87759829 79 46 45
0.24575031 0.033814102 -0.87751293 77 45 44
0.24817815 0.034840137 -0.87872386 70 42 41
0.24843882 0.034605097 -0.87875378 71 43 42
0.24974304 0.033892497 -0.87906921 75 47 43
0.24906223 0.034039691 -0.87882417 73 45 43
0.23401044 0.030583721 -0.87757593 123 93 82
0.23387912 0.029600371 -0.87767047 125 95 85
0.23585731 0.031051673 -0.87673557 129 94 77
0.23576941 0.031895075 -0.87674385 127 92 76
0.23493767 0.030019898 -0.87718326 128 96 82
0.2360374 0.029909471 -0.87669712 131 97 80
0.23553014 0.032927494 -0.87677354 127 92 76
0.23874414 0.031184461 -0.87636393 110 73 64
0.23972844 0.032452241 -0.87628323 99 62 58
0.23718473 0.030137027 -0.87651372 125 90 75
0.23981458 0.029725177 -0.87621152 104 60 54
0.23801921 0.029535979 -0.87640709 119 81 68
0.23861541 0.030676268 -0.87636667 112 74 65
0.23774022 0.032545306 -0.87639767 116 79 67
0.23822594 0.032899614 -0.87635946 111 74 64
0.23825473 0.031606358 -0.87640536 113 77 67
0.23769344 0.032066248 -0.8764177 117 81 69
0.23888208 0.033088572 -0.87631845 105 68 61
0.24334984 0.031053612 -0.87648934 82 47 43
0.2428631 0.031398125 -0.87653553 86 49 46
0.24355517 0.030894311 -0.87646765 80 46 42
0.24324901 0.030935632 -0.87646878 82 47 43
0.24136305 0.030289115 -0.87633264 95 53 49
0.24189895 0.032473747 -0.8764835 89 52 50
0.24035305 0.032957718 -0.87625676 94 56 55
0.24314186 0.032446116 -0.87667406 85 49 46
0.24063602 0.031226797 -0.87626082 96 55 52
0.24245775 0.033196714 -0.87658596 86 51 49
0.24767905 0.031522896 -0.87757146 74 47 45
0.24751255 0.032659471 -0.87782466 73 43 43
0.24785618 0.030769726 -0.87741846 75 50 47
0.24424656 0.02932013 -0.87625313 74 42 38
0.24747869 0.031235974 -0.87745416 74 47 45
0.24607132 0.032104172 -0.87728113 74 44 42
0.24483012 0.033009268 -0.87703228 78 46 44
0.24625131 0.032581117 -0.87741393 75 44 43
0.24649838 0.0323897 -0.87746167 74 44 42
0.24595848 0.032295913 -0.87727588 75 44 42
0.24441035 0.032075826 -0.87675101 77 45 42
0.251329 0.032425728 -0.87924576 81 52 46
0.24932522 0.032290496 -0.87831897 77 48 46
0.24987027 0.031680211 -0.87834263 79 50 47
0.2496445 0.032319825 -0.87846887 77 49 46
0.2502237 0.032282751 -0.87870914 79 50 46
0.24851273 0.031061815 -0.87769359 76 50 48
0.24837349 0.032357689 -0.8779766 74 46 45
0.24885713 0.032029755 -0.87805766 76 48 46
0.24832819 0.0306726 -0.87753147 76 51 48
0.24809264 0.030479701 -0.87740207 76 51 48
0.25033635 0.029851658 -0.87800598 82 56 51
0.2527332 0.029361011 -0.87863588 86 59 52
0.25429529 0.029800544 -0.8791886 84 59 51
0.25408918 0.030167904 -0.87926662 84 58 51
0.23569724 0.025551999 -0.87753916 131 95 87
0.23497033 0.027698297 -0.87748641 122 81 80
0.23578231 0.027196415 -0.87720895 130 94 84
0.235223 0.028468361 -0.87723422 126 87 81
0.23553292 0.029033674 -0.87699258 130 95 81
0.23374163 0.028452484 -0.87789738 121 85 84
0.23412995 0.028897541 -0.87764287 124 91 84
0.23380311 0.028899761 -0.87778813 123 91 85
0.23836319 0.026467986 -0.87677032 122 81 70
0.23899542 0.026524181 -0.87663293 118 74 64
0.23860931 0.025644796 -0.87678301 123 79 69
0.23804466 0.02603212 -0.87687147 125 85 73
0.23830481 0.027281227 -0.87671894 119 80 70
0.239324 0.026883569 -0.87653559 115 69 61
0.23853229 0.02791697 -0.87658942 117 77 67
0.23740491 0.02845563 -0.8766194 125 89 74
0.2374623 0.028379215 -0.87662655 125 88 74
0.23911512 0.028556375 -0.87641102 111 69 61
0.23832776 0.027527759 -0.87668115 118 80 69
0.23656158 0.028115977 -0.87677348 132 99 81
0.24368432 0.028419375 -0.87626034 79 44 39
0.24320213 0.027428186 -0.87629998 84 46 41
0.2438152 0.026935324 -0.87628543 79 42 38
0.24327244 0.026563257 -0.87631488 84 45 41
0.24396974 0.02731584 -0.87627149 77 41 38
0.24148896 0.025463343 -0.87640911 103 54 49
0.24207962 0.028885333 -0.87621981 90 50 45
0.24294405 0.028137693 -0.87629366 86 48 43
0.24023569 0.026988655 -0.87633586 110 59 53
0.24228269 0.027886668 -0.87630171 92 50 45
0.24265316 0.027950965 -0.87630314 89 49 44
0.24790904 0.028146729 -0.87695056 77 52 50
0.2454267 0.025785917 -0.87646711 77 43 41
0.24783131 0.026908224 -0.87681264 77 49 50
0.24663691 0.025789032 -0.87658173 77 45 46
0.24762505 0.028649587 -0.87697679 77 52 49
0.24680416 0.026238468 -0.87664497 77 46 47
0.24443905 0.02673069 -0.87634224 76 41 38
0.24478744 0.026850376 -0.87641662 76 42 39
0.24584638 0.028905882 -0.87660789 76 47 43
0.24545722 0.027057009 -0.87655997 77 45 41
0.24429345 0.029227337 -0.87625897 74 42 38
0.25107178 0.026627177 -0.87757367 94 67 58
0.24959438 0.026866294 -0.87734503 81 52 52
0.25139365 0.027411904 -0.87783325 92 65 57
0.24917503 0.025765011 -0.8769871 83 55 54
0.25125715 0.027859792 -0.87791884 89 62 55
0.24837582 0.027813325 -0.87704045 78 52 51
0.24874191 0.026487071 -0.87702525 78 50 52
0.24853632 0.027092883 -0.87701911 78 51 51
0.24842851 0.02911857 -0.87719607 78 55 51
0.24887979 0.029217979 -0.87736017 79 55 51
0.2556057 0.028512178 -0.87908846 86 60 53
0.25427952 0.028502258 -0.87874728 87 60 53
0.25325331 0.029108819 -0.87868404 86 60 53
0.25437751 0.029193174 -0.87899691 85 60 53
0.2541419 0.029089935 -0.87890351 86 60 53
0.25323057 0.028314857 -0.87841988 88 60 53
0.25372586 0.025820449 -0.87786132 99 70 60
0.252967 0.026698275 -0.87794536 97 69 59
0.25549912 0.025539417 -0.87810868 94 63 56
0.25466752 0.025454877 -0.87793845 97 68 58
0.25336835 0.025712026 -0.87777013 101 73 61
0.2564306 0.026384696 -0.87849373 92 63 58
0.25778213 0.02647483 -0.87860137 93 68 64
0.25670192 0.027473412 -0.87886524 89 64 58
0.25853357 0.025837721 -0.87843668 95 70 68
0.25815338 0.025724802 -0.8783778 95 69 66
0.25614652 0.025793007 -0.87828398 93 62 57
0.25948665 0.025653606 -0.87843198 97 73 72
0.25786811 0.027431114 -0.87893128 91 67 63
0.2584413 0.027572522 -0.87903678 92 68 64
0.26038927 0.026628027 -0.87878585 102 80 75
0.26047042 0.025603876 -0.87840694 105 83 78
0.26057625 0.027045824 -0.87893009 103 82 75
0.26125744 0.026844211 -0.87882435 111 92 80
0.26047787 0.028083511 -0.87928396 101 79 71
0.26055211 0.027864696 -0.87920898 102 80 72
0.26154733 0.027990438 -0.87916887 112 93 77
0.26154417 0.026821021 -0.87880045 114 95 82
0.23578992 0.0241872 -0.87776959 127 95 88
0.23567386 0.022219183 -0.87822038 118 89 87
0.23475096 0.023536647 -0.87837023 115 77 85
0.23538515 0.024292391 -0.877931 124 89 87
0.23591799 0.021983093 -0.87815803 120 92 87
0.23621294 0.02366979 -0.87768334 129 100 89
0.23915523 0.021653393 -0.87723106 121 82 71
0.23942305 0.022373307 -0.8770653 120 77 67
0.23734777 0.02229703 -0.87767816 120 89 80
0.23724397 0.022028564 -0.87774116 121 90 81
0.24012749 0.021488382 -0.87696844 121 77 65
0.2381338 0.024545372 -0.87707418 124 83 73
0.23872614 0.024451524 -0.87696856 120 77 68
0.23942916 0.024616988 -0.87678713 117 69 62
0.23721199 0.02307808 -0.87756526 123 91 81
0.23769127 0.025316913 -0.87701106 129 90 77
0.23842734 0.024345886 -0.87705284 121 80 70
0.24310882 0.022365892 -0.87654954 93 51 46
0.24050693 0.021680275 -0.87689668 118 74 63
0.24217126 0.022106519 -0.87667513 102 59 52
0.24295036 0.024133001 -0.87649983 90 51 45
0.24357994 0.02218923 -0.87649846 90 47 43
0.24258782 0.023679398 -0.87656224 94 54 48
0.24143089 0.023664135 -0.87662369 106 61 53
0.24031675 0.021613916 -0.87691879 120 76 64
0.24276142 0.025390891 -0.87635946 90 47 43
0.24030523 0.02375019 -0.87665844 117 67 58
0.2407494 0.022294821 -0.8768183 114 70 60
0.24699585 0.024040226 -0.8765977 79 45 49
0.24634729 0.021982525 -0.87648106 81 43 47
0.24600409 0.022969404 -0.87653834 82 44 46
0.24758324 0.022462869 -0.87650609 78 44 50
0.24733584 0.024464678 -0.87662131 78 46 49
0.24606885 0.022790806 -0.87652797 82 44 46
0.24459465 0.024134446 -0.87639606 80 41 40
0.24557197 0.024797766 -0.8764624 78 43 43
0.24415006 0.023987873 -0.87635976 80 41 38
0.24697654 0.02500896 -0.87658685 77 45 48
0.24455748 0.02446162 -0.87637967 79 41 39
0.25193968 0.024980176 -0.87736416 109 85 66
0.24916136 0.022359267 -0.87668931 87 56 56
0.25162396 0.024620418 -0.87727678 106 82 65
0.25072694 0.023331029 -0.87698257 101 75 63
0.25000647 0.021720711 -0.87664729 98 73 62
0.25014344 0.023713186 -0.87698632 94 65 59
0.24906045 0.023535505 -0.87676454 85 54 55
0.24931079 0.024318671 -0.87685841 87 57 56
0.25123405 0.024847101 -0.87726438 102 75 63
0.24991329 0.024213409 -0.87697005 92 63 58
0.25483128 0.023104303 -0.8774429 104 74 61
0.25330865 0.021962244 -0.87700808 114 91 69
0.25287494 0.022090629 -0.87700385 115 95 70
0.2547628 0.021548942 -0.87702686 109 77 63
0.25338772 0.022130888 -0.87705952 113 90 68
0.25352794 0.022793429 -0.87724644 110 88 67
0.25522274 0.025047245 -0.87796277 97 67 58
0.25291654 0.02379428 -0.87733358 109 87 67
0.25289249 0.023923475 -0.87735158 109 86 66
0.25308734 0.022669118 -0.87717044 112 92 69
0.25450307 0.024207331 -0.87768912 102 76 62
0.25846043 0.022425642 -0.8775056 102 70 69
0.25917119 0.024283741 -0.87803596 99 73 71
0.25763008 0.022837041 -0.87756538 102 69 65
0.25681213 0.021889938 -0.87726843 103 67 62
0.25785774 0.023431173 -0.87773502 101 70 66
0.25622311 0.024608474 -0.87795079 96 64 58
0.25746226 0.02423013 -0.87792271 98 68 64
0.25756022 0.023364469 -0.87770015 101 69 65
0.25772324 0.024135347 -0.87791282 99 69 65
0.25786653 0.02366665 -0.87779748 100 70 66
0.25668091 0.022590915 -0.8774454 102 67 61
0.2620689 0.022606431 -0.87754017 123 103 91
0.26273537 0.024208583 -0.87791568 130 113 94
0.26323223 0.021962086 -0.87734485 134 119 102
0.26309624 0.023191188 -0.87765294 133 117 99
0.26080912 0.02211876 -0.87745863 112 85 82
0.26195943 0.023515714 -0.8777684 123 102 89
0.2611793 0.023309352 -0.87774807 115 91 83
0.26094201 0.022697305 -0.87759811 113 87 82
0.26064339 0.024721151 -0.87814468 108 85 80
0.26240984 0.02423564 -0.87793416 127 109 91
0.25989985 0.021859836 -0.87742662 103 73 75
0.26088667 0.024858737 -0.87816942 110 89 81
0.26445997 0.021650614 -0.87725103 132 116 97
0.26657113 0.021730665 -0.87726802 116 91 71
0.26712707 0.023632511 -0.87770861 116 93 67
0.26710567 0.023758128 -0.8777377 117 94 68
0.26737475 0.023191495 -0.87760615 113 88 64
0.26826099 0.022065498 -0.87737805 97 67 52
0.26760554 0.022123801 -0.87735957 109 80 59
0.2677145 0.022327155 -0.87741148 107 79 58
0.26773894 0.022281606 -0.87740201 106 78 58
0.26798591 0.02278531 -0.8775295 103 75 56
0.26864222 0.024063833 -0.87785453 94 68 50
0.23560467 0.020454122 -0.87882698 116 81 84
0.2357994 0.020031964 -0.87888056 114 79 82
0.23542771 0.02039424 -0.87894082 116 78 83
0.23650686 0.018015556 -0.87926543 103 69 73
0.23807311 0.019635506 -0.87797296 122 93 84
0.23715112 0.018889168 -0.87865812 112 81 78
0.23900612 0.017747039 -0.87824905 118 84 77
0.23823301 0.018414631 -0.8783493 116 84 78
0.23817883 0.01815985 -0.87846684 115 82 77
0.23769775 0.019708013 -0.87811393 120 92 83
0.23951495 0.019218085 -0.8776257 123 88 77
0.23797458 0.020491458 -0.8778047 122 92 82
0.2368158 0.021249538 -0.8779816 122 96 86
0.23927234 0.019998394 -0.87753147 122 87 76
0.23890193 0.020804202 -0.877469 122 86 75
0.24405709 0.018499345 -0.87680137 98 53 49
0.24401659 0.018648 -0.87679428 97 53 49
0.24254431 0.017595403 -0.87724072 110 70 62
0.24290131 0.017745735 -0.87714392 108 66 60
0.24314238 0.019331839 -0.87691665 100 59 53
0.24116474 0.020693243 -0.87699038 113 71 62
0.240254 0.019943237 -0.87726098 122 82 70
0.24125959 0.019035531 -0.87732881 114 76 67
0.24048275 0.01804249 -0.87763423 122 87 75
0.242854 0.020916114 -0.87673539 98 56 50
0.24083336 0.020397458 -0.87709367 116 75 65
0.24631634 0.017974541 -0.87671643 91 52 52
0.24774131 0.018341111 -0.87660277 85 49 53
0.24786666 0.018150667 -0.87660217 85 49 53
0.24801762 0.020643776 -0.87648648 79 45 52
0.24500568 0.017709129 -0.87681788 97 54 52
0.24465282 0.020597052 -0.87655264 88 46 44
0.24554552 0.021293355 -0.87647492 84 43 45
0.24537528 0.020059308 -0.8766098 89 48 48
0.24690101 0.02053416 -0.87655491 84 46 51
0.24546829 0.020914229 -0.8765164 85 45 46
0.25079769 0.018356752 -0.87660635 109 89 73
0.2501494 0.018107422 -0.87660438 104 80 68
0.24985091 0.01811704 -0.87661058 101 76 66
0.25018233 0.018733988 -0.87663954 104 80 67
0.25045374 0.019140955 -0.87665761 107 84 68
0.24905048 0.019985996 -0.87659293 92 62 58
0.24827993 0.021079639 -0.87648481 81 48 53
0.25106698 0.02133096 -0.87669826 111 92 69
0.24988867 0.020138033 -0.87665391 101 75 63
0.24990843 0.020257166 -0.87665045 101 75 63
0.25226924 0.017610155 -0.87654573 119 106 83
0.25478926 0.01888819 -0.87673575 117 90 72
0.25443462 0.018154761 -0.8766309 120 97 76
0.25284314 0.018147873 -0.87662381 117 100 79
0.2541579 0.018859396 -0.87672925 116 91 73
0.25447363 0.020283623 -0.87691581 110 80 67
0.25383836 0.020826833 -0.87689108 112 86 68
0.25381854 0.021016929 -0.87690014 113 87 68
0.25255129 0.021017877 -0.87678897 118 99 73
0.25317711 0.019767812 -0.87677252 115 93 73
0.25265473 0.019246072 -0.87669688 116 99 77
0.25962391 0.01865337 -0.87671924 107 72 74
0.25842187 0.01888613 -0.87679243 112 80 75
0.25829032 0.01908206 -0.87683767 113 81 75
0.25962269 0.020804096 -0.87718838 104 72 74
0.25888917 0.018661812 -0.87673479 111 77 74
0.25757667 0.019189617 -0.87687445 116 86 75
0.25704396 0.021354994 -0.87715697 105 68 64
0.25592589 0.021088243 -0.8770541 107 69 60
0.25645956 0.020402312 -0.87698847 110 75 66
0.25726888 0.020641794 -0.87706947 108 74 68
0.25878444 0.020649815 -0.87715906 107 76 74
0.26329079 0.019795848 -0.87677526 123 103 91
0.2633571 0.018208407 -0.87632406 109 84 76
0.26095486 0.018626694 -0.87666517 116 86 82
0.26349044 0.020710921 -0.87701321 131 115 99
0.26289117 0.019149147 -0.87663126 118 95 85
0.25993752 0.018817458 -0.87674707 108 74 75
0.26034519 0.018863689 -0.87674451 112 79 79
0.26015043 0.019123819 -0.87680727 110 76 77
0.26086479 0.020111218 -0.87700051 114 86 83
0.26206315 0.021128908 -0.8771854 124 102 93
0.26563802 0.018461268 -0.87639821 103 71 60
0.26622152 0.017920084 -0.87628144 101 66 54
0.26623535 0.019687474 -0.87672168 105 75 61
0.26508594 0.017933862 -0.87625003 103 71 62
0.26672915 0.018043818 -0.87632787 101 64 52
0.26613912 0.021150446 -0.87711763 116 91 73
0.26449636 0.018871794 -0.8764801 108 82 72
0.26388118 0.020166842 -0.87684357 124 106 91
0.26375532 0.019076979 -0.87653816 116 94 83
0.26493782 0.02091161 -0.87705153 123 102 86
0.26775041 0.021252787 -0.87716579 105 74 56
0.26771718 0.021463236 -0.87721562 105 75 57
0.23944378 0.015244176 -0.87901175 115 83 75
0.23904151 0.017204352 -0.87843871 116 82 76
0.23890537 0.015553683 -0.87913322 112 79 74
0.23834991 0.016395161 -0.87905806 110 77 73
0.2398963 0.017164381 -0.8780725 122 88 77
0.24061038 0.013944499 -0.8790381 116 84 73
0.24394795 0.015981128 -0.87721843 107 64 56
0.24153955 0.014923887 -0.87846738 112 76 67
0.24407566 0.016171001 -0.87713146 106 63 55
0.2428907 0.014230538 -0.87796694 115 76 64
0.24408634 0.014309115 -0.87741643 114 72 60
0.24041522 0.014205323 -0.87900615 117 85 74
0.24131747 0.017342035 -0.87760878 117 81 71
0.24056895 0.016239656 -0.87819701 120 86 75
0.24348365 0.01697349 -0.87726122 103 61 55
0.24075933 0.016922893 -0.87789404 120 85 74
0.24199793 0.017387502 -0.87743819 113 75 66
0.24528138 0.013956048 -0.87729043 109 69 60
0.2471932 0.014625975 -0.87694156 96 59 58
0.24769729 0.015152207 -0.87682694 92 56 57
0.24801497 0.016873524 -0.87666476 87 51 55
0.24761583 0.014375451 -0.8768903 94 57 59
0.24462901 0.015026805 -0.8772465 109 68 58
0.24542792 0.016636699 -0.87694085 99 58 55
0.24648096 0.016771771 -0.87684733 95 56 55
0.24430411 0.016735757 -0.87700289 103 60 54
0.24542604 0.017291531 -0.87683904 97 55 53
0.25064334 0.014383517 -0.87657678 106 81 76
0.24889821 0.013755125 -0.87676603 97 64 65
0.25112325 0.015431714 -0.87655854 111 90 79
0.25157371 0.014933346 -0.87648422 112 91 82
0.25146022 0.013730964 -0.87645161 109 85 82
0.25105873 0.014049806 -0.87651306 108 83 79
0.24901406 0.01743979 -0.87660462 94 64 61
0.24903834 0.017062845 -0.87662858 95 65 62
0.2485421 0.016950015 -0.87664533 91 58 58
0.25077888 0.017444236 -0.87657088 109 90 75
0.25091213 0.016717834 -0.87661546 111 93 77
0.25352353 0.014653349 -0.87638652 120 95 84
0.2530908 0.013911774 -0.87633187 119 95 86
0.25483686 0.014152007 -0.87622905 132 106 87
0.25495371 0.016426742 -0.87648761 123 97 79
0.25419736 0.015212243 -0.87640166 122 97 82
0.25281903 0.015464501 -0.87646163 116 95 83
0.25490642 0.01703215 -0.87653029 123 98 78
0.25324777 0.016823869 -0.87651581 119 100 81
0.25226942 0.017242303 -0.87652826 118 104 83
0.2531969 0.017317727 -0.87653476 120 103 81
0.25860587 0.014611963 -0.87603307 128 97 78
0.25960666 0.014203137 -0.87587106 126 95 73
0.2581355 0.015444894 -0.87622786 125 93 80
0.25796905 0.013702566 -0.87591964 134 106 80
0.25974596 0.014339717 -0.87588435 125 94 72
0.25628138 0.016001426 -0.87636185 130 102 81
0.256901 0.016637022 -0.87642497 125 95 79
0.25634027 0.015350266 -0.87628424 133 104 84
0.25680822 0.015569554 -0.87630123 130 100 83
0.25652021 0.015054573 -0.87624615 133 104 85
0.25817555 0.01642804 -0.87637663 120 87 79
0.2635757 0.015343884 -0.87576765 102 73 64
0.26174793 0.01477104 -0.87580013 115 86 68
0.2618553 0.014514381 -0.87575185 114 84 67
0.26352426 0.014619352 -0.87565535 102 72 62
0.26313967 0.016853437 -0.87603837 107 79 69
0.26065627 0.014564007 -0.87584114 123 93 71
0.26187769 0.016437005 -0.87607402 112 82 71
0.26092798 0.015372332 -0.87596548 118 88 71
0.26138493 0.016718928 -0.87617213 111 80 71
0.26051366 0.014531882 -0.87584847 123 94 71
0.26472619 0.013715066 -0.87551826 104 78 61
0.26716003 0.017132685 -0.87615365 99 59 46
0.26739734 0.015499001 -0.87587214 108 79 56
0.26677927 0.014864909 -0.87575155 108 82 59
0.26715964 0.013867825 -0.87558359 115 96 65
0.26622003 0.016971419 -0.87609935 100 63 51
0.26613003 0.016973704 -0.87609696 100 63 52
0.2641851 0.014548209 -0.87564975 100 69 58
0.26514003 0.015569387 -0.87584221 100 66 54
0.2643567 0.016627919 -0.87598723 102 71 62
0.24287334 0.010726699 -0.87893629 123 89 74
0.24095027 0.012902776 -0.87915337 119 87 74
0.24285957 0.011407558 -0.87871838 123 88 73
0.24168725 0.012265943 -0.87899959 121 88 74
0.24165159 0.013120262 -0.87877023 119 85 71
0.24391599 0.010242105 -0.87857753 125 90 73
0.24382345 0.012635288 -0.87793177 119 81 66
0.24221168 0.012097575 -0.87881184 121 87 73
0.24625377 0.0097787771 -0.87786156 116 81 72
0.24761973 0.0099756038 -0.87735844 108 73 70
0.24602513 0.01003474 -0.87791926 116 81 71
0.24780475 0.011753607 -0.87712932 101 65 65
0.24778625 0.012432495 -0.87707347 98 63 63
0.24755271 0.011667596 -0.87722677 102 67 66
0.24497423 0.011748563 -0.87791038 116 79 67
0.24550402 0.011298029 -0.8779552 114 79 68
0.24470273 0.012597404 -0.87770993 116 77 65
0.2443262 0.012834016 -0.87770212 118 78 64
0.2443853 0.013538123 -0.87749046 115 75 62
0.25127932 0.010410763 -0.87660819 109 78 83
0.25110275 0.010248843 -0.87664562 108 78 82
0.24986033 0.010607372 -0.87686557 108 77 77
0.25071105 0.011154045 -0.87669206 109 80 81
0.25068679 0.012295076 -0.87666357 110 83 81
0.24968924 0.012827056 -0.87674367 104 73 73
0.24816957 0.01108522 -0.87708974 102 67 68
0.24970686 0.013078474 -0.87671846 103 72 72
0.24896081 0.011688485 -0.87693751 104 72 71
0.25051278 0.012613305 -0.87666261 108 81 79
0.25070056 0.01291843 -0.87661153 108 81 79
0.25519201 0.0114965 -0.87606454 130 107 96
0.25534222 0.012880403 -0.87613142 136 109 91
0.25231373 0.009980334 -0.87645471 111 81 87
0.25521481 0.011461047 -0.87605822 130 108 96
0.25491357 0.012319272 -0.876167 132 105 91
0.25374973 0.010326605 -0.87623262 119 94 93
0.25481942 0.012753867 -0.87620056 133 105 89
0.25195915 0.010348661 -0.87648463 109 79 86
0.25315434 0.011837241 -0.87635195 119 91 87
0.25199327 0.013027227 -0.87640464 111 87 86
0.25357822 0.013207502 -0.87628055 124 98 88
0.25976253 0.013104904 -0.87568361 130 101 75
0.25916159 0.011617796 -0.87557364 131 108 85
0.25713229 0.010521019 -0.87573981 128 111 98
0.25730947 0.0098351557 -0.87561905 130 115 101
0.25652206 0.0097869663 -0.87573481 128 114 104
0.25762278 0.012929296 -0.87589419 133 107 85
0.25604907 0.010324471 -0.87585592 127 112 103
0.25715554 0.013152448 -0.87594944 135 109 86
0.25700018 0.012535472 -0.87592167 133 109 90
0.25821516 0.01337288 -0.87587279 132 105 80
0.25686979 0.010845278 -0.87581992 127 109 97
0.26362619 0.012981994 -0.87539518 99 68 58
0.26088947 0.013320378 -0.87563568 121 92 70
0.26010069 0.011804401 -0.8754862 131 106 81
0.26156288 0.013628282 -0.87563127 115 85 66
0.26442227 0.013110478 -0.87542254 102 74 59
0.26462331 0.013323564 -0.87545735 103 76 60
0.26773819 0.013173274 -0.875462 111 93 66
0.24342175 0.0093029998 -0.87916148 122 87 73
0.24349366 0.0096835094 -0.8789928 123 88 73
0.24479549 0.0078489985 -0.87895858 122 89 75
0.24610567 0.0066583878 -0.87875211 118 88 78
0.24661422 0.0066592568 -0.87851489 118 88 78
0.24557924 0.0076482766 -0.87866145 121 89 76
0.2478313 0.0060492461 -0.87815493 116 87 80
0.24731126 0.0069699772 -0.87812632 117 86 78
0.24572827 0.0096339853 -0.87807953 119 84 73
0.24772988 0.0092454683 -0.87745756 109 75 72
0.24788287 0.0075952346 -0.87778044 112 81 76
0.2466664 0.0084424186 -0.87801874 117 84 75
0.25000393 0.0060872529 -0.87745625 107 77 72
0.25107232 0.0074133016 -0.87699199 106 75 75
0.24887085 0.0058784909 -0.87784648 112 82 77
0.25031972 0.0062485402 -0.87733871 106 76 72
0.25034085 0.0075839711 -0.87721789 110 80 80
0.25117195 0.0071639321 -0.87698054 105 74 73
0.2484263 0.0079501336 -0.87757075 111 79 77
0.24805523 0.009608401 -0.87726051 107 72 71
0.24987401 0.0094126444 -0.87696815 108 76 78
0.25133115 0.0096414108 -0.87664574 108 77 83
0.24896087 0.0095460527 -0.8771069 107 74 75
0.25377205 0.0062449081 -0.87635976 96 68 71
0.25477728 0.0063856938 -0.87609667 95 68 75
0.25391015 0.0072068963 -0.87632984 105 81 79
0.25528863 0.0079855137 -0.87597293 109 89 90
0.25515902 0.0072461311 -0.87600213 102 79 84
0.25500757 0.0092742825 -0.87602228 120 103 99
0.25214884 0.0094031608 -0.87649947 108 78 84
0.25310776 0.007824338 -0.87647027 108 82 80
0.25316137 0.009678944 -0.87630308 114 88 91
0.25295812 0.009627969 -0.87634212 112 86 90
0.25600126 0.0080488836 -0.8757903 109 89 92
0.25674716 0.0076111634 -0.87561291 105 86 87
0.25678098 0.0069367466 -0.87560052 98 77 81
0.25761846 0.0085219052 -0.87550867 117 100 91
0.25743183 0.0074810768 -0.87549335 106 86 84
0.25853005 0.0095573105 -0.87541115 132 114 96
0.25652984 0.0094801895 -0.87571859 124 110 102
0.24770251 0.0050686002 -0.87851691 109 80 74
0.24752203 0.003855047 -0.8789655 99 71 64
0.24615918 0.0051055681 -0.87922466 110 81 72
0.24701022 0.0049510282 -0.87887466 108 80 72
0.24956395 0.0029886742 -0.8784222 85 58 52
0.25040543 0.0042268266 -0.87782335 91 62 57
0.25097948 0.0047670109 -0.87746817 93 63 58
0.24999151 0.0034407852 -0.87814891 87 59 54
0.24862091 0.0037009865 -0.87857842 95 67 61
0.24865317 0.0037337828 -0.87855798 95 67 61
0.25033936 0.0053949379 -0.87750477 101 71 66
0.24830537 0.0028939706 -0.87892449 89 62 56
0.24935929 0.0051296996 -0.87790662 103 74 69
0.24840055 0.0051512131 -0.87821531 108 79 73
0.25246054 0.0037866116 -0.87706512 82 53 52
0.25335473 0.0038862382 -0.87681276 80 52 56
0.25204095 0.0049800165 -0.87696606 91 61 57
0.25461188 0.0056669451 -0.87617028 89 60 69
0.25253767 0.0046272632 -0.87689745 88 58 57
0.25433829 0.0050994307 -0.87634164 86 57 65
0.25233015 0.049719565 -0.88584501 54 34 43
0.25230497 0.048930429 -0.8854512 52 33 43
0.2477892 0.046299122 -0.88324893 64 35 37
0.24717809 0.046876479 -0.88329297 71 40 42
0.25053936 0.044966735 -0.88347608 54 28 34
0.24925914 0.047552764 -0.88445413 59 31 40
0.24820133 0.04648155 -0.88351339 61 32 36
0.24909316 0.047382891 -0.88430554 59 31 40
0.24842514 0.046951018 -0.88384366 60 32 38
0.24852315 0.046534088 -0.88365185 60 32 36
0.25134844 0.048301481 -0.88516998 51 29 40
0.25072852 0.047832195 -0.8848626 53 29 40
0.25014535 0.047121882 -0.88446718 55 29 39
0.2551907 0.045590155 -0.88425672 68 55 47
0.2546944 0.045643721 -0.8842352 65 51 46
0.25543854 0.04510111 -0.88419324 67 56 46
0.25440758 0.045791216 -0.88424146 64 49 45
0.25567362 0.045600373 -0.88428766 70 60 49
0.25284874 0.045821939 -0.88415277 57 35 40
0.25196552 0.047626518 -0.88501984 49 28 38
0.25250727 0.047752678 -0.88497543 53 34 42
0.25223148 0.045338508 -0.88406909 51 28 36
0.25275925 0.048687428 -0.88530105 56 38 45
0.25622812 0.04545467 -0.88413489 72 62 50
0.25619057 0.04560316 -0.8841731 73 63 51
0.25168562 0.044529967 -0.88373512 51 26 34
0.25152832 0.04396604 -0.88350266 54 29 34
0.25262719 0.042225685 -0.88320488 59 35 37
0.25366458 0.04231327 -0.88338041 59 36 39
0.25316727 0.042805858 -0.8834638 57 34 37
0.25297254 0.043719817 -0.88372201 54 30 36
0.25289923 0.042783938 -0.88341874 57 33 37
0.25535417 0.043636922 -0.88386232 65 50 44
0.25411323 0.044145159 -0.88390452 59 41 40
0.25515512 0.04349038 -0.88381636 64 48 43
0.2542614 0.043694589 -0.88380933 59 40 40
0.25291047 0.044033993 -0.88380581 53 30 36
0.25573203 0.042322453 -0.88358134 66 48 44
0.25607988 0.041706137 -0.88341266 68 47 46
0.2565695 0.043889191 -0.8837136 72 58 49
0.25597727 0.044697344 -0.8841002 69 59 47
0.25660604 0.043284263 -0.88357913 72 55 49
0.2449531 -0.0018734805 -0.88361055 128 89 79
0.259648 0.01048166 -0.87535006 136 115 89
0.26000679 0.010701892 -0.87534142 133 110 85
0.26308927 0.010300973 -0.8750338 101 66 60
0.26264897 0.012110633 -0.87534136 108 78 65
0.26021436 0.010949843 -0.87535936 131 107 83
0.26343685 0.011220261 -0.87514478 99 65 58
0.26473236 0.011659352 -0.8751421 91 60 59
0.26620373 0.010609511 -0.87491423 83 52 61
0.26463407 0.011519298 -0.87512565 92 60 59
0.26401249 0.011267722 -0.87511718 95 61 57
0.26477545 0.012679297 -0.87533206 99 70 60
0.2671082 0.011822598 -0.87515938 96 72 64
0.26669297 0.011647862 -0.87512016 93 67 63
0.26703781 0.012394222 -0.87528116 102 80 65
0.26543587 0.011762854 -0.87513918 90 61 60
0.26772064 0.011867151 -0.87518674 98 76 65
0.26808098 0.012341345 -0.87532789 103 83 64
0.25893047 0.0083734002 -0.87530476 120 100 85
0.25966537 0.0071799797 -0.87504959 106 88 74
0.25902608 0.0058812019 -0.87508559 89 70 66
0.25928372 0.0088681243 -0.87527287 126 106 87
0.26144698 0.0071687158 -0.87486333 90 65 59
0.2622419 0.0071119862 -0.87474507 86 59 56
0.26142508 0.0059420555 -0.87469965 83 62 56
0.26340446 0.0060318038 -0.87443668 76 49 48
0.26058879 0.0061185942 -0.8748399 88 68 61
0.2610808 0.0090291975 -0.87506688 114 89 75
0.26174 0.0088345343 -0.87499493 104 76 67
0.26064008 0.0084537379 -0.87505722 112 89 74
0.26041061 0.0081162006 -0.87504911 110 89 74
0.26299578 0.0092034154 -0.8749184 95 61 58
0.26514798 0.0071499441 -0.8744821 73 45 52
0.26619419 0.0067646923 -0.87438458 65 38 49
0.26513815 0.0064333398 -0.87438738 69 42 48
0.26739585 0.0091218026 -0.87464446 72 42 60
0.26515141 0.0060911695 -0.87434131 67 40 46
0.26438919 0.0082318895 -0.87466455 83 50 53
0.26385322 0.0080303568 -0.87466252 84 52 52
0.26388025 0.0073669376 -0.87457108 81 50 50
0.26598933 0.0083521614 -0.87460512 75 46 57
0.2650561 0.0078919688 -0.87458676 77 47 54
0.26841187 0.0065719998 -0.87438709 55 31 44
0.26854315 0.006390654 -0.87437004 53 30 43
0.26767752 0.0063859834 -0.87428403 54 29 45
0.26800844 0.006522994 -0.87433881 55 30 45
0.26855046 0.0072233602 -0.87449181 58 35 47
0.2687124 0.0071166852 -0.87449557 57 35 46
0.25793284 0.0057343086 -0.87532908 88 66 69
0.25827974 0.0054594623 -0.87525618 87 65 65
0.25905815 0.0051691048 -0.87508744 85 65 61
0.25927198 0.0039494769 -0.87502813 79 56 52
0.25918314 0.0033873529 -0.87504339 75 52 49
0.25950649 0.0037741088 -0.8749547 77 55 51
0.26359037 0.0053485301 -0.87433749 72 45 45
0.2603617 0.0040690219 -0.87480044 77 54 51
0.26171196 0.0054048374 -0.87463945 79 56 52
0.26067212 0.0041656396 -0.8747592 76 53 50
0.26224333 0.0047769407 -0.87455297 73 47 47
0.26193258 0.0051117288 -0.87460285 76 52 50
0.26572144 0.0042579956 -0.87410533 56 29 37
0.26592293 0.0048243157 -0.87416005 57 31 40
0.26559293 0.005437993 -0.87424362 61 35 43
0.26379532 0.0052066436 -0.8742972 70 43 44
0.26534408 0.004281275 -0.87412465 58 31 38
0.2418102 0.045467373 -0.88072938 114 79 67
0.24748139 0.045965083 -0.88293445 68 38 39
0.24648054 0.045722723 -0.88238704 77 44 44
0.24485864 0.046031918 -0.88188082 91 54 52
0.24583371 0.046581969 -0.88256049 85 50 50
0.24310891 0.042846628 -0.87981397 95 60 54
0.24338068 0.041623112 -0.87931287 89 54 52
0.24309269 0.043995682 -0.88034177 100 63 55
0.2426573 0.043122232 -0.87983352 100 65 57
0.24308424 0.043830726 -0.88026339 99 63 55
0.24177644 0.043905579 -0.87998515 111 76 63
0.24623929 0.041291732 -0.88039547 72 40 40
0.24585412 0.042048804 -0.88055223 76 43 42
0.24542175 0.042357557 -0.88047791 79 45 43
0.24717689 0.04171006 -0.88106006 69 39 37
0.24753208 0.04150169 -0.88114202 66 37 36
0.24771968 0.041234218 -0.88111252 65 36 35
0.24589375 0.044198688 -0.8814711 80 46 42
0.24714936 0.044432979 -0.88207179 70 39 37
0.24734093 0.04409894 -0.88202667 68 38 36
0.24609363 0.044252031 -0.88157266 78 45 42
0.24581958 0.043492474 -0.88117975 80 46 43
0.24648774 0.044744261 -0.88191593 75 42 40
0.25011575 0.044444315 -0.88315076 57 30 34
0.25077161 0.042677112 -0.88284665 61 35 35
0.2499173 0.044257041 -0.88303155 58 32 34
0.25014889 0.041709844 -0.8822763 63 36 35
0.24880134 0.041452665 -0.88164026 63 35 34
0.24840571 0.041212764 -0.88139272 62 35 34
0.24887784 0.042210516 -0.88195115 63 35 34
0.25150362 0.04117709 -0.8826232 62 37 35
0.2496198 0.042991906 -0.88253784 63 35 34
0.25422126 0.041352689 -0.88315862 63 40 40
0.2537643 0.041351646 -0.88309544 63 40 39
0.25659305 0.041354664 -0.88319921 71 47 49
0.25733817 0.042476829 -0.8831318 75 55 53
0.24714689 0.038610354 -0.87967581 69 40 39
0.2463748 0.039350875 -0.87960982 72 41 41
0.24658585 0.040341761 -0.8801474 70 39 39
0.24639802 0.040480424 -0.8801133 71 40 39
0.24568112 0.040657021 -0.87982953 74 41 41
0.24597344 0.040413599 -0.87987053 73 41 41
0.24703656 0.037841648 -0.87931621 70 41 40
0.25074625 0.038313054 -0.88115358 66 41 38
0.25075766 0.038769189 -0.88133574 66 40 38
0.25125375 0.03772511 -0.88115329 68 43 40
0.24869272 0.037408166 -0.87988091 66 40 38
0.25105599 0.037614118 -0.88102144 68 42 40
0.25062767 0.038936436 -0.88134229 65 40 37
0.25131398 0.040532198 -0.88227683 63 38 36
0.248886 0.040278569 -0.88119179 63 36 35
0.24852009 0.038298581 -0.88018286 65 38 37
0.24931175 0.04007902 -0.88127577 63 37 35
0.24808723 0.038149975 -0.87994438 65 38 36
0.25047588 0.040526737 -0.88193804 63 37 35
0.25550097 0.038970772 -0.88256776 69 44 44
0.25483963 0.039293379 -0.88258153 68 43 42
0.25332975 0.040262245 -0.88268858 65 40 39
0.25446409 0.038740128 -0.88235003 69 42 42
0.25384808 0.039420035 -0.88248622 67 41 40
0.25243351 0.039111506 -0.88210148 66 41 39
0.25502926 0.0378673 -0.88213974 71 43 43
0.25278699 0.038025472 -0.88175106 68 43 41
0.25195649 0.039017417 -0.88196921 66 41 39
0.25521672 0.037312929 -0.88196218 72 44 45
0.25220078 0.039743725 -0.88230008 65 40 38
0.25663409 0.040708393 -0.88305151 72 45 51
0.25779504 0.040366091 -0.88274068 80 46 61
0.25651586 0.03944727 -0.88266098 73 45 51
0.25657126 0.040556334 -0.88301271 71 45 51
0.2580516 0.038190372 -0.88210124 83 54 56
0.25685796 0.037765488 -0.88208932 77 48 51
0.25852329 0.037880849 -0.88199914 85 59 54
0.2580153 0.038546816 -0.88218355 83 51 58
0.26353145 0.037795357 -0.88080931 97 67 64
0.26374325 0.037261654 -0.88072956 95 62 59
0.24801935 0.036844853 -0.87937093 67 40 38
0.25082865 0.033698812 -0.87946993 78 50 44
0.25033709 0.034384336 -0.87949938 76 48 43
0.25026318 0.034762122 -0.87959981 75 48 42
0.2498406 0.036727998 -0.88013834 69 43 40
0.25121304 0.035543017 -0.88031381 73 47 42
0.25133789 0.035856523 -0.88048637 73 47 42
0.25149503 0.034477923 -0.88004446 77 50 44
0.2499505 0.036710173 -0.88018107 69 43 40
0.25161245 0.033993658 -0.87991709 78 51 44
0.25335112 0.033691216 -0.88028979 79 52 47
0.25532237 0.036547787 -0.88169706 74 46 46
0.25421298 0.034214631 -0.88067669 78 51 47
0.25522429 0.03568453 -0.88139993 75 48 47
0.25550139 0.036724057 -0.88179868 73 45 46
0.25296181 0.033881012 -0.88024932 79 52 46
0.25388587 0.036156632 -0.88126194 74 47 44
0.25275642 0.03437053 -0.88037127 78 51 45
0.25231695 0.035143156 -0.88057029 75 49 44
0.25417733 0.036673199 -0.88151246 72 46 44
0.2521579 0.034940112 -0.88046288 76 49 44
0.25328612 0.034763966 -0.88062388 77 50 45
0.25971469 0.033320054 -0.88099635 93 69 64
0.25930646 0.035471849 -0.88139695 91 69 54
0.25959545 0.035177749 -0.8813538 92 70 56
0.25859597 0.034689743 -0.88120872 89 66 55
0.2566109 0.033310276 -0.8808403 82 57 54
0.25598878 0.036530547 -0.8818208 74 47 47
0.25607336 0.036844753 -0.8819139 74 47 46
0.25601041 0.035418577 -0.88146913 76 49 48
0.2559242 0.034249388 -0.88110697 78 52 50
0.25735819 0.036565769 -0.88173658 81 56 48
0.25654459 0.034196775 -0.88104719 81 56 51
0.26269564 0.034486748 -0.88057792 104 77 60
0.26342025 0.03538388 -0.88055813 103 74 59
0.26147088 0.034509674 -0.88082033 96 69 62
0.26130253 0.033601016 -0.88072985 100 75 62
0.26141173 0.035294354 -0.88096499 94 66 60
0.26152062 0.036158357 -0.8811062 93 67 57
0.26001778 0.035943128 -0.88144767 92 71 55
0.26154843 0.036807735 -0.88122612 93 67 55
0.2607502 0.036475152 -0.88136482 93 69 54
0.2615225 0.035122693 -0.88090318 94 66 61
0.26591036 0.034688715 -0.87990344 91 66 47
0.26547733 0.034814849 -0.8799842 97 74 51
0.26369649 0.036555957 -0.88066167 97 66 59
0.26571181 0.035279196 -0.87997043 95 73 51
0.2649366 0.036377765 -0.8803187 92 66 54
0.26502481 0.035912342 -0.88023293 95 69 53
0.25142178 0.032915764 -0.879453 80 52 45
0.25269631 0.0313497 -0.87933207 83 56 48
0.25336084 0.03103683 -0.87938809 83 57 49
0.25379857 0.031691004 -0.87971985 82 56 49
0.25349858 0.032158311 -0.87980682 81 55 48
0.25260195 0.033095408 -0.87990528 80 54 47
0.25511912 0.031397127 -0.87995666 82 56 51
0.25476521 0.032543357 -0.88026839 81 55 50
0.25545523 0.031728663 -0.8801598 81 56 51
0.25907204 0.029991146 -0.87993824 91 67 64
0.25872123 0.029429235 -0.87973386 90 66 63
0.25847322 0.031709954 -0.88039702 90 66 61
0.25835848 0.031649359 -0.88036734 90 66 60
0.25877988 0.031074638 -0.88023597 91 67 62
0.25968888 0.029534083 -0.87986183 92 68 66
0.25890654 0.032447889 -0.88066792 91 67 62
0.25728819 0.032831274 -0.88072228 85 60 56
0.25828162 0.032069981 -0.88050407 90 65 60
0.25637397 0.03227919 -0.88048285 83 57 53
0.25615433 0.031857688 -0.88032377 82 57 53
0.25596926 0.030697361 -0.87990671 83 58 53
0.26028103 0.030430766 -0.88003933 96 72 65
0.26008379 0.031424347 -0.88037747 95 71 65
0.26109546 0.03291063 -0.88062817 101 77 63
0.26131573 0.031067174 -0.8800292 102 78 64
0.26128918 0.031723566 -0.88023227 102 78 63
0.25765592 0.028489351 -0.87929899 89 65 60
0.25720555 0.028797494 -0.87937039 87 63 58
0.23536028 0.014875283 -0.88111377 138 101 109
0.23524725 0.014683189 -0.88124287 141 106 114
0.23554963 0.014513279 -0.881221 135 94 104
0.23504032 0.015532262 -0.88091105 141 114 119
0.2350968 0.014291789 -0.88147885 147 112 120
0.23883283 0.014718035 -0.87951416 113 78 74
0.2368149 0.01525954 -0.88034308 113 65 75
0.23809737 0.014480265 -0.88002217 115 73 75
0.23669054 0.01401031 -0.881001 120 65 77
0.23803851 0.014303716 -0.88013738 116 73 75
0.23646004 0.015733525 -0.88030964 111 63 74
0.23719163 0.015316106 -0.88011378 112 68 74
0.23871405 0.015278493 -0.8793245 110 77 73
0.23523909 0.012888546 -0.88213462 163 134 137
0.23576948 0.013323401 -0.88172746 142 97 107
0.2357623 0.01215722 -0.88234109 166 140 139
0.23452118 0.013272645 -0.88217592 172 149 152
0.23580477 0.011555511 -0.88264215 177 160 154
0.23717222 0.013126559 -0.88114077 120 64 77
0.23931272 0.012016675 -0.88047457 113 71 72
0.23986948 0.012625592 -0.87990588 114 78 73
0.24009721 0.010626243 -0.88066381 108 67 68
0.2392644 0.012151635 -0.88044119 114 71 72
0.23694716 0.013199724 -0.88122994 120 63 77
0.23993675 0.010823604 -0.88066345 109 67 69
0.23761599 0.011114542 -0.88189375 142 109 109
0.23636754 0.011816079 -0.88230413 159 128 127
0.23764716 0.011494962 -0.88167489 134 94 98
0.23944788 0.010083775 -0.88129234 118 80 82
0.239255 0.010260019 -0.88132018 120 80 83
0.23650211 0.011975417 -0.8821367 152 118 119
0.23882122 0.010151113 -0.88164759 132 100 99
0.23854801 0.009897423 -0.8819539 144 119 113
0.24048927 0.011720076 -0.87994689 113 77 71
0.24140275 0.011310977 -0.87955034 117 82 72
0.24122936 0.010850273 -0.87986284 114 78 71
0.24117757 0.011898921 -0.87943345 117 84 73
0.23981091 0.0093847048 -0.88144654 120 80 81
0.24001303 0.0085464716 -0.88178056 123 80 79
0.24005167 0.0091417013 -0.88142818 116 74 75
0.24209839 0.0089513157 -0.88011432 114 75 70
0.24321145 0.0088096829 -0.87946761 119 85 73
0.24279755 0.0080669802 -0.88000733 115 79 72
0.24365796 0.0070397616 -0.87984675 116 83 74
0.24381447 0.0065337652 -0.87993079 115 83 75
0.24108842 0.0079816878 -0.88125253 117 74 73
0.24032135 0.0084461356 -0.8816117 119 72 73
0.2415137 0.0080716694 -0.88086581 113 73 71
0.24372487 0.0062070023 -0.88011408 114 83 75
0.2405296 0.0093891378 -0.88093734 107 65 68
0.24459974 0.0068479329 -0.87939548 119 87 76
0.24394368 0.0034948753 -0.88123244 108 67 61
0.2433947 0.0044573508 -0.88121921 116 75 69
0.24319406 0.0039908723 -0.88159668 116 72 66
0.24407487 0.004383516 -0.88071299 110 73 67
0.2430245 0.0057436852 -0.88091254 123 86 78
0.24404824 0.004385822 -0.88073307 110 73 67
0.24589597 0.0038935132 -0.87976366 100 70 63
0.24431045 0.0040536835 -0.88070583 108 71 64
0.24434476 0.005572435 -0.87997425 113 82 74
0.2470836 0.0027455781 -0.87953824 91 62 56
0.24646819 0.0034668506 -0.87959594 96 67 60
0.2445478 0.0026009828 -0.88123232 102 60 55
0.24720274 0.002523571 -0.87956554 89 60 54
0.24617571 0.0045182174 -0.87939835 105 76 68
0.24671441 0.0038048238 -0.87935984 99 71 63
0.24794292 0.0018364227 -0.87939966 82 55 49
0.24771985 0.0018528129 -0.87953681 84 55 49
0.2461253 0.00064452598 -0.88099045 83 43 40
0.24688007 0.0011311166 -0.88033283 83 48 44
0.24684583 -9.3527255e-05 -0.88079172 75 37 34
0.24541312 0.00093002827 -0.88134527 89 46 43
0.24675065 0.0018828498 -0.88014758 88 55 50
0.24588779 2.5293411e-05 -0.88142329 84 42 39
0.24636579 -0.00091312104 -0.88160312 84 43 39
0.24471994 0.00079924025 -0.88202566 102 56 52
0.24472861 -1.6497565e-05 -0.88257688 111 66 61
0.24652551 -0.001399436 -0.88176876 86 45 41
0.24499215 -0.00068765786 -0.88276732 113 69 63
0.24615423 -0.0013432539 -0.88208127 93 53 48
0.24640164 -0.0024231491 -0.8824802 98 56 51
0.24584442 -0.0020219649 -0.88278008 107 66 60
0.24601975 -0.0020947661 -0.88265634 104 63 57
0 0 0 1 0 0 0 1 0 0 0 1 0 0 0 0 0 914 1 0 0
