ply
format ascii 1.0
comment PCL generated
element vertex 995
property float x
property float y
property float z
property uchar red
property uchar green
property uchar blue
element camera 0
property float view_px
property float view_py
property float view_pz
property float x_axisx
property float x_axisy
property float x_axisz
property float y_axisx
property float y_axisy
property float y_axisz
property float z_axisx
property float z_axisy
property float z_axisz
property float focal
property float scalex
property float scaley
property float centerx
property float centery
property int viewportx
property int viewporty
property float k1
property float k2
end_header
-0.25651771 -0.54259676 -0.79938376 210 207 214
-0.25801766 -0.5446825 -0.80069834 211 205 214
-0.25652832 -0.54206347 -0.7993688 208 205 213
-0.25744122 -0.54427671 -0.80021065 212 208 215
-0.25451776 -0.54422504 -0.79775369 206 163 208
-0.25414586 -0.54447901 -0.79744178 203 148 205
-0.25448519 -0.54427469 -0.79772758 206 161 208
-0.25547943 -0.54346263 -0.79855555 213 200 216
-0.25429076 -0.54189795 -0.79736066 199 167 200
-0.25445417 -0.54257822 -0.79757386 201 166 203
-0.25487781 -0.54289949 -0.79800403 205 173 208
-0.25761354 -0.54705572 -0.80091864 201 187 203
-0.25717878 -0.54567206 -0.80021489 212 205 214
-0.25788242 -0.54518181 -0.80066437 211 205 214
-0.2565507 -0.54622507 -0.79984277 212 203 213
-0.25811645 -0.54549706 -0.80093473 208 200 211
-0.2558994 -0.54830539 -0.79914272 208 194 209
-0.25634804 -0.54833943 -0.79975462 203 188 205
-0.25726682 -0.54857296 -0.80101442 194 174 196
-0.25625083 -0.54742467 -0.7995851 208 196 210
-0.25564781 -0.5484516 -0.79892498 208 195 210
-0.25577849 -0.54797828 -0.7990101 210 198 211
-0.25569189 -0.54565513 -0.79884636 221 217 221
-0.25511542 -0.54641402 -0.79841673 220 216 221
-0.254747 -0.54589504 -0.79806364 216 197 217
-0.25380573 -0.54615414 -0.79726696 207 163 209
-0.2553305 -0.54512864 -0.79850775 219 204 219
-0.25433096 -0.54519433 -0.79764462 208 164 210
-0.25687993 -0.55131876 -0.80076736 199 187 201
-0.25693029 -0.55066437 -0.80076522 198 184 200
-0.25688317 -0.54924339 -0.8005476 197 179 198
-0.25703645 -0.54971582 -0.80080718 196 179 198
-0.25648695 -0.55223328 -0.80026644 199 189 200
-0.25635892 -0.55213612 -0.80006665 199 188 200
-0.2563934 -0.55253416 -0.800143 198 188 199
-0.25449091 -0.5521881 -0.79806483 194 181 196
-0.25584298 -0.54996431 -0.79916334 203 189 204
-0.25461462 -0.5515359 -0.79813814 196 183 198
-0.25443107 -0.55140769 -0.7979629 196 182 198
-0.25421137 -0.54921627 -0.79779059 210 202 213
-0.2548013 -0.55014294 -0.79825675 202 189 204
-0.25388515 -0.55157661 -0.79751694 197 185 199
-0.25399083 -0.54895139 -0.79761589 213 206 216
-0.25608143 -0.55350804 -0.79973441 193 183 195
-0.25658554 -0.55431873 -0.80055171 192 181 195
-0.25701454 -0.55355179 -0.80115014 196 186 198
-0.25634152 -0.55655694 -0.80034453 183 169 189
-0.25596052 -0.55464464 -0.79963708 189 177 192
-0.25441328 -0.55558246 -0.79835814 179 164 181
-0.2546792 -0.55525577 -0.7985543 181 167 184
-0.25384474 -0.55634391 -0.79794335 173 157 176
-0.25543314 -0.55356354 -0.79905432 191 179 192
-0.25393739 -0.55641186 -0.79802501 174 157 177
-0.25444427 -0.55592668 -0.79840899 178 162 181
-0.25550246 -0.55310988 -0.79907161 193 182 194
-0.25375026 -0.55311179 -0.79747337 189 176 191
-0.25414672 -0.55322933 -0.79785091 189 176 191
-0.25427872 -0.55473179 -0.79817444 181 167 183
-0.25680071 -0.55761671 -0.80112535 182 171 186
-0.25659561 -0.55684042 -0.80074763 183 170 188
-0.2558828 -0.55884033 -0.79991609 176 164 178
-0.25642312 -0.56031299 -0.80083251 174 168 174
-0.25389561 -0.55991262 -0.79821885 169 153 169
-0.25325289 -0.56023419 -0.79767066 167 149 167
-0.25529596 -0.55935425 -0.79942942 173 161 175
-0.25533637 -0.55878079 -0.79940069 175 162 177
-0.25450557 -0.56048518 -0.79883927 169 156 168
-0.25546116 -0.55929404 -0.79957289 174 162 175
-0.25383422 -0.55833048 -0.79803908 171 154 173
-0.25293311 -0.56025356 -0.79738748 166 148 166
-0.2529259 -0.56033117 -0.79738533 166 148 166
-0.25313461 -0.55947709 -0.79751623 168 149 168
-0.25303563 -0.55706877 -0.79731643 168 150 170
-0.25605962 -0.56100488 -0.80060405 170 162 170
-0.25573939 -0.56253374 -0.80104196 164 153 167
-0.2534641 -0.56103498 -0.79815829 166 149 166
-0.2531451 -0.5610829 -0.79789346 166 148 165
-0.25531238 -0.56121087 -0.79993385 170 159 170
-0.25362489 -0.56124681 -0.79841733 166 150 166
-0.25465071 -0.56192511 -0.79971182 167 154 169
-0.25399461 -0.56231761 -0.79932356 166 150 167
-0.25455707 -0.56405747 -0.80075121 165 151 169
-0.25287604 -0.56420702 -0.79822165 164 150 171
-0.25405931 -0.56352443 -0.79987717 165 150 169
-0.25256523 -0.5628134 -0.79744625 164 149 169
-0.25264087 -0.56146961 -0.79727054 165 147 166
-0.25341552 -0.56199408 -0.79856467 165 148 166
-0.25253844 -0.56779057 -0.79956096 158 144 174
-0.25197557 -0.56613117 -0.79744899 152 138 167
-0.25224376 -0.56789458 -0.79889482 152 137 169
-0.25235048 -0.56632215 -0.79844224 160 145 173
-0.25262845 -0.56635493 -0.79912925 166 152 177
-0.25241947 -0.56533867 -0.7981593 165 151 175
-0.25351828 -0.56635195 -0.80049771 166 152 176
-0.25376639 -0.56447369 -0.79964542 164 151 171
-0.25335062 -0.56548887 -0.79967678 165 152 174
-0.25266567 -0.56634897 -0.79919636 166 152 177
-0.25250533 -0.56459981 -0.79780614 164 151 173
-0.25398108 -0.56493342 -0.80027372 165 152 172
-0.25179538 -0.56702262 -0.79760188 146 132 164
-0.25168386 -0.56706822 -0.79748428 145 130 163
-0.25256521 -0.57028979 -0.80062646 128 112 156
-0.25259972 -0.57006198 -0.80062228 132 116 159
-0.25284392 -0.56927121 -0.80090857 149 134 170
-0.25210714 -0.56852692 -0.79883879 144 129 165
-0.25220713 -0.57092243 -0.80011612 113 96 146
-0.25191408 -0.57167494 -0.80020207 104 86 141
-0.25021067 -0.5707761 -0.7980749 108 91 146
-0.25090754 -0.57081169 -0.79876101 110 93 146
-0.25013548 -0.57056308 -0.79788488 110 93 147
-0.25003186 -0.57069051 -0.79785645 108 91 146
-0.25007486 -0.57050002 -0.79779202 111 94 148
-0.25024959 -0.57042378 -0.79791683 112 96 148
-0.24956623 -0.57093823 -0.79751801 103 85 144
-0.2510525 -0.56877345 -0.79761851 131 115 156
-0.24837534 -0.57305813 -0.79745185 96 78 137
-0.2487559 -0.57284659 -0.79773402 94 76 136
-0.25126171 -0.57253629 -0.80005336 98 79 137
-0.24937099 -0.57377636 -0.79914403 97 82 137
-0.24950483 -0.57348567 -0.79900759 97 81 137
-0.24812619 -0.57346362 -0.79742837 99 82 137
-0.24836946 -0.57463884 -0.79886568 96 84 137
-0.24976285 -0.573322 -0.79913723 98 81 137
-0.24934275 -0.57333827 -0.79867876 98 81 137
-0.24960917 -0.5748356 -0.8004185 96 84 137
-0.24916248 -0.5751552 -0.80025387 94 85 137
-0.25011697 -0.57474655 -0.80113065 90 79 135
-0.24870123 -0.57583833 -0.80060929 88 82 135
-0.247848 -0.5739826 -0.79752606 104 87 139
-0.24720398 -0.57587993 -0.79834735 117 106 144
-0.24795464 -0.57607478 -0.79977047 95 88 137
-0.24796295 -0.57759446 -0.80083132 114 116 145
-0.24711548 -0.57874006 -0.80002791 151 152 158
-0.24668942 -0.57676136 -0.79814553 139 128 152
-0.24718268 -0.57655591 -0.79883105 122 113 146
-0.24744624 -0.57768601 -0.79993927 128 126 149
-0.2470239 -0.57916772 -0.80014718 157 159 160
-0.24621545 -0.57961208 -0.79924554 160 159 156
-0.24637343 -0.57642478 -0.79743588 142 128 152
-0.24691324 -0.57883137 -0.79976934 155 155 158
-0.24623211 -0.57811385 -0.79831034 152 144 154
-0.24567279 -0.57908058 -0.79810882 158 150 152
-0.2462368 -0.57769686 -0.79805017 149 140 153
-0.24433187 -0.58193648 -0.79832727 161 142 145
-0.24416655 -0.58244109 -0.79845273 158 136 142
-0.24472365 -0.58281064 -0.79968774 158 139 147
-0.24493176 -0.58287698 -0.80006397 157 139 148
-0.24534968 -0.58049911 -0.79863524 163 156 152
-0.24559096 -0.58174372 -0.80005801 159 150 153
-0.24527071 -0.58305526 -0.80071443 156 140 150
-0.24525146 -0.58246195 -0.80017668 157 144 150
-0.24509835 -0.58298534 -0.80040151 156 140 149
-0.24491805 -0.58123153 -0.79863083 161 149 149
-0.24606125 -0.581747 -0.80075091 158 153 155
-0.24375185 -0.58184755 -0.797378 164 142 146
-0.2434907 -0.58293235 -0.79787832 161 134 146
-0.2437132 -0.58248961 -0.79783916 161 137 145
-0.2432479 -0.58269566 -0.79734218 164 138 148
-0.24415928 -0.58467269 -0.80036384 149 123 139
-0.24331313 -0.58684081 -0.80111915 146 122 135
-0.24358892 -0.58586043 -0.80060124 148 122 136
-0.24289611 -0.58620477 -0.79989815 151 123 139
-0.2425957 -0.58582908 -0.79912847 155 126 142
-0.2434583 -0.58458298 -0.79922289 153 124 142
-0.24313255 -0.5849306 -0.79907525 154 125 143
-0.24145755 -0.58753949 -0.7973423 153 125 140
-0.24229331 -0.58619624 -0.79859501 155 126 142
-0.24249598 -0.58598006 -0.79898888 155 126 142
-0.24194814 -0.58599293 -0.79745442 158 127 145
-0.24256845 -0.58648866 -0.79961133 152 124 140
-0.24230067 -0.5877105 -0.79986078 148 122 135
-0.24096726 -0.59125918 -0.79999697 151 129 136
-0.24035516 -0.59069163 -0.79869646 143 115 128
-0.24094673 -0.59041399 -0.79919964 151 127 135
-0.24066116 -0.58911282 -0.79762745 146 118 131
-0.24087363 -0.5899151 -0.79864025 149 124 134
-0.24150217 -0.58996964 -0.79957318 155 133 140
-0.24153173 -0.58854985 -0.7984162 153 127 138
-0.24188554 -0.58971554 -0.80043238 153 131 138
-0.24161276 -0.58882105 -0.79888165 153 128 138
-0.24221992 -0.58880293 -0.80057812 150 126 136
-0.23868637 -0.59175658 -0.7977249 139 109 123
-0.23963678 -0.59091294 -0.79805541 141 111 125
-0.23990199 -0.59003776 -0.79757494 141 111 125
-0.24025908 -0.59267503 -0.8004269 141 116 128
-0.23731489 -0.59401387 -0.79777867 144 122 131
-0.23859374 -0.59232944 -0.79803574 141 113 125
-0.23913786 -0.59204334 -0.79845291 141 112 126
-0.23634385 -0.59547114 -0.79785538 146 128 135
-0.23866752 -0.59303725 -0.79862738 143 118 130
-0.23777342 -0.59375858 -0.79812551 144 121 131
-0.23863481 -0.59406567 -0.79958534 143 122 131
-0.23797561 -0.5946905 -0.79930264 144 124 132
-0.24009641 -0.59217733 -0.79971629 142 115 128
-0.23966916 -0.59369111 -0.80062598 141 119 129
-0.23648776 -0.59566331 -0.79825056 146 129 135
-0.23919207 -0.5944705 -0.80087739 141 120 128
-0.23884238 -0.59437376 -0.80020845 142 122 130
-0.23855576 -0.59459329 -0.80005217 143 122 130
-0.23697414 -0.59608269 -0.79960191 142 123 129
-0.23680304 -0.59694666 -0.80057776 136 116 122
-0.23801067 -0.59580177 -0.80080503 142 122 128
-0.23628964 -0.59678471 -0.7995373 138 119 126
-0.23614101 -0.59790605 -0.80087084 130 109 115
-0.23611438 -0.59644485 -0.79872215 141 123 129
-0.23556286 -0.59668636 -0.79831791 141 122 127
-0.23558815 -0.59740198 -0.799218 135 115 120
-0.23486082 -0.59754479 -0.79778898 149 125 133
-0.23462397 -0.59819275 -0.79810995 148 122 131
-0.23435822 -0.59872121 -0.79817808 149 121 131
-0.23387547 -0.59925628 -0.79767698 157 125 137
-0.23463996 -0.59900594 -0.79934847 137 111 118
-0.23431779 -0.59946036 -0.79915726 141 113 121
-0.23285702 -0.60151392 -0.79986304 128 99 114
-0.23286556 -0.60151666 -0.79989016 128 99 114
-0.23314984 -0.60128546 -0.80011201 127 99 112
-0.23305494 -0.6018163 -0.80099273 120 95 109
-0.23384535 -0.60093188 -0.80110103 120 95 105
-0.23337196 -0.60077578 -0.79959279 131 101 113
-0.23355833 -0.59974098 -0.79767764 156 122 135
-0.23268884 -0.60057157 -0.79742271 149 112 127
-0.23161484 -0.6023342 -0.79789633 143 114 129
-0.2318287 -0.6018939 -0.79762274 146 114 130
-0.23200192 -0.60151601 -0.79733104 149 115 131
-0.23160762 -0.60236162 -0.79794681 142 114 129
-0.23173332 -0.60327202 -0.80111331 100 79 95
-0.23218203 -0.60230833 -0.79997498 121 93 110
-0.27259624 -0.53173304 -0.81369454 189 168 192
-0.2725271 -0.53264505 -0.81397766 188 166 193
-0.27243263 -0.53228313 -0.81363398 187 166 192
-0.27241772 -0.53171045 -0.81334549 188 166 191
-0.27200922 -0.53252709 -0.81294113 184 161 191
-0.27177423 -0.53625655 -0.81423885 191 174 197
-0.27180284 -0.53643084 -0.81434894 191 176 198
-0.27156535 -0.53474593 -0.81333882 184 163 193
-0.27187431 -0.53431618 -0.81355423 186 163 194
-0.27249086 -0.53376931 -0.81429857 190 168 196
-0.27135232 -0.53548944 -0.81341827 187 168 195
-0.27105266 -0.53676695 -0.81368542 193 181 200
-0.27065995 -0.53592759 -0.8130154 194 180 202
-0.27198586 -0.53991574 -0.81635648 211 200 216
-0.27215561 -0.53941512 -0.8163256 210 198 215
-0.27204493 -0.53940547 -0.81616843 209 197 214
-0.27209163 -0.53892809 -0.81598073 207 194 211
-0.27159956 -0.53958195 -0.81561852 208 196 213
-0.27019107 -0.54082304 -0.81422532 213 203 219
-0.27118605 -0.54056531 -0.81550688 215 204 220
-0.27001771 -0.5409165 -0.81402647 213 203 219
-0.27113125 -0.54100043 -0.81564867 218 207 223
-0.27113876 -0.53933913 -0.81482124 206 194 211
-0.27089703 -0.54048681 -0.81505728 213 203 219
-0.27071983 -0.53773373 -0.81364673 197 186 204
-0.27083653 -0.53726292 -0.81366801 196 185 203
-0.27003586 -0.53827775 -0.81316161 203 194 210
-0.27142125 -0.54265606 -0.81674659 208 195 216
-0.27060598 -0.54250681 -0.81557792 208 197 216
-0.27068299 -0.54344457 -0.8161065 204 191 213
-0.26999831 -0.54221672 -0.8145861 208 197 215
-0.27005908 -0.54231447 -0.81471604 207 196 215
-0.27055258 -0.5418883 -0.8152256 211 200 218
-0.27092016 -0.54339528 -0.81642097 205 192 214
-0.26930892 -0.54219937 -0.81359977 207 197 214
-0.26806954 -0.54484224 -0.81301951 199 190 207
-0.26838189 -0.54452395 -0.81332105 200 190 208
-0.26988566 -0.54438508 -0.81539494 199 187 209
-0.27059069 -0.5446738 -0.81652528 197 184 208
-0.27013478 -0.54413134 -0.81563544 200 187 209
-0.26944411 -0.54294407 -0.81412429 204 193 212
-0.26794448 -0.54719549 -0.81360471 197 185 201
-0.26873249 -0.54809374 -0.81492168 201 190 204
-0.26768738 -0.54676968 -0.81313539 195 183 200
-0.26834968 -0.54657793 -0.81394368 199 189 205
-0.26844358 -0.54640114 -0.81400913 200 190 206
-0.2683436 -0.54701757 -0.81407803 199 188 204
-0.26990366 -0.54697824 -0.81620383 202 192 209
-0.2699337 -0.54620779 -0.81604284 200 189 208
-0.26973286 -0.54538333 -0.8155396 198 187 208
-0.26898375 -0.54593176 -0.81462055 200 191 208
-0.26853511 -0.54548973 -0.8138665 199 190 207
-0.26940697 -0.54766965 -0.8156811 204 196 209
-0.26944411 -0.54986477 -0.81663436 201 194 208
-0.26856154 -0.55071491 -0.81590801 196 187 204
-0.26956019 -0.54925722 -0.81646866 204 195 209
-0.26927292 -0.54966968 -0.81630379 201 193 207
-0.2679964 -0.5506025 -0.81509686 193 184 201
-0.26848042 -0.55043143 -0.8156507 196 187 203
-0.26775661 -0.55109411 -0.81490964 194 184 201
-0.2677393 -0.55059707 -0.81466132 194 184 200
-0.26716053 -0.55105591 -0.81390172 197 185 201
-0.26683727 -0.5508002 -0.81326175 199 185 200
-0.26674506 -0.5512051 -0.81328899 199 186 201
-0.26691607 -0.55070662 -0.81334931 199 185 200
-0.26689175 -0.54963851 -0.81305987 198 185 199
-0.26700377 -0.54923427 -0.81308967 198 185 198
-0.26775724 -0.55316401 -0.81594634 192 183 203
-0.26732522 -0.55497509 -0.81639618 192 183 198
-0.26736602 -0.55316156 -0.81524605 194 184 203
-0.26664937 -0.5541051 -0.81467646 197 185 200
-0.26676649 -0.55423629 -0.81495112 197 185 200
-0.26674262 -0.55435038 -0.8149848 197 185 200
-0.26621971 -0.55589807 -0.81414485 196 182 194
-0.26632261 -0.55656898 -0.8146612 194 181 193
-0.26614597 -0.5546124 -0.81356549 198 184 198
-0.26685888 -0.5562045 -0.81634754 194 184 195
-0.26620629 -0.55583036 -0.81408274 196 182 195
-0.26649672 -0.55477238 -0.81477219 197 185 198
-0.26532468 -0.56016624 -0.81563425 188 173 187
-0.26538631 -0.55973446 -0.81530708 189 174 187
-0.26556045 -0.55796373 -0.81383657 192 177 190
-0.26506066 -0.55984771 -0.81488681 189 176 187
-0.26566294 -0.55842566 -0.81446201 191 175 189
-0.26565909 -0.55718827 -0.8132292 194 178 191
-0.26625276 -0.55743295 -0.81522578 192 179 191
-0.26591185 -0.5594337 -0.81605852 189 173 187
-0.26630959 -0.55836934 -0.81633425 191 177 190
-0.26617959 -0.5590319 -0.81655306 189 175 188
-0.26633659 -0.55729461 -0.81536829 193 179 191
-0.26403752 -0.56143767 -0.81435871 186 173 183
-0.26474831 -0.56302243 -0.81639922 180 157 178
-0.26399308 -0.56172073 -0.81443959 185 171 183
-0.26433143 -0.56194824 -0.81512356 184 167 182
-0.26408604 -0.56140834 -0.81442297 186 173 184
-0.26484343 -0.56272638 -0.8163951 181 159 179
-0.26383498 -0.56347841 -0.81514919 178 157 174
-0.26401645 -0.56295937 -0.81515867 180 161 177
-0.26273727 -0.56337446 -0.81323081 184 172 180
-0.26313281 -0.56323624 -0.81382984 182 167 178
-0.26334623 -0.56256258 -0.81382287 183 170 180
-0.26356637 -0.56258452 -0.81421077 182 166 178
-0.26309413 -0.56146514 -0.81296307 188 179 185
-0.26396227 -0.56531447 -0.81673378 172 144 168
-0.26323131 -0.56658763 -0.81675392 172 144 168
-0.26287103 -0.56679773 -0.81634665 173 149 170
-0.26336804 -0.56447518 -0.81492376 175 154 171
-0.26334873 -0.56494254 -0.81534791 174 152 170
-0.26231879 -0.5665952 -0.81520623 177 158 175
-0.26240736 -0.56505942 -0.81385517 180 164 177
-0.26151371 -0.56764066 -0.81384498 173 158 180
-0.2619758 -0.56698328 -0.8146531 176 158 177
-0.26197374 -0.56604403 -0.81374496 178 163 179
-0.26203707 -0.56565362 -0.81356734 179 165 179
-0.26163188 -0.56772143 -0.81429064 173 157 179
-0.26006183 -0.57206768 -0.81465185 150 129 156
-0.26057264 -0.57013059 -0.81381965 158 142 167
-0.26070482 -0.57200593 -0.81626368 139 119 136
-0.26018509 -0.57041621 -0.81314647 160 143 172
-0.25990355 -0.57110298 -0.81319535 156 138 168
-0.26069519 -0.57167572 -0.81586826 142 123 141
-0.26098001 -0.57001096 -0.81477016 155 139 160
-0.26134974 -0.56976885 -0.81564361 159 139 160
-0.26127797 -0.56841725 -0.81386739 170 155 180
-0.2613169 -0.5695709 -0.81531394 160 142 163
-0.26098245 -0.56900203 -0.81361878 164 150 174
-0.26118329 -0.56888109 -0.81410533 166 150 174
-0.25975823 -0.57131082 -0.81305367 157 138 170
-0.26009175 -0.57226908 -0.8149488 149 127 153
-0.25936213 -0.57303143 -0.81468409 152 128 157
-0.25878477 -0.57431835 -0.81594157 150 124 148
-0.25844458 -0.57494026 -0.81639582 147 120 142
-0.25915241 -0.57260042 -0.81357813 147 127 160
-0.25921494 -0.57264894 -0.81376821 148 127 160
-0.25740799 -0.5759697 -0.81477994 109 89 123
-0.25746831 -0.57567155 -0.81407177 104 87 125
-0.25806689 -0.5748083 -0.81519908 134 111 137
-0.25869328 -0.57312602 -0.81334674 137 119 153
-0.25830418 -0.57376349 -0.81291097 120 105 145
-0.25781903 -0.57528317 -0.81518924 126 104 132
-0.25600615 -0.57867515 -0.81412494 118 103 136
-0.25642425 -0.5777024 -0.81368911 103 89 128
-0.25656441 -0.57751828 -0.81382817 101 88 125
-0.2564688 -0.57770288 -0.81385189 104 90 127
-0.25659493 -0.57814264 -0.81554651 124 105 126
-0.25645059 -0.57862043 -0.81593686 131 112 128
-0.25723666 -0.57624328 -0.81450266 102 84 121
-0.2565805 -0.57826936 -0.81582862 128 109 127
-0.25665644 -0.5777005 -0.81464458 110 94 124
-0.25337783 -0.57930613 -0.81664777 154 138 157
-0.25416231 -0.57859749 -0.81463927 130 116 153
-0.25428042 -0.57945544 -0.81632072 149 133 149
-0.25519186 -0.5797869 -0.81636202 148 131 141
-0.25478593 -0.57850736 -0.81401575 122 108 148
-0.25483617 -0.57906073 -0.81511861 135 119 146
-0.25372049 -0.57988834 -0.81377113 120 108 152
-0.25272569 -0.57950723 -0.81521696 137 123 159
-0.25211528 -0.57891876 -0.81658691 156 141 168
-0.25403956 -0.57974207 -0.81361318 118 107 151
-0.25553018 -0.57866383 -0.81294429 109 96 142
-0.25349182 -0.58103883 -0.81294203 116 103 137
-0.25212806 -0.58227295 -0.8131941 126 109 125
-0.25207821 -0.58035129 -0.81476825 128 113 150
-0.25300214 -0.58021915 -0.81403732 121 107 149
-0.24847105 -0.59113204 -0.81425405 101 60 76
-0.24832317 -0.59170866 -0.814623 101 59 76
-0.25022244 -0.58882165 -0.81355691 137 112 119
-0.25000623 -0.58959025 -0.81420827 125 97 104
-0.24985114 -0.59043169 -0.81500632 113 82 87
-0.24916981 -0.58926183 -0.81296164 123 91 105
-0.24970345 -0.58923733 -0.81349009 128 99 109
-0.2498098 -0.58894819 -0.81327111 132 105 115
-0.25035802 -0.58940357 -0.81484133 114 91 93
-0.25032249 -0.58980519 -0.81503826 116 91 93
-0.2503061 -0.58863807 -0.81577867 58 46 48
-0.25042641 -0.588983 -0.81429291 124 103 106
-0.2501803 -0.59037191 -0.8163262 80 56 56
-0.25030789 -0.58808202 -0.81602603 34 29 30
-0.24938101 -0.59198815 -0.81621891 94 60 65
-0.24893859 -0.59215993 -0.81591576 90 57 66
-0.27574733 -0.54487544 -0.82883394 212 208 221
-0.27601096 -0.54433692 -0.82887286 211 205 219
-0.27569002 -0.54506701 -0.82926774 206 202 214
-0.27480656 -0.55095297 -0.8320955 180 160 175
-0.27430609 -0.55226433 -0.83096105 183 160 182
-0.27413914 -0.55210423 -0.83042169 186 161 185
-0.27495533 -0.55044788 -0.83240163 180 160 173
-0.27460262 -0.55155438 -0.83165127 181 160 178
-0.27441084 -0.54993474 -0.83019149 188 168 185
-0.27374676 -0.55153173 -0.82868367 193 168 194
-0.2745254 -0.54977506 -0.83058232 187 167 183
-0.27425471 -0.55080515 -0.8303951 187 164 184
-0.27429003 -0.54898357 -0.82851714 194 176 195
-0.27429259 -0.5497601 -0.82940543 191 171 190
-0.27290633 -0.55489999 -0.83208793 185 167 181
-0.27425265 -0.55330539 -0.83241582 178 158 176
-0.2716431 -0.55648082 -0.83137673 194 178 189
-0.27224368 -0.55622214 -0.82948422 200 183 201
-0.27381817 -0.55403495 -0.83132738 185 166 184
-0.27305391 -0.55490166 -0.83131176 189 170 186
-0.27245185 -0.55595362 -0.82963485 199 181 200
-0.27288994 -0.55448741 -0.82871628 198 175 200
-0.2735866 -0.55306464 -0.82929552 190 165 192
-0.27367091 -0.55320579 -0.82969409 189 165 191
-0.27412549 -0.55286658 -0.83068979 184 160 184
-0.2744278 -0.55319345 -0.83193117 180 159 179
-0.27164578 -0.55749506 -0.82932979 201 185 200
-0.27153617 -0.55741131 -0.83001661 198 183 196
-0.24878217 -0.54853547 -0.79291201 190 149 188
-0.24906112 -0.54940689 -0.79317689 192 157 190
-0.24910395 -0.5548327 -0.79317194 198 190 201
-0.24921374 -0.55497932 -0.79328334 197 189 200
-0.24923715 -0.55544579 -0.79328126 196 188 200
-0.24888742 -0.55594409 -0.79288501 195 187 199
-0.24876048 -0.55533057 -0.7927773 198 190 201
-0.24908528 -0.55765659 -0.79313999 189 179 194
-0.24870172 -0.5580408 -0.79277414 186 176 191
-0.24905996 -0.5570485 -0.79306757 191 181 196
-0.24810165 -0.55868095 -0.79230821 184 175 189
-0.24768117 -0.5596655 -0.79209751 183 175 188
-0.24587257 -0.55954206 -0.7906149 186 177 191
-0.246326 -0.56012094 -0.79105926 184 176 189
-0.2464921 -0.56049883 -0.79124409 183 175 188
-0.24738373 -0.55751491 -0.7915712 188 177 193
-0.24803525 -0.55889881 -0.79228288 184 175 189
-0.2465622 -0.55842763 -0.79102623 187 177 192
-0.24451931 -0.5601719 -0.78961706 188 179 193
-0.24687198 -0.55753505 -0.79120052 191 181 195
-0.2445614 -0.55990428 -0.78964448 190 181 194
-0.24507825 -0.55952209 -0.78999317 189 179 193
-0.24440093 -0.56020308 -0.78953695 188 180 193
-0.24864827 -0.56209624 -0.79326928 176 166 183
-0.24820352 -0.56194031 -0.79287875 177 168 184
-0.24528743 -0.56100214 -0.79032826 183 175 188
-0.24582262 -0.56178379 -0.7908476 180 173 185
-0.24479981 -0.56150258 -0.78999054 182 175 187
-0.24613279 -0.56234241 -0.7911588 177 172 183
-0.24586071 -0.56116915 -0.79081172 182 174 187
-0.24590556 -0.56137061 -0.79086983 181 174 186
-0.24521539 -0.56425178 -0.7906661 172 167 180
-0.24673761 -0.5624333 -0.79168493 176 170 183
-0.24636762 -0.56378353 -0.79157913 173 166 182
-0.24801338 -0.56260663 -0.79280382 175 166 184
-0.24773791 -0.56272393 -0.79258639 175 166 184
-0.24773383 -0.56228685 -0.79251468 176 168 184
-0.24680141 -0.56315494 -0.79185224 174 167 183
-0.24412994 -0.56226003 -0.78953236 181 174 186
-0.24806918 -0.56539708 -0.79325962 157 147 176
-0.2479964 -0.56642854 -0.79333359 142 133 170
-0.24615149 -0.56654626 -0.79218793 145 133 172
-0.2461686 -0.56789631 -0.79238188 126 116 164
-0.24624261 -0.56761187 -0.79239082 130 119 166
-0.24536797 -0.56731015 -0.79178852 136 123 168
-0.24702467 -0.56788963 -0.79293054 125 116 163
-0.24725249 -0.56551439 -0.79275483 157 146 177
-0.24616304 -0.56565869 -0.7919299 156 146 176
-0.24509504 -0.56515712 -0.79084063 163 156 177
-0.24453261 -0.56642687 -0.79080296 148 138 172
-0.24424846 -0.564798 -0.78999054 168 164 178
-0.24424252 -0.56564373 -0.790281 158 151 175
-0.24632783 -0.56476241 -0.7917577 167 159 180
-0.2450548 -0.56676823 -0.7913692 143 132 171
-0.2430357 -0.56819081 -0.79024285 135 124 168
-0.24337032 -0.56731969 -0.79019308 143 134 170
-0.24300417 -0.56797385 -0.79014295 138 128 169
-0.24347897 -0.56798029 -0.79050666 134 122 167
-0.24285845 -0.56636804 -0.78947943 159 153 176
-0.24417058 -0.57046384 -0.79257071 113 108 155
-0.24700683 -0.56840265 -0.7930119 118 110 160
-0.24456397 -0.56942564 -0.79212838 117 109 159
-0.24572353 -0.56887639 -0.79250515 118 110 160
-0.24471323 -0.56867188 -0.79171973 121 109 162
-0.24672104 -0.56889266 -0.79315645 116 110 158
-0.24391824 -0.5716784 -0.79308432 104 104 149
-0.24376732 -0.56967443 -0.79168588 118 110 158
-0.24220379 -0.56871319 -0.78989106 138 129 168
-0.24303298 -0.57034844 -0.79155076 120 116 157
-0.24294172 -0.56874508 -0.79047287 131 121 165
-0.243368 -0.57176036 -0.79253346 109 108 149
-0.24254198 -0.57131153 -0.79115802 122 117 153
-0.24167615 -0.5700289 -0.78950787 139 129 161
-0.24235693 -0.56928152 -0.79035485 133 126 165
-0.24291375 -0.57076901 -0.79158604 119 115 155
-0.24218585 -0.57225394 -0.79085642 122 116 148
-0.24239515 -0.5716309 -0.79101592 122 117 151
-0.24249035 -0.5744679 -0.79200244 130 122 143
-0.24356788 -0.57361281 -0.79335499 123 119 148
-0.24124473 -0.57600415 -0.79059094 148 134 140
-0.24097052 -0.57609183 -0.79021066 147 133 138
-0.24220338 -0.57421869 -0.79150975 123 116 141
-0.24312229 -0.57559735 -0.79324853 155 144 152
-0.24286793 -0.5730865 -0.79216373 113 110 144
-0.24156085 -0.57255059 -0.78999734 130 122 148
-0.24093772 -0.57419717 -0.78957528 138 126 142
-0.24111155 -0.57532871 -0.79020387 136 124 137
-0.24107854 -0.57476121 -0.78997123 136 125 139
-0.2418644 -0.57275712 -0.79052681 126 119 147
-0.24150887 -0.57487172 -0.7906633 131 121 138
-0.24072433 -0.57975399 -0.79166573 146 120 135
-0.24032721 -0.57922095 -0.79088503 144 120 133
-0.24099037 -0.57825333 -0.7911973 148 127 135
-0.24047364 -0.57626182 -0.78953904 145 129 135
-0.24145187 -0.5770157 -0.79130912 152 135 140
-0.24096091 -0.57644182 -0.79033571 148 133 138
-0.24167691 -0.57820731 -0.79215801 153 131 139
-0.24184936 -0.57710648 -0.79193497 155 138 143
-0.2419589 -0.57729596 -0.79217881 155 138 143
-0.24255893 -0.57739359 -0.79310662 160 143 147
-0.2393886 -0.5790233 -0.78981727 141 119 134
-0.23984122 -0.57784206 -0.78963971 143 123 133
-0.23884802 -0.57984072 -0.78971261 139 115 135
-0.24049224 -0.58368474 -0.79323322 146 119 139
-0.24163555 -0.58048356 -0.79316676 152 124 137
-0.24126333 -0.58102036 -0.7929523 150 122 137
-0.240547 -0.58213651 -0.79257858 146 119 137
-0.24016161 -0.58320147 -0.79256099 145 117 136
-0.23891176 -0.58373928 -0.79129386 140 113 130
-0.23885743 -0.58324867 -0.79100472 140 113 129
-0.23918645 -0.58288646 -0.79123783 141 114 130
-0.23886932 -0.58308655 -0.79094523 140 113 129
-0.23939079 -0.58393443 -0.79196227 142 115 132
-0.23822556 -0.5818426 -0.78974259 137 112 129
-0.23856448 -0.58102077 -0.78983665 138 113 132
-0.23845097 -0.58150554 -0.78986764 138 112 130
-0.23864309 -0.58058411 -0.78978515 138 113 133
-0.23874176 -0.5845468 -0.79155684 141 115 129
-0.23750396 -0.58468032 -0.79014415 136 111 123
-0.23707649 -0.58470881 -0.78964508 135 110 120
-0.23765548 -0.58488399 -0.79045665 137 113 123
-0.23798363 -0.58590418 -0.79148746 141 118 125
-0.23895815 -0.58492643 -0.79205412 142 117 130
-0.23730691 -0.58564347 -0.79051256 137 114 122
-0.23676276 -0.58604884 -0.79010922 136 114 119
-0.23721442 -0.586326 -0.79082358 138 117 121
-0.23900679 -0.58530581 -0.79239041 142 117 130
-0.23779102 -0.58768463 -0.7929033 133 106 117
-0.23947182 -0.58547825 -0.79333591 139 109 128
-0.23687294 -0.58745754 -0.79116243 139 120 119
-0.23805781 -0.58753055 -0.79317802 132 104 118
-0.23901276 -0.5856694 -0.79278553 140 113 128
-0.23624194 -0.58709097 -0.79013932 137 118 117
-0.23776221 -0.58814973 -0.79331672 131 102 115
-0.23661678 -0.58910531 -0.79234248 134 111 115
-0.23704335 -0.58909059 -0.79302663 132 106 114
-0.23689403 -0.58955604 -0.7932207 132 106 114
-0.23594174 -0.59014755 -0.79233873 137 115 116
-0.23546791 -0.59072685 -0.79233038 138 115 117
-0.23548488 -0.58924347 -0.79102921 139 119 119
-0.23559114 -0.590294 -0.79207689 138 116 117
-0.23380691 -0.59023303 -0.7894699 140 122 121
-0.23444852 -0.58939958 -0.78971404 140 122 121
-0.23448433 -0.59113312 -0.79123455 138 117 119
-0.23310998 -0.59166855 -0.7896536 139 120 121
-0.23501989 -0.5910219 -0.791933 138 116 118
-0.23392469 -0.59135276 -0.79059213 139 118 120
-0.23518203 -0.59170914 -0.79275477 137 113 116
-0.23311275 -0.59568787 -0.7927292 162 142 145
-0.23264065 -0.5952639 -0.79171699 165 144 146
-0.23315081 -0.5945555 -0.79195583 153 133 136
-0.23318711 -0.59464139 -0.79207152 154 133 136
-0.23305628 -0.59276038 -0.79041731 144 125 126
-0.233181 -0.5924651 -0.79037684 142 123 125
-0.23412974 -0.59386384 -0.79284739 148 126 130
-0.23370236 -0.59275627 -0.79137039 143 122 125
-0.23369913 -0.59454405 -0.79272872 152 131 135
-0.23331644 -0.59368891 -0.79151028 148 128 131
-0.23436762 -0.59202486 -0.79179746 139 117 119
-0.23214012 -0.59528762 -0.79102033 166 145 147
-0.23224026 -0.59466743 -0.79070646 162 140 142
-0.23190114 -0.5944972 -0.79011559 159 137 140
-0.23281705 -0.59668106 -0.79310113 162 144 146
-0.23189028 -0.59774244 -0.79278308 165 147 150
-0.23114474 -0.59616315 -0.79037005 165 142 147
-0.23141305 -0.59626657 -0.79083335 166 144 148
-0.23160443 -0.59725863 -0.79199731 166 146 150
-0.23087919 -0.59774017 -0.79141885 163 142 147
-0.2610029 -0.52130681 -0.80184275 182 163 178
-0.26483142 -0.52192038 -0.80486304 161 146 155
-0.26453236 -0.52209383 -0.80470216 167 151 160
-0.26372427 -0.52205712 -0.80419046 174 157 164
-0.26214442 -0.52533036 -0.80222744 193 179 188
-0.26359618 -0.52178222 -0.80414271 173 156 163
-0.26111364 -0.52191049 -0.80190289 184 164 178
-0.26195291 -0.52239066 -0.80259949 182 164 174
-0.26329249 -0.52190644 -0.80387127 175 158 164
-0.26078498 -0.52298379 -0.80146885 190 171 183
-0.26069978 -0.52334869 -0.80134529 191 173 185
-0.26283383 -0.52238482 -0.80339587 179 162 169
-0.2619392 -0.5271064 -0.80205315 194 175 193
-0.2612657 -0.5271216 -0.80153239 198 177 194
-0.26192665 -0.52675283 -0.80204386 194 176 192
-0.26140609 -0.52801669 -0.80163985 197 174 196
-0.26124546 -0.52562368 -0.8015185 197 181 190
-0.26536599 -0.52947825 -0.80473143 197 172 197
-0.26481596 -0.53131199 -0.80452806 198 177 199
-0.26453987 -0.53166944 -0.80429673 197 177 198
-0.26495546 -0.53085166 -0.80458075 198 176 198
-0.26431906 -0.53179681 -0.80405742 196 176 197
-0.26323172 -0.53186083 -0.80295438 196 175 196
-0.26268408 -0.53204072 -0.80261123 199 178 198
-0.26258969 -0.53217989 -0.80257279 199 179 199
-0.26092821 -0.53316987 -0.80161679 210 189 206
-0.26199478 -0.53218251 -0.80216312 202 180 200
-0.26055649 -0.53272206 -0.80129284 210 187 205
-0.26456901 -0.53326887 -0.80466616 202 188 205
-0.26438808 -0.53478307 -0.80503589 212 201 215
-0.26396039 -0.53391403 -0.80415696 204 191 208
-0.26040867 -0.53374308 -0.80136031 216 196 212
-0.26125196 -0.53340441 -0.80188197 210 191 208
-0.26154312 -0.53427619 -0.80223674 214 200 215
-0.25992256 -0.53543067 -0.8013345 229 215 227
-0.26194194 -0.53475237 -0.80261892 214 202 217
-0.25979036 -0.53680158 -0.8015303 235 227 237
-0.26046979 -0.53485048 -0.80159897 223 208 221
-0.26204535 -0.53566271 -0.80303633 220 210 223
-0.26271215 -0.53598899 -0.80375808 221 211 224
-0.26116467 -0.53618395 -0.80245811 226 217 229
-0.26285091 -0.53531337 -0.80361551 215 205 219
-0.26127592 -0.53623676 -0.80257785 226 217 229
-0.26361188 -0.53674901 -0.80485779 224 215 227
-0.26094881 -0.53616148 -0.80225718 226 218 230
-0.26294953 -0.5339753 -0.8031764 205 192 209
-0.2620768 -0.53942806 -0.80393708 227 218 230
-0.26257482 -0.53875428 -0.80429882 227 218 230
-0.26208559 -0.54070985 -0.80428725 219 208 223
-0.26041004 -0.54057872 -0.80243313 236 228 238
-0.26223412 -0.53888065 -0.80396247 229 221 232
-0.26086316 -0.54049724 -0.80290347 232 224 234
-0.26020184 -0.53792226 -0.80202234 236 229 239
-0.26014054 -0.53750014 -0.80193847 236 229 239
-0.26225644 -0.53819454 -0.80386919 231 223 233
-0.26067621 -0.53903592 -0.80252194 236 228 238
-0.26208946 -0.53838623 -0.803734 232 224 234
-0.25980127 -0.53797203 -0.80166942 237 230 240
-0.25995353 -0.53870934 -0.80185628 237 230 239
-0.26049256 -0.53987771 -0.80241716 237 230 238
-0.25964364 -0.53928477 -0.80163431 237 230 239
-0.26158261 -0.54374057 -0.80490851 212 201 218
-0.2609292 -0.54329401 -0.80402106 220 211 224
-0.26196152 -0.54212242 -0.80467486 214 203 219
-0.26258868 -0.54113913 -0.80496389 212 199 216
-0.26219893 -0.54152286 -0.8046937 214 202 219
-0.26052275 -0.54107189 -0.80269396 232 223 234
-0.26172894 -0.54333478 -0.80490559 212 201 217
-0.26065412 -0.54482245 -0.80393296 210 201 217
-0.25980458 -0.54459476 -0.80242455 211 202 218
-0.26105425 -0.54452246 -0.80458564 213 204 219
-0.26010787 -0.54365593 -0.80281842 219 210 224
-0.2596958 -0.54211432 -0.80193245 231 223 233
-0.25972876 -0.54431546 -0.80227906 213 205 219
-0.25926054 -0.5448091 -0.80186021 209 202 215
-0.2588782 -0.54295999 -0.80127895 221 215 224
-0.25863695 -0.54452169 -0.8011871 211 205 215
-0.26102847 -0.54557079 -0.80464691 212 202 217
-0.26116401 -0.54649937 -0.80495298 214 204 218
-0.26123089 -0.54585296 -0.80502003 213 203 217
-0.26012823 -0.54591501 -0.80310887 212 202 217
-0.26085609 -0.54796004 -0.80452913 218 208 219
-0.26031432 -0.547975 -0.80377245 213 204 215
-0.26054785 -0.54822886 -0.80414653 215 206 216
-0.26022124 -0.54673463 -0.80339611 212 203 216
-0.25899988 -0.548208 -0.80241495 203 191 206
-0.2592622 -0.54854423 -0.80270272 205 194 207
-0.25837931 -0.54791087 -0.80183381 199 183 202
-0.25935388 -0.54730207 -0.80253202 206 195 210
-0.25911188 -0.54529375 -0.80184144 207 198 212
-0.25818849 -0.54705662 -0.80144793 199 184 203
-0.25827861 -0.5472222 -0.80159563 198 183 202
-0.26037937 -0.5521636 -0.80484414 205 196 206
-0.26074725 -0.54955769 -0.80471981 215 206 215
-0.26066226 -0.5492326 -0.80452299 215 206 215
-0.26020762 -0.55222237 -0.80460387 204 195 205
-0.25941065 -0.55107194 -0.80330598 204 195 206
-0.25817424 -0.55184376 -0.80215782 202 193 203
-0.25824076 -0.55200529 -0.80226505 202 192 203
-0.25821021 -0.55230492 -0.80229956 201 192 202
-0.25929743 -0.55199528 -0.80339187 202 192 204
-0.25884572 -0.55014855 -0.80249715 205 197 207
-0.25878671 -0.54914844 -0.80238074 202 190 204
-0.25786215 -0.55132532 -0.80174845 201 192 203
-0.25794071 -0.54967648 -0.80170447 198 183 200
-0.25978416 -0.55374736 -0.80432338 202 191 201
-0.25789145 -0.55543631 -0.80221051 190 178 194
-0.25921893 -0.55540556 -0.80395544 198 187 198
-0.25941786 -0.55333889 -0.80373871 199 188 201
-0.25785419 -0.55589145 -0.80226684 190 178 193
-0.25904474 -0.55509347 -0.80365312 197 186 198
-0.25783825 -0.55649674 -0.80238616 190 178 193
-0.25706425 -0.55606574 -0.80132788 187 174 191
-0.25732604 -0.55292624 -0.80145997 199 190 200
-0.25810254 -0.5549919 -0.80238682 192 180 195
-0.25741032 -0.55492866 -0.80164421 191 180 195
-0.2581155 -0.55398226 -0.8023532 196 184 198
-0.25776866 -0.55478275 -0.80202025 192 181 195
-0.25858808 -0.55838293 -0.80417764 190 175 191
-0.25948817 -0.55723065 -0.80485743 198 186 196
-0.25812051 -0.5592187 -0.80392915 185 168 188
-0.25846833 -0.55807108 -0.80388206 190 175 191
-0.25875208 -0.55834812 -0.80437881 191 176 192
-0.25821361 -0.55918312 -0.80403638 185 169 188
-0.25729087 -0.55722523 -0.80195487 185 171 190
-0.25727031 -0.55920768 -0.80227846 180 169 183
-0.25714463 -0.55742282 -0.80179036 184 170 188
-0.25817102 -0.55995971 -0.80422878 183 166 186
-0.25704309 -0.5583775 -0.80170411 181 170 184
-0.25702062 -0.55852354 -0.80167669 180 170 184
-0.25682554 -0.55949324 -0.80139989 177 170 179
-0.25590363 -0.56411195 -0.80223358 164 149 167
-0.2564739 -0.56353986 -0.80283785 168 153 170
-0.25673088 -0.56107646 -0.80165678 174 168 175
-0.25698176 -0.56387895 -0.80391634 173 156 173
-0.2569342 -0.56282723 -0.80314648 174 161 174
-0.2572099 -0.56282443 -0.80364263 176 162 176
-0.25819978 -0.56144249 -0.80488104 182 163 184
-0.25738025 -0.56247211 -0.80378956 177 163 178
-0.25753188 -0.56139398 -0.80347854 178 165 179
-0.25754163 -0.56264818 -0.80422336 178 162 178
-0.25763506 -0.56313837 -0.804699 179 160 179
-0.25543857 -0.56354952 -0.80133182 163 151 167
-0.25596306 -0.56666666 -0.80395371 173 161 181
-0.25668162 -0.56456959 -0.80384642 171 154 173
-0.2569271 -0.56537396 -0.80477291 177 159 179
-0.25648439 -0.56657159 -0.80477917 178 163 184
-0.25543955 -0.56767607 -0.80388212 177 163 186
-0.25368646 -0.5676868 -0.80153143 168 153 180
-0.25501412 -0.56812876 -0.80360091 177 163 187
-0.25584686 -0.56591225 -0.80329639 171 156 176
-0.25566083 -0.56512082 -0.80253774 166 151 171
-0.25581357 -0.56525856 -0.80283159 167 153 172
-0.25387812 -0.56661779 -0.80120724 167 153 177
-0.25379804 -0.56702363 -0.80131215 167 152 178
-0.2559447 -0.56840479 -0.80503565 181 169 191
-0.25549796 -0.56866193 -0.80460012 175 163 188
-0.25411984 -0.57178307 -0.8048144 112 105 154
-0.25459719 -0.56839508 -0.80321199 175 162 187
-0.25408342 -0.56861657 -0.80266786 169 155 183
-0.2547279 -0.56873256 -0.8036114 170 157 184
-0.25386643 -0.57119828 -0.80408627 122 113 159
-0.25371441 -0.57134956 -0.80383575 118 109 156
-0.25383416 -0.57203424 -0.80439353 107 99 150
-0.25329393 -0.57076406 -0.80258334 127 114 159
-0.25323784 -0.57031518 -0.80227232 134 121 163
-0.25296581 -0.57125258 -0.80197287 117 102 151
-0.25242212 -0.57511979 -0.80371183 99 85 137
-0.25195867 -0.57599837 -0.80390829 101 87 137
-0.25211558 -0.57310021 -0.80145919 100 82 137
-0.25335073 -0.57234609 -0.80337232 100 89 144
-0.25316301 -0.57454872 -0.80477077 99 89 141
-0.25359327 -0.57310176 -0.80460042 101 93 145
-0.2531487 -0.57353234 -0.80387938 99 88 141
-0.25267062 -0.57381606 -0.80295277 97 82 137
-0.25283748 -0.57239729 -0.80216408 98 83 139
-0.24995424 -0.57506347 -0.80130219 88 79 135
-0.2500332 -0.57587749 -0.80211705 89 80 135
-0.25146422 -0.57609528 -0.80356371 98 86 136
-0.2519435 -0.57582211 -0.80373102 101 87 137
-0.25128108 -0.57425642 -0.80171877 97 82 136
-0.25178072 -0.57419759 -0.80210024 100 84 137
-0.25258797 -0.57623249 -0.80495328 99 86 137
-0.24970703 -0.57695228 -0.80234748 106 102 141
-0.25012153 -0.57677031 -0.80265158 104 98 140
-0.24888013 -0.57710356 -0.80167431 104 103 141
-0.24832055 -0.57961154 -0.80248332 154 163 158
-0.24973968 -0.57820421 -0.80306238 132 132 149
-0.24878463 -0.57764268 -0.80179656 116 117 146
-0.25057283 -0.577402 -0.80341625 120 114 144
-0.25130239 -0.57719779 -0.80416459 114 105 141
-0.24938308 -0.57893109 -0.80320865 143 146 153
-0.24928169 -0.57894135 -0.80307871 144 147 154
-0.24980476 -0.57924587 -0.80448043 135 134 150
-0.25171277 -0.57744306 -0.8050161 111 100 140
-0.24957107 -0.57948935 -0.80445582 138 138 151
-0.24789631 -0.57960862 -0.80193841 153 162 159
-0.2482994 -0.58129185 -0.80412686 164 167 159
-0.2490032 -0.58064276 -0.80492061 148 148 153
-0.24858923 -0.58123451 -0.80465072 159 159 157
-0.24760455 -0.58380699 -0.80500793 179 172 160
-0.24747697 -0.58162177 -0.80282253 169 171 161
-0.24748549 -0.58068657 -0.80200559 164 170 162
-0.2459349 -0.58287799 -0.80155706 158 147 154
-0.2465046 -0.58220083 -0.80182558 162 156 157
-0.24708311 -0.58260828 -0.80309087 169 165 159
-0.24647349 -0.58299708 -0.80249912 164 156 156
-0.24743059 -0.58382058 -0.80472791 178 170 159
-0.24710144 -0.58202595 -0.80259144 167 165 160
-0.24594651 -0.58255285 -0.80128032 157 148 154
-0.2453597 -0.58764243 -0.8043983 158 126 145
-0.24444535 -0.58752018 -0.8031069 151 120 140
-0.24429147 -0.58570194 -0.80150962 149 124 138
-0.24483779 -0.58496279 -0.80165893 152 130 145
-0.2451732 -0.5856052 -0.80259126 155 130 146
-0.24622044 -0.58614624 -0.80456865 166 142 151
-0.24575673 -0.58412504 -0.80238587 161 144 151
-0.24643317 -0.5847621 -0.80389512 168 151 154
-0.24676999 -0.58555287 -0.80498981 171 153 154
-0.24545684 -0.58504027 -0.80258459 158 135 149
-0.24663034 -0.58453721 -0.80403757 170 155 155
-0.2455072 -0.58629894 -0.80357468 158 131 148
-0.24300899 -0.58739978 -0.80117232 146 121 134
-0.24321711 -0.58720607 -0.80128902 146 121 134
-0.24453764 -0.58856148 -0.8042624 149 114 138
-0.24500459 -0.58793086 -0.80416864 155 123 143
-0.24314994 -0.59087998 -0.80482119 132 98 119
-0.24405807 -0.58864409 -0.80370861 145 111 135
-0.24339783 -0.58918262 -0.80336475 141 110 129
-0.24359152 -0.5885312 -0.80294633 144 114 133
-0.24385013 -0.5880909 -0.80282634 147 117 136
-0.24245894 -0.59123182 -0.80383813 135 106 120
-0.24263103 -0.58859825 -0.80164021 144 119 131
-0.24239765 -0.59045154 -0.80280358 141 114 126
-0.24191897 -0.59098077 -0.8017289 151 130 136
-0.24234967 -0.58962727 -0.80176795 146 122 132
-0.24055496 -0.59361094 -0.8028748 126 101 114
-0.24063534 -0.59361237 -0.80318767 124 98 112
-0.24043396 -0.59340042 -0.80173498 137 113 124
-0.24068114 -0.59411621 -0.80498058 106 78 95
-0.24063466 -0.59345001 -0.80266404 129 104 117
-0.24079433 -0.59288704 -0.80158561 143 121 129
-0.24121976 -0.59263819 -0.80239135 139 115 125
-0.24116631 -0.59257841 -0.80205339 143 119 128
-0.23907857 -0.59533721 -0.8027156 125 100 114
-0.23923139 -0.59520561 -0.80286443 123 98 113
-0.23944873 -0.59522384 -0.80370015 114 86 106
-0.2393969 -0.59538007 -0.8039887 111 83 104
-0.24016663 -0.59409153 -0.80291229 122 97 111
-0.23980068 -0.59493095 -0.80411893 110 81 102
-0.23649496 -0.5989396 -0.80288589 116 90 98
-0.23676154 -0.59920812 -0.80363494 112 85 93
-0.236559 -0.59808534 -0.80179793 126 104 111
-0.23799078 -0.59661478 -0.80189872 134 112 118
-0.23757133 -0.59781271 -0.80290926 123 100 106
-0.23737103 -0.59799558 -0.80286425 123 99 106
-0.23693028 -0.59799874 -0.80222362 125 102 109
-0.23888274 -0.595797 -0.80330008 119 93 109
-0.23915581 -0.59610611 -0.80485946 102 72 95
-0.23900801 -0.59580827 -0.80377102 114 87 105
-0.23823747 -0.59719372 -0.80359983 118 92 103
-0.23872493 -0.59600717 -0.80312729 121 96 110
-0.2393191 -0.59581918 -0.80490822 102 71 96
-0.2368744 -0.59988302 -0.80474365 111 82 92
-0.2748248 -0.54344684 -0.82335609 210 201 218
-0.27467376 -0.54112673 -0.82099825 206 201 216
-0.27460632 -0.54453784 -0.82368851 212 202 219
-0.27431151 -0.54212445 -0.82092047 207 202 216
-0.27370882 -0.54378206 -0.82089686 208 203 216
-0.274683 -0.5436393 -0.82310367 211 202 219
-0.27406976 -0.54463553 -0.82248938 210 202 218
-0.27454719 -0.5419873 -0.82136661 208 202 217
-0.27333704 -0.54864722 -0.82317269 198 186 207
-0.27461797 -0.5462206 -0.82460785 210 198 218
-0.27310717 -0.54821265 -0.82264602 198 185 206
-0.27346435 -0.54734427 -0.82298696 202 189 210
-0.27358794 -0.54869634 -0.82361597 199 187 208
-0.27291381 -0.5470134 -0.82171559 200 189 208
-0.27247065 -0.54790127 -0.82139695 196 183 203
-0.27337083 -0.54540199 -0.821464 207 200 214
-0.27329108 -0.54543459 -0.82130045 206 200 214
-0.27305532 -0.54659921 -0.82170838 202 191 209
-0.27176458 -0.54957223 -0.82134366 195 180 201
-0.27195069 -0.54896432 -0.82101065 193 178 200
-0.27218157 -0.55172276 -0.8243944 206 194 213
-0.27310929 -0.54940361 -0.8234638 200 187 208
-0.27381924 -0.54883045 -0.82405406 200 189 210
-0.27239132 -0.55117369 -0.82415724 205 192 212
-0.27347723 -0.54888928 -0.82353419 199 187 208
-0.27225032 -0.54890531 -0.82145798 194 179 201
-0.27033651 -0.55241013 -0.82134134 207 199 210
-0.27097782 -0.55193019 -0.82226789 204 194 209
-0.27072975 -0.55183351 -0.82159925 204 194 208
-0.27093029 -0.55109304 -0.82124019 201 189 206
-0.270796 -0.55202723 -0.82196236 205 195 209
-0.27127263 -0.55330449 -0.82442176 205 191 210
-0.27112773 -0.55336171 -0.82412142 205 191 210
-0.2710287 -0.55288672 -0.82341993 207 196 212
-0.27022779 -0.55378866 -0.82250947 204 191 207
-0.26989862 -0.5553177 -0.82329798 198 177 200
-0.27018782 -0.55301625 -0.82164347 207 198 210
-0.27081856 -0.55364019 -0.82369989 204 190 208
-0.26975936 -0.5545972 -0.82143408 203 192 205
-0.26967326 -0.55565524 -0.82178742 200 186 202
-0.26973277 -0.55664015 -0.82328457 195 173 197
-0.26972556 -0.55459982 -0.821154 204 193 206
-0.26982734 -0.55487877 -0.82228833 201 185 203
-0.26945117 -0.55798954 -0.82373607 196 173 198
-0.26949638 -0.55915302 -0.82384342 196 177 197
-0.26934266 -0.55998415 -0.82354313 197 181 198
-0.26867625 -0.55989778 -0.82219189 203 188 204
-0.26910686 -0.55900025 -0.82305223 199 180 200
-0.2696574 -0.55737859 -0.82414567 194 169 196
-0.26872644 -0.55888867 -0.82202554 202 186 204
-0.26975551 -0.55670655 -0.82368481 195 171 196
-0.26921132 -0.55729836 -0.8210175 201 189 202
-0.26933071 -0.55699635 -0.82105434 201 188 201
-0.26846889 -0.55931449 -0.82122719 205 192 207
-0.2694957 -0.56083685 -0.82409102 195 180 194
-0.26827097 -0.56195915 -0.82356161 197 184 194
-0.26784605 -0.56248307 -0.82436913 196 183 189
-0.26832697 -0.56199855 -0.82425386 196 182 191
-0.26800048 -0.56203079 -0.822146 200 189 200
-0.26845974 -0.56092882 -0.8219254 203 190 204
-0.26875505 -0.56058931 -0.8223784 202 189 203
-0.26595244 -0.56425762 -0.82325506 188 175 183
-0.26691917 -0.56314111 -0.82168067 197 186 196
-0.26591262 -0.56400168 -0.82353592 188 175 183
-0.26643759 -0.56343937 -0.82318509 192 179 188
-0.26755932 -0.56259954 -0.8231982 198 187 194
-0.26730993 -0.56285077 -0.82367086 196 184 190
-0.26671287 -0.56310576 -0.82224888 196 184 194
-0.26412764 -0.56695598 -0.8244403 214 201 205
-0.26403618 -0.56688005 -0.82339692 207 196 200
-0.26444867 -0.56587678 -0.8228516 192 181 185
-0.26445103 -0.5659619 -0.82320273 195 184 187
-0.26416704 -0.566616 -0.82343537 204 193 196
-0.26446798 -0.56594199 -0.8219865 190 182 184
-0.26477879 -0.56574231 -0.82186365 191 182 185
-0.26447523 -0.56582427 -0.82234615 189 180 183
-0.26545006 -0.56466728 -0.82366163 186 173 180
-0.26635885 -0.56453311 -0.82186067 191 181 189
-0.26559278 -0.56536984 -0.82105911 193 186 191
-0.26337546 -0.56766951 -0.82194448 204 194 197
-0.26352477 -0.56773645 -0.82279491 214 205 207
-0.23306453 -0.56338626 -0.78154486 142 111 146
-0.2299208 -0.56417227 -0.77924973 120 88 125
-0.23015802 -0.56322074 -0.77932489 125 97 131
-0.2306982 -0.56385672 -0.77978379 126 96 132
-0.2313115 -0.56404132 -0.7802496 130 98 135
-0.23289737 -0.56500536 -0.78163159 138 102 139
-0.23221336 -0.56802607 -0.78163719 135 98 129
-0.23191188 -0.56582391 -0.78096247 130 96 132
-0.23189875 -0.56771654 -0.78132409 130 95 127
-0.23038533 -0.56774563 -0.78011894 109 78 110
-0.23121126 -0.56821871 -0.78087276 121 87 118
-0.23143704 -0.56580764 -0.78057933 123 91 126
-0.23134297 -0.56754905 -0.78084648 122 89 121
-0.23131809 -0.56683677 -0.7806865 122 89 123
-0.23095755 -0.56590736 -0.78021604 117 86 121
-0.23055856 -0.5658837 -0.77992237 114 83 119
-0.23160784 -0.56516594 -0.78059703 126 94 130
-0.23132883 -0.57083273 -0.78139108 112 95 122
-0.23177326 -0.56975144 -0.78157324 123 97 125
-0.23026519 -0.57033819 -0.78046077 99 82 110
-0.23166637 -0.56931847 -0.78141832 123 95 124
-0.23076987 -0.56992108 -0.78079766 108 86 115
-0.2312656 -0.57021558 -0.78124154 114 92 120
-0.2297751 -0.57161909 -0.78031331 104 85 111
-0.23029041 -0.57085997 -0.78056616 98 83 111
-0.23032966 -0.57231104 -0.78086376 108 92 117
-0.25326833 -0.54257232 -0.79651618 198 151 200
-0.25379691 -0.54196429 -0.79692847 197 161 199
-0.25370932 -0.54315716 -0.79694498 199 151 201
-0.25391859 -0.54264688 -0.79708725 199 157 200
-0.25355911 -0.54446578 -0.79691988 201 140 203
-0.25349766 -0.54627961 -0.79701817 206 163 209
-0.25302109 -0.54641479 -0.79662859 204 161 208
-0.25358364 -0.54694718 -0.79714334 209 176 212
-0.25254336 -0.54718214 -0.79631901 205 173 209
-0.25252631 -0.54645598 -0.79622132 203 158 207
-0.25237513 -0.54741901 -0.79622084 206 177 210
-0.25023153 -0.54847181 -0.79427248 196 163 196
-0.25075883 -0.54826236 -0.7947858 199 169 200
-0.25150651 -0.54740906 -0.7954486 201 167 204
-0.25116929 -0.54837817 -0.79521799 202 180 204
-0.24982169 -0.54839694 -0.79384571 193 153 192
-0.25170541 -0.54732192 -0.79564124 202 169 205
-0.2530371 -0.5508098 -0.79687065 201 192 204
-0.25341299 -0.55113971 -0.79715008 200 191 203
-0.25197196 -0.55231255 -0.79587704 186 172 189
-0.25267333 -0.55131429 -0.79655439 196 185 199
