ply
format ascii 1.0
comment PCL generated
element vertex 1079
property float x
property float y
property float z
property uchar red
property uchar green
property uchar blue
element camera 0
property float view_px
property float view_py
property float view_pz
property float x_axisx
property float x_axisy
property float x_axisz
property float y_axisx
property float y_axisy
property float y_axisz
property float z_axisx
property float z_axisy
property float z_axisz
property float focal
property float scalex
property float scaley
property float centerx
property float centery
property int viewportx
property int viewporty
property float k1
property float k2
end_header
0.11159032 0.38785696 -0.84593213 145 140 172
0.11166379 0.38844085 -0.84636378 143 137 169
0.1117652 0.38739607 -0.84670556 145 139 173
0.11147892 0.386235 -0.84517658 150 147 180
0.11077383 0.38214332 -0.84444016 143 141 170
0.11087338 0.38218948 -0.8446672 143 141 171
0.11116782 0.3816171 -0.84576875 139 137 166
0.1112377 0.3814798 -0.84603107 137 136 165
0.11183714 0.38335347 -0.84769434 141 139 172
0.11159185 0.38117373 -0.84774131 132 132 161
0.1116198 0.38240129 -0.84717917 139 137 168
0.11159316 0.38393617 -0.84610653 148 146 178
0.11168391 0.38399905 -0.84652907 147 145 178
0.11161134 0.38291129 -0.84682477 142 140 172
0.11160898 0.38314345 -0.84667099 143 141 173
0.11088376 0.37897781 -0.84789491 139 139 166
0.11018637 0.37976903 -0.84708571 133 132 160
0.109154 0.37849444 -0.84770429 133 134 160
0.10953429 0.37904349 -0.84704351 132 132 159
0.11077476 0.37981647 -0.84610552 133 131 159
0.10926531 0.37856194 -0.84681869 132 131 158
0.10984226 0.3788043 -0.84622264 132 130 158
0.10914413 0.37852016 -0.84695637 132 131 158
0.10817754 0.37767574 -0.84735698 131 131 157
0.11038785 0.37940612 -0.84616721 133 131 159
0.1101035 0.37890902 -0.84450841 134 130 158
0.10987793 0.37771127 -0.84454876 132 128 154
0.11057625 0.3799262 -0.84519452 135 132 160
0.11091502 0.3807998 -0.84561151 135 133 162
0.10837299 0.37696654 -0.84619409 131 129 154
0.11134237 0.37988308 -0.84743351 137 137 164
0.1060749 0.37361789 -0.84766942 112 109 128
0.1066753 0.37540692 -0.84788162 120 119 140
0.10587915 0.37374541 -0.8479473 109 106 124
0.10711586 0.37560245 -0.8474918 127 125 148
0.10786207 0.37435612 -0.84589142 135 131 156
0.10816745 0.37319139 -0.84486842 138 132 156
0.10772274 0.37467372 -0.84625375 134 131 155
0.10825044 0.37455678 -0.84538901 137 133 158
0.10890118 0.37469509 -0.84433222 137 131 157
0.10850956 0.3752045 -0.84521693 135 131 157
0.10889665 0.37559563 -0.84471798 134 130 155
0.10887827 0.37431249 -0.84421086 138 132 157
0.10815897 0.37494472 -0.84570855 136 132 157
0.10622845 0.37267938 -0.84713387 116 110 130
0.10541939 0.3719494 -0.84785086 103 97 117
0.1049261 0.36964834 -0.8478452 95 87 110
0.10524452 0.37040475 -0.84767497 100 92 115
0.10708957 0.37202382 -0.84599733 122 114 137
0.10699859 0.37232503 -0.84619379 126 119 142
0.10858296 0.3730031 -0.84416527 140 134 159
0.10765565 0.37180808 -0.84514976 118 108 133
0.10757101 0.37234354 -0.84545273 125 117 141
0.1034973 0.3659578 -0.84680176 76 71 88
0.10457521 0.36772978 -0.84721541 79 71 92
0.10514306 0.36707178 -0.84562057 79 68 91
0.10406268 0.36637887 -0.84638405 77 70 89
0.10429426 0.36730179 -0.84716755 78 71 90
0.10518699 0.36702853 -0.84550214 79 68 91
0.10659005 0.36654696 -0.84508854 108 96 122
0.10728946 0.36690521 -0.84492308 115 100 129
0.10594817 0.3660529 -0.84525096 105 94 118
0.10614918 0.36610749 -0.8452065 107 96 121
0.10698 0.36544457 -0.8450796 132 120 146
0.10793447 0.3655909 -0.84439039 138 127 153
0.10338331 0.36295328 -0.84742785 72 65 83
0.10330626 0.36386672 -0.84759307 73 68 85
0.10329174 0.36423904 -0.84755433 74 70 86
0.10338528 0.36224058 -0.84766418 71 63 82
0.10349459 0.36279526 -0.84683728 72 65 83
0.10630056 0.36188877 -0.84536129 118 106 133
0.1068029 0.36338201 -0.84520006 129 117 144
0.10640189 0.36208743 -0.84531522 120 108 135
0.10519613 0.36237761 -0.84621382 100 90 113
0.10591249 0.36294535 -0.84577775 113 102 127
0.10537282 0.36148322 -0.84596962 101 90 115
0.10469786 0.36149046 -0.84645218 90 80 102
0.10442732 0.36330938 -0.84634006 88 80 100
0.10358323 0.3646591 -0.8460024 76 70 88
0.10391169 0.36250433 -0.84674913 78 70 90
0.10436311 0.36219275 -0.84677482 85 77 97
0.10392661 0.36315954 -0.84649873 79 72 91
0.10437313 0.36224225 -0.84675407 86 77 97
0.10756662 0.36501545 -0.84480637 142 131 157
0.1035745 0.36025146 -0.84799248 73 63 87
0.10416211 0.35994512 -0.84707522 78 71 92
0.10470321 0.35767537 -0.84732175 87 79 106
0.10445033 0.3577297 -0.84758043 84 76 103
0.10472887 0.35917684 -0.84673548 85 78 101
0.10448601 0.36104092 -0.84657669 84 76 97
0.10473901 0.36113754 -0.846398 89 80 102
0.10441276 0.36114687 -0.84663087 84 75 96
0.10444265 0.3560147 -0.84735674 85 75 105
0.1044727 0.35645506 -0.84743202 85 76 105
0.10418486 0.35624856 -0.84769869 82 72 102
0.10462571 0.35562572 -0.84705907 87 77 107
0.10362576 0.35465202 -0.84786105 78 64 97
0.10438605 0.35514373 -0.84711397 85 74 104
0.10369349 0.35364512 -0.84688485 79 66 97
0.10396673 0.35374251 -0.84670871 79 67 97
0.10342432 0.35316399 -0.84757817 74 61 92
0.10351571 0.35338426 -0.84702903 77 64 95
0.10679385 0.35265622 -0.8450498 72 62 81
0.10561951 0.35060698 -0.84605151 71 61 80
0.10625687 0.35234207 -0.84549201 70 61 79
0.10461824 0.35286364 -0.8464306 74 62 88
0.10474975 0.35237971 -0.84644336 71 61 84
0.10381708 0.35275057 -0.84696203 74 62 90
0.10591333 0.35237315 -0.84570557 70 61 81
0.1057708 0.35255989 -0.84575891 71 61 82
0.10808045 0.44029528 -0.86849588 69 61 79
0.10806033 0.43983468 -0.86813068 68 59 77
0.10826293 0.44145924 -0.87034178 77 70 88
0.10826946 0.44099763 -0.87016302 76 69 86
0.10808975 0.43975514 -0.86829829 68 60 78
0.10799979 0.43960708 -0.86761379 66 58 76
0.10819042 0.44199306 -0.87009639 77 70 88
0.10788629 0.44100505 -0.86770046 74 68 85
0.10817721 0.43634906 -0.86944109 88 82 103
0.10823469 0.43716568 -0.86948693 85 78 98
0.1083004 0.43768427 -0.86983842 83 77 96
0.1083789 0.43696699 -0.87122136 89 83 104
0.10840483 0.43725717 -0.87129849 88 82 102
0.10822462 0.43696228 -0.86952251 86 79 100
0.10820051 0.43749031 -0.86911118 82 75 95
0.1081557 0.43853173 -0.86869973 75 67 86
0.10850658 0.43943954 -0.87107557 78 71 88
0.10797419 0.43616408 -0.86764801 84 78 99
0.10803396 0.43869165 -0.86783123 71 62 81
0.10805281 0.43547979 -0.86858594 90 84 106
0.10806999 0.43494046 -0.86829263 91 84 106
0.09994293 0.40433976 -0.83032441 75 62 75
0.10032248 0.40432504 -0.83084118 76 64 77
0.10012185 0.40480804 -0.83082157 74 62 75
0.10043434 0.40344855 -0.83055043 77 65 77
0.10037252 0.40279865 -0.83013529 77 65 76
0.10058542 0.40404356 -0.83106107 77 65 78
0.10046839 0.40178037 -0.8297525 76 64 75
0.10203977 0.40242213 -0.83239144 81 70 80
0.10145552 0.40068862 -0.83070946 79 68 77
0.10100485 0.40096018 -0.83016115 77 66 75
0.10220873 0.4014459 -0.83218974 81 71 80
0.10234164 0.40103507 -0.83219737 82 71 80
0.10174439 0.40339091 -0.83240038 80 69 80
0.10303548 0.39900333 -0.83188355 84 75 85
0.10345474 0.39707488 -0.83107477 86 79 93
0.103072 0.39781001 -0.83115929 85 78 90
0.10320903 0.39655095 -0.83049548 86 80 95
0.10267358 0.40021446 -0.83229166 83 73 81
0.10209284 0.39795318 -0.83028013 84 77 88
0.10194716 0.39654112 -0.82923901 85 79 93
0.10082204 0.39982903 -0.82937026 78 67 76
0.10235682 0.40031633 -0.83188671 82 71 80
0.10119177 0.39735225 -0.82881242 83 76 88
0.10111845 0.39789453 -0.82894599 82 74 85
0.10167345 0.39814502 -0.8298893 83 75 86
0.10115115 0.39856741 -0.82929689 81 72 83
0.1022565 0.39968947 -0.83145523 82 73 82
0.10435538 0.39657235 -0.83203042 84 79 94
0.10392351 0.39738855 -0.83193153 84 77 90
0.10331331 0.3949697 -0.82982117 84 79 94
0.10220454 0.39548305 -0.82897186 84 78 93
0.10290934 0.39496797 -0.82942009 84 78 94
0.10282549 0.39467466 -0.82919461 84 78 93
0.10330589 0.39617744 -0.83040005 86 80 95
0.10327533 0.3929362 -0.82879776 82 77 93
0.10493983 0.39258808 -0.83151788 90 84 103
0.10425907 0.39323112 -0.83048308 85 80 97
0.10440741 0.39323199 -0.83075982 86 80 98
0.10409246 0.3935 -0.83027035 84 79 96
0.10469366 0.39618248 -0.83236581 84 79 94
0.10353637 0.39341021 -0.82929444 83 77 94
0.10438503 0.3962166 -0.83188653 84 79 94
0.10397258 0.39455259 -0.83048111 83 78 94
0.10343285 0.39225471 -0.82868338 80 75 92
0.10362134 0.39153334 -0.82873863 79 73 89
0.10397419 0.39179024 -0.82947451 82 76 92
0.10360561 0.39098802 -0.82852972 78 71 86
0.10404452 0.39041233 -0.82915026 79 71 86
0.10390832 0.39074108 -0.82900739 79 72 87
0.10415452 0.39045364 -0.82936722 80 72 87
0.10474504 0.38920128 -0.83024675 78 69 86
0.10483108 0.3897289 -0.83054101 80 71 89
0.10526422 0.39095804 -0.8317439 86 78 98
0.10501041 0.3913433 -0.8312549 87 80 98
0.10517865 0.39091888 -0.83154607 86 78 97
0.10265801 0.43971342 -0.85659325 97 90 109
0.10278752 0.44051635 -0.85690773 96 88 110
0.10264841 0.43924963 -0.8564074 98 90 109
0.10399508 0.4381628 -0.85813183 95 91 109
0.10394428 0.43706143 -0.85727853 95 91 108
0.10438055 0.43686545 -0.85802329 91 87 104
0.10447836 0.43836516 -0.85917991 91 85 104
0.10459663 0.43700731 -0.85855001 89 85 102
0.10482571 0.43684593 -0.85890913 87 83 100
0.10445199 0.4377217 -0.85871512 90 86 104
0.10417387 0.43736023 -0.85792261 93 89 106
0.10421178 0.43647602 -0.85743356 92 89 106
0.10585277 0.43187448 -0.85815638 73 70 84
0.10550844 0.43227491 -0.85756487 76 72 87
0.10552166 0.43364897 -0.85836768 78 74 90
0.10547427 0.43199933 -0.85732913 76 72 87
0.10593729 0.43282467 -0.85889024 74 70 85
0.10560375 0.43164706 -0.85743839 74 71 85
0.10440386 0.43355757 -0.85598016 86 84 99
0.10458933 0.43448091 -0.85693312 86 84 99
0.10527705 0.43365943 -0.85780615 79 76 91
0.10491569 0.43553284 -0.85825098 86 82 99
0.10513669 0.43361914 -0.85749769 80 77 92
0.10510137 0.43364969 -0.85744554 81 77 93
0.1061189 0.42865363 -0.85766488 81 72 95
0.10652774 0.43052429 -0.85923618 74 68 86
0.10634822 0.42825371 -0.85802847 86 75 100
0.10627905 0.42952955 -0.8583315 78 70 90
0.10673326 0.42908582 -0.85917616 85 75 98
0.10664078 0.42947555 -0.85911113 82 73 94
0.1064012 0.43117338 -0.85918051 70 66 81
0.1059434 0.43130189 -0.85813504 73 69 84
0.10574335 0.43101439 -0.8575716 74 70 85
0.10552637 0.43041661 -0.85687184 76 71 88
0.10601901 0.42974448 -0.85783142 74 68 86
0.10559233 0.43125764 -0.85728902 75 71 86
0.1060637 0.42754126 -0.85709107 86 76 100
0.10556211 0.42743224 -0.85591346 81 73 95
0.10819739 0.42007962 -0.85948694 95 87 118
0.10847279 0.41791523 -0.85954213 100 94 124
0.10846625 0.41798615 -0.85962218 100 93 123
0.10860347 0.41640711 -0.85731375 107 106 132
0.10842005 0.41831461 -0.8590253 100 95 124
0.10844441 0.41796169 -0.85812342 102 99 126
0.10833571 0.41851848 -0.85792327 100 96 125
0.10832869 0.41778094 -0.85652399 103 99 128
0.10812686 0.41866925 -0.85639572 100 92 124
0.1081413 0.41957238 -0.85815942 96 87 120
0.10869998 0.41591766 -0.85971135 104 98 127
0.10892616 0.41425493 -0.85873324 103 94 124
0.1089051 0.41297072 -0.85954833 98 89 116
0.10915749 0.41289005 -0.85756409 102 91 123
0.10903954 0.41412443 -0.85788941 104 95 126
0.10899025 0.41430667 -0.85701871 105 99 129
0.10872184 0.4157795 -0.85895103 105 100 129
0.10876039 0.41557568 -0.8587693 105 100 128
0.10899916 0.41423959 -0.85672796 106 99 129
0.10867518 0.41576934 -0.85597652 109 111 135
0.10901208 0.41411519 -0.85596973 106 101 130
0.11048283 0.40823647 -0.85931933 94 82 104
0.11022124 0.40960753 -0.85740936 97 88 112
0.10944761 0.41056919 -0.85854685 97 87 112
0.10888802 0.40830368 -0.85785085 99 91 114
0.1089839 0.41184235 -0.859586 96 86 112
0.10992005 0.40953782 -0.85762441 98 88 112
0.10779946 0.40911713 -0.85917455 99 92 115
0.11097696 0.40821242 -0.85606456 99 89 112
0.10945189 0.41139126 -0.85824716 98 87 114
0.10970876 0.41093138 -0.85788572 98 87 114
0.11015998 0.41018403 -0.85702723 99 88 114
0.10954432 0.41150844 -0.85707259 100 89 119
0.10984989 0.41107127 -0.85623652 101 89 120
0.11031225 0.41005081 -0.85629785 100 89 117
0.10748449 0.40916821 -0.85954875 99 93 114
0.11140224 0.40831521 -0.85963666 92 79 101
0.10714745 0.40790474 -0.85967612 98 92 113
0.10643052 0.40440872 -0.85951626 111 102 120
0.10660663 0.40538561 -0.85950041 108 100 119
0.10725066 0.407489 -0.85909188 102 95 117
0.11108959 0.40748158 -0.85964245 97 85 109
0.11127517 0.40718046 -0.8561039 97 88 111
0.11119434 0.40684146 -0.85633242 98 89 112
0.10866936 0.40817252 -0.85799146 99 92 114
0.11026619 0.4072445 -0.85697097 98 90 113
0.11094578 0.40624893 -0.85673684 98 90 113
0.1099744 0.40662009 -0.85742205 98 91 114
0.11106778 0.40494308 -0.85707039 97 90 113
0.11093473 0.40543404 -0.85701758 97 90 113
0.10746492 0.40712234 -0.85875094 104 98 119
0.10961511 0.40568769 -0.85784769 99 93 115
0.10986374 0.40498853 -0.85761601 101 95 117
0.10771978 0.40502694 -0.85818452 113 106 124
0.10744447 0.4059847 -0.85848486 110 103 122
0.1113337 0.40752652 -0.85901588 97 86 109
0.1113597 0.40650234 -0.85603577 95 86 109
0.10727569 0.40101391 -0.8559835 92 86 102
0.10701136 0.40070099 -0.85613716 88 82 98
0.1057998 0.40047225 -0.8568936 77 70 84
0.10471313 0.40088838 -0.85796183 72 64 75
0.10650198 0.40039703 -0.85632479 82 75 90
0.10447015 0.40117025 -0.8583191 72 64 75
0.10650276 0.40071309 -0.8565225 84 78 92
0.1065796 0.40196857 -0.85725302 94 87 102
0.10601685 0.40296486 -0.85834503 97 89 104
0.1064423 0.40413144 -0.85925806 110 102 119
0.10611901 0.40397459 -0.85951144 107 98 115
0.10574979 0.40327403 -0.85912395 98 90 105
0.1043933 0.40289322 -0.85973483 86 77 91
0.10382424 0.40083495 -0.85867882 65 56 66
0.10984284 0.40070978 -0.85640484 104 96 120
0.10901184 0.40205032 -0.85706276 110 102 123
0.10747635 0.40337825 -0.8574301 111 104 121
0.10871699 0.40165395 -0.85665137 105 98 118
0.10857385 0.40144587 -0.85644013 102 96 115
0.10756555 0.40273759 -0.85699183 106 100 117
0.11079835 0.40399411 -0.85718346 100 94 117
0.11042315 0.40199256 -0.85712457 110 101 126
0.10936299 0.40308428 -0.85748661 111 104 125
0.11090652 0.40187949 -0.85698956 107 99 124
0.10913488 0.40299183 -0.85753894 113 105 126
0.11165218 0.40168869 -0.85649604 111 103 131
0.11156994 0.40371552 -0.85613734 96 88 112
0.11203542 0.40096146 -0.85586226 119 110 141
0.10496122 0.39811808 -0.85730445 66 59 70
0.10706935 0.39665136 -0.8559745 86 82 96
0.10624138 0.39726678 -0.85650688 78 73 86
0.10530914 0.39844087 -0.85722882 73 66 78
0.10461605 0.39770883 -0.85735685 58 52 63
0.10363784 0.39887398 -0.85809737 52 44 53
0.10662491 0.39756995 -0.85628659 83 78 91
0.10703268 0.39777595 -0.8559795 86 81 96
0.10646013 0.40014955 -0.85635698 82 75 90
0.10707569 0.39779559 -0.8559472 86 82 96
0.1067072 0.39849675 -0.85620677 83 78 92
0.10590162 0.39948329 -0.85678524 77 71 84
0.11036684 0.39982581 -0.85626048 107 98 125
0.11104334 0.39824426 -0.85616934 109 102 131
0.11012843 0.39886296 -0.85595095 105 99 125
0.11124827 0.40017137 -0.85668248 110 101 129
0.11140314 0.39932114 -0.85644495 112 103 132
0.11156119 0.40026143 -0.85646963 114 105 134
0.10451014 0.39258793 -0.85767108 75 70 82
0.10476337 0.39317891 -0.85728592 70 65 77
0.10403288 0.39289218 -0.85802305 71 66 78
0.10515602 0.39369106 -0.85679525 66 61 72
0.10368694 0.39417145 -0.85799897 58 53 63
0.10384102 0.39406735 -0.85788691 60 54 65
0.10618944 0.3962988 -0.85631567 73 69 81
0.10550603 0.3940329 -0.85643727 65 60 71
0.10671262 0.3949692 -0.85596776 81 77 90
0.10603976 0.3946746 -0.8562485 72 67 79
0.10479537 0.39643025 -0.8569591 53 49 59
0.10376873 0.38986155 -0.85968441 59 48 66
0.10379784 0.3920491 -0.85861897 72 65 78
0.1046936 0.39097935 -0.85841495 68 61 76
0.10359427 0.39233473 -0.85864121 73 66 79
0.10477649 0.38929644 -0.85929519 61 52 69
0.10436811 0.39133269 -0.85850918 69 63 77
0.10404715 0.39245543 -0.85816258 74 68 80
0.1056924 0.38997802 -0.85765356 69 62 78
0.10642719 0.3908872 -0.85616815 77 72 86
0.10539755 0.38874325 -0.85832304 65 57 74
0.10643169 0.39100337 -0.85614967 77 72 86
0.10629746 0.39038286 -0.85645938 75 70 84
0.10577638 0.39048672 -0.85744959 70 64 79
0.10365918 0.38607824 -0.85939431 48 34 54
0.10392939 0.38513625 -0.85873181 53 40 59
0.10588691 0.38494173 -0.8563565 78 69 90
0.10501961 0.38577589 -0.85771734 66 55 75
0.10471556 0.38740805 -0.85896981 60 50 69
0.10541778 0.3864809 -0.85771054 70 61 81
0.10497709 0.38649225 -0.85817295 64 54 74
0.10613156 0.38757238 -0.85668927 75 68 85
0.1064731 0.38821003 -0.8561694 77 71 87
0.10560663 0.38813561 -0.85781479 68 61 78
0.10574784 0.38840452 -0.85760093 69 62 79
0.10511737 0.38843122 -0.85881525 63 54 72
0.10525072 0.3883512 -0.85854268 64 56 74
0.10355293 0.38405058 -0.8592782 52 39 58
0.10455403 0.38283765 -0.85855728 70 60 80
0.10379814 0.3837693 -0.85911071 56 44 63
0.10485052 0.38428563 -0.85768557 67 57 76
0.10463857 0.38360605 -0.8581804 68 57 77
0.10485768 0.38344169 -0.8579818 71 61 81
0.10394928 0.38331196 -0.85909796 60 49 68
0.10582268 0.38181052 -0.85587323 82 77 95
0.10584953 0.38206363 -0.85589755 82 77 95
0.10472743 0.38101193 -0.85833234 77 69 88
0.10567468 0.38113123 -0.85599858 82 78 95
0.10578164 0.38206717 -0.85606921 82 77 95
0.10525487 0.38251445 -0.85755306 79 71 90
0.1045368 0.37707096 -0.8567608 87 82 100
0.10376418 0.37730226 -0.8584761 83 77 96
0.1038793 0.37932187 -0.85938078 78 70 89
0.10446014 0.37924775 -0.85817039 80 73 91
0.10394389 0.37891048 -0.85901093 79 72 90
0.10424337 0.38054618 -0.8593415 75 67 85
0.10546636 0.38044989 -0.85622638 82 78 95
0.10501471 0.37828857 -0.85632247 86 81 98
0.10468177 0.3790586 -0.85752743 82 75 93
0.10470816 0.37843642 -0.85716265 84 78 95
0.099955171 0.37327754 -0.85918319 49 43 53
0.10174751 0.37340763 -0.85834801 63 55 70
0.10042403 0.3734754 -0.85902566 53 47 58
0.10305697 0.37627667 -0.85877049 78 72 90
0.10285472 0.3752729 -0.85849655 74 68 86
0.1026889 0.37470034 -0.85836524 72 65 83
0.10120569 0.37544098 -0.85868728 57 51 64
0.10095213 0.37459528 -0.85900587 58 52 64
0.099766225 0.37597695 -0.85790092 33 27 35
0.1001941 0.37474668 -0.85865533 46 40 50
0.10073996 0.37554857 -0.8584649 50 44 55
0.099768877 0.3764191 -0.857687 31 25 33
0.10355791 0.37430096 -0.8577413 78 70 90
0.10403268 0.37342867 -0.85665214 83 76 96
0.10361605 0.37609881 -0.8583169 82 77 96
0.10451311 0.37694141 -0.85674214 87 82 100
0.10441558 0.37391812 -0.85613561 88 82 102
0.10392442 0.37555084 -0.85758162 85 79 99
0.1045471 0.37582245 -0.85637349 88 82 101
0.10473573 0.37685624 -0.85626149 89 83 101
0.10333385 0.37116194 -0.85643405 68 59 77
0.10084675 0.37029791 -0.85888255 58 47 50
0.1020211 0.37124449 -0.85805959 64 55 65
0.10239545 0.37061626 -0.85728377 64 54 66
0.10027595 0.36933216 -0.85900337 53 42 41
0.1021762 0.37163329 -0.8580966 66 56 67
0.10099079 0.36971381 -0.85839498 56 46 49
0.10142317 0.37022594 -0.85818231 59 49 55
0.1022827 0.3723675 -0.85801852 66 57 71
0.10049427 0.37081635 -0.85905665 55 46 49
0.099973708 0.37144676 -0.85924965 51 42 46
0.10001317 0.36975932 -0.85940033 53 42 40
0.099840403 0.37014356 -0.85944682 51 41 40
0.10192253 0.3716484 -0.85826862 65 55 65
0.10383274 0.37193432 -0.85609269 76 68 87
0.10175146 0.36840862 -0.85785979 61 51 61
0.10112029 0.36822698 -0.85874486 60 50 56
0.10105294 0.36902475 -0.85811108 56 45 49
0.10145341 0.36876261 -0.85788584 58 48 55
0.10206801 0.36646578 -0.85922855 73 64 81
0.10150176 0.36764503 -0.8588264 65 55 65
0.10102542 0.3682991 -0.85878932 60 49 55
0.10075464 0.36815286 -0.85922992 60 49 53
0.10298418 0.36753398 -0.85653484 65 55 73
0.10313597 0.36548474 -0.85703921 68 58 78
0.10314608 0.36542812 -0.85702676 68 58 78
0.1029111 0.36728078 -0.85700673 67 57 76
0.1026919 0.36601278 -0.85871542 76 67 89
0.10582909 0.44105685 -0.862867 81 77 90
0.1053618 0.44023967 -0.86166251 85 80 95
0.10458767 0.43989959 -0.86028576 90 85 102
0.10596119 0.44058281 -0.86277729 80 77 89
0.10590798 0.44212183 -0.86363602 81 77 88
0.10594085 0.43995231 -0.86236185 80 77 90
0.10462745 0.44191408 -0.86112285 94 87 104
0.10439228 0.44029748 -0.85997182 94 87 107
0.1045964 0.44192815 -0.86104822 94 88 105
0.10441069 0.44096115 -0.86024457 95 88 107
0.10702569 0.43663058 -0.86292744 76 75 89
0.10623564 0.43564799 -0.86099815 79 76 92
0.10644609 0.43567896 -0.86144853 78 76 92
0.10676839 0.43600258 -0.86221433 78 75 91
0.10668754 0.43631428 -0.8621304 77 75 90
0.10654299 0.43679875 -0.86196035 77 74 89
0.1059595 0.43704483 -0.86093241 78 75 90
0.10455427 0.43921834 -0.85985047 90 85 103
0.10543996 0.43756104 -0.86039478 83 78 95
0.10582616 0.43819976 -0.8612839 80 76 92
0.10630888 0.43930572 -0.86254251 78 74 88
0.10636404 0.4377538 -0.86188287 76 73 87
0.10637382 0.4349716 -0.8609851 77 73 89
0.10718031 0.434782 -0.86258757 75 73 88
0.10707428 0.4332993 -0.86165547 70 65 81
0.10632939 0.43531677 -0.86105698 78 75 91
0.10671277 0.43378875 -0.86113071 72 68 83
0.10665591 0.43378758 -0.86101079 72 68 83
0.10675769 0.43187645 -0.8602612 68 63 78
0.10629076 0.43385106 -0.86026269 73 69 85
0.10578106 0.43525115 -0.85987312 78 74 91
0.10751755 0.43313876 -0.86270416 70 66 81
0.10771733 0.43244883 -0.86319602 69 64 79
0.10747371 0.43374598 -0.8628149 72 68 84
0.10734483 0.43059322 -0.8610974 74 65 84
0.10723023 0.43152797 -0.86113751 66 60 75
0.10679058 0.43060681 -0.8598752 77 69 87
0.10794353 0.4291943 -0.86353225 90 80 99
0.10790902 0.42959613 -0.86337143 86 76 95
0.10746218 0.43136364 -0.86167121 66 60 76
0.10760723 0.43009734 -0.86187488 79 69 90
0.10802937 0.42181388 -0.86212862 79 69 92
0.10799634 0.42065769 -0.86229557 85 78 105
0.10810877 0.42078179 -0.86124778 87 78 106
0.10818933 0.4201774 -0.8604098 92 84 114
0.10790155 0.42131236 -0.8632744 79 71 96
0.10794792 0.42118025 -0.86281914 81 73 99
0.10817572 0.42062002 -0.86023986 91 83 111
0.10813586 0.42113045 -0.86086947 86 77 103
0.10816632 0.4206118 -0.86006641 93 84 113
0.10703406 0.4160693 -0.86228436 108 98 127
0.10739803 0.41658747 -0.86186415 107 99 127
0.10751421 0.41643447 -0.86158031 107 100 128
0.10757588 0.41614494 -0.86128813 109 102 129
0.10817348 0.41759798 -0.86157984 98 91 122
0.10831328 0.41857493 -0.86061764 96 90 120
0.10820968 0.41957372 -0.86055028 94 87 118
0.10844374 0.41720131 -0.86082393 99 93 123
0.10816044 0.41856697 -0.86207151 93 87 117
0.10815468 0.41862351 -0.86206669 93 87 117
0.10804524 0.41924575 -0.86244935 91 85 115
0.10654892 0.41524726 -0.86244166 108 97 123
0.10615873 0.41515753 -0.86319906 106 92 120
0.10613745 0.41509247 -0.86317211 106 92 120
0.10673521 0.41585535 -0.86272097 107 95 125
0.10562526 0.41213873 -0.86248666 101 92 108
0.10667215 0.41398787 -0.86178339 105 98 118
0.10530663 0.41302946 -0.8629306 104 94 112
0.10676426 0.41296908 -0.86153466 101 96 114
0.10713694 0.41244245 -0.86109692 99 95 112
0.10780233 0.41476861 -0.86094004 106 98 124
0.10775257 0.41493645 -0.86099982 106 99 124
0.10753304 0.41547334 -0.86123109 109 102 127
0.10870554 0.41453308 -0.85986167 101 94 122
0.10806457 0.41558981 -0.86059988 107 100 127
0.10837597 0.41464305 -0.86027616 103 96 123
0.10614631 0.4115192 -0.86180139 99 92 109
0.10635689 0.41195878 -0.86173898 99 93 109
0.10577302 0.41124749 -0.86207128 100 92 108
0.10679667 0.41134438 -0.86112803 98 93 110
0.10724293 0.41111419 -0.86063141 97 93 111
0.10676105 0.40951601 -0.86058855 98 91 111
0.10611835 0.40862417 -0.86146057 101 91 115
0.10493208 0.40978041 -0.8631981 104 91 114
0.10492894 0.41070041 -0.8630262 102 91 110
0.10618535 0.40850344 -0.86137313 101 91 115
0.10476048 0.41097739 -0.86325121 103 91 109
0.10635537 0.4082655 -0.86113799 100 91 115
0.10472245 0.41025722 -0.86345267 104 91 113
0.11066119 0.4082993 -0.85980248 93 80 102
0.10798126 0.41184205 -0.86030054 97 91 111
0.10760688 0.41096416 -0.86022305 98 93 112
0.10370524 0.40439376 -0.86082274 72 65 79
0.10480359 0.40551826 -0.86148328 99 89 109
0.1042591 0.40624958 -0.86239249 96 85 108
0.10393228 0.40571362 -0.86200267 87 77 97
0.10433418 0.40750903 -0.86339289 101 88 115
0.10473264 0.40709683 -0.86284137 104 91 117
0.1037863 0.40713769 -0.86340123 96 84 108
0.10540036 0.40738279 -0.86239558 107 94 120
0.1056632 0.40690246 -0.8617667 107 95 119
0.10629185 0.40642256 -0.86053348 105 96 117
0.10645936 0.40534762 -0.85982102 107 99 118
0.10518709 0.40746576 -0.86278158 108 94 121
0.10529995 0.40694436 -0.86238378 108 95 121
0.10582936 0.40798005 -0.86192876 103 92 118
0.10426675 0.40362164 -0.86016631 82 74 88
0.10393085 0.4026289 -0.85978025 80 72 85
0.10431065 0.38870171 -0.85992068 53 43 61
0.10413765 0.38783926 -0.85978973 52 41 60
0.1035783 0.37995321 -0.85997623 70 61 78
0.10334558 0.4054825 -0.83586413 76 64 74
0.10263318 0.40600494 -0.83519381 76 64 75
0.10182333 0.40522063 -0.83354318 78 67 78
0.10235526 0.40431681 -0.83362567 79 67 79
0.10326588 0.40472251 -0.83514559 78 65 76
0.10280906 0.4043912 -0.83429289 79 66 78
0.10150778 0.40679482 -0.83407182 74 63 74
0.10132609 0.40473607 -0.83245283 78 67 79
0.10088761 0.40637368 -0.8327741 74 63 73
0.10150222 0.40670139 -0.83400279 75 63 74
0.10188611 0.40667686 -0.83462358 75 64 75
0.1025183 0.40258923 -0.83304638 82 71 81
0.10338558 0.40120983 -0.83358628 83 73 81
0.10274529 0.40366051 -0.83384705 80 68 79
0.10270933 0.40320566 -0.83358896 81 69 80
0.10302027 0.40104279 -0.83304328 83 73 82
0.10210216 0.4027881 -0.83260429 81 70 81
0.10464043 0.40061316 -0.83532131 94 85 99
0.10452154 0.40218252 -0.83587378 88 77 89
0.10464344 0.40156096 -0.83577669 91 81 94
0.10447349 0.40129349 -0.83537304 90 80 93
0.10374244 0.40119797 -0.83413804 84 73 82
0.10386005 0.40420276 -0.83573073 78 65 75
0.10369949 0.40361595 -0.83518523 79 67 76
0.10328242 0.40030518 -0.83305043 84 74 82
0.10353577 0.3996945 -0.83291262 83 74 82
0.10370925 0.39942095 -0.83299637 84 75 85
0.10490098 0.39891726 -0.83457071 93 86 102
0.10451536 0.3990061 -0.83400744 90 82 96
0.10481189 0.39801466 -0.83377117 90 83 99
0.10453152 0.3997972 -0.83460748 93 84 98
0.10505746 0.39659658 -0.83344632 84 80 95
0.10586181 0.39790812 -0.8361811 89 85 101
0.10563589 0.39707237 -0.8351382 85 82 98
0.10533571 0.39955863 -0.83586723 97 90 107
0.10609733 0.39695558 -0.83619601 84 83 98
0.10550736 0.39280006 -0.83273411 92 86 106
0.10649036 0.39402565 -0.83594036 91 87 104
0.10610823 0.39414424 -0.83493781 89 86 103
0.10626807 0.39470568 -0.83560759 88 85 102
0.10635072 0.39351952 -0.83534878 92 88 106
0.10617849 0.39541847 -0.83565336 85 83 100
0.10579277 0.39449826 -0.83422953 87 84 101
0.10565587 0.39368922 -0.83350998 89 85 104
0.10548943 0.39640033 -0.83439481 83 80 95
0.10543662 0.39280978 -0.83255589 92 86 106
0.10508218 0.39534786 -0.83289939 86 81 98
0.10579762 0.39608201 -0.83499557 83 81 97
0.10684582 0.39108592 -0.83613026 93 87 108
0.10683138 0.3912884 -0.83611101 94 87 108
0.1064766 0.3916572 -0.83508676 93 86 105
0.10617872 0.39230508 -0.83442384 94 88 107
0.10563858 0.3920486 -0.83287615 91 85 105
0.10606405 0.39207202 -0.83405215 93 86 106
0.10603455 0.39255819 -0.83408844 95 89 108
0.10345715 0.42992651 -0.85186648 92 86 102
0.10310443 0.42920735 -0.85089254 86 80 96
0.10326576 0.42873034 -0.85082668 88 82 98
0.10265926 0.42788622 -0.84942484 82 75 91
0.10317846 0.42821562 -0.85037893 87 81 97
0.10372194 0.42825478 -0.85135186 92 88 103
0.10343622 0.42449427 -0.84891212 99 90 111
0.10284843 0.4258796 -0.84872246 89 81 100
0.10232837 0.42681283 -0.84841597 81 73 90
0.10297549 0.42636028 -0.84913355 89 81 99
0.10234118 0.42630318 -0.84819263 84 75 93
0.10463021 0.42474774 -0.85155892 83 79 95
0.10444731 0.42387295 -0.85074037 85 80 97
0.1045965 0.4242022 -0.85122162 83 79 95
0.1039103 0.42522243 -0.85023743 96 90 109
0.10466619 0.42536908 -0.85193789 84 80 95
0.10371868 0.4267934 -0.85056829 94 89 106
0.10379087 0.4256942 -0.85020721 98 92 111
0.10387035 0.4237943 -0.84945256 95 88 108
0.10449854 0.4233017 -0.85045403 84 78 95
0.10443307 0.42131227 -0.84870708 82 71 90
0.10412302 0.42148185 -0.84820688 88 76 97
0.10516696 0.42249152 -0.85132515 74 67 83
0.10524228 0.42032114 -0.84987718 71 58 78
0.10541063 0.42205471 -0.85163319 71 63 80
0.10500048 0.42066601 -0.84950435 73 62 80
0.10509949 0.42310601 -0.85161412 74 69 84
0.10493105 0.42135641 -0.84984565 74 65 82
0.10722839 0.41723266 -0.85159165 102 95 119
0.1072898 0.41675121 -0.8511073 110 104 130
0.10635398 0.41722244 -0.84943628 100 89 116
0.10651565 0.4178493 -0.85048765 93 82 107
0.10632599 0.41697598 -0.84910238 103 92 120
0.10669702 0.41692922 -0.84987861 106 97 124
0.10600207 0.41910759 -0.85065585 76 62 85
0.10513578 0.41983324 -0.84919572 73 59 79
0.10613189 0.41904488 -0.85092616 76 62 85
0.10555986 0.41917923 -0.84957606 79 65 87
0.10600623 0.41982999 -0.85147554 67 51 72
0.10585522 0.41735053 -0.8483035 101 90 116
0.10695589 0.41479027 -0.8486883 104 95 117
0.10698486 0.41578975 -0.84937412 116 109 138
0.10692423 0.41463336 -0.84852022 101 92 114
0.10671394 0.41472021 -0.84810501 101 91 114
0.10768306 0.41286924 -0.84969985 83 73 85
0.10814883 0.41221181 -0.85132045 79 68 79
0.10787256 0.41321898 -0.85075814 88 79 93
0.1077185 0.41554618 -0.85158569 111 109 130
0.10782668 0.41331068 -0.85061592 88 80 94
0.10794193 0.41250303 -0.8506 81 70 82
0.10742684 0.41316891 -0.8487435 86 76 90
0.10746397 0.41472504 -0.84988517 105 98 120
0.10780632 0.40957612 -0.84857935 82 73 86
0.10778585 0.40893131 -0.84819084 83 75 89
0.10799952 0.41109875 -0.85013211 80 69 81
0.10802387 0.41015598 -0.84980208 82 72 85
0.10812266 0.41156545 -0.85088837 80 68 80
0.10781369 0.41042265 -0.84900385 80 70 82
0.10802606 0.4084695 -0.84866071 86 77 93
0.1089512 0.41020083 -0.85190696 88 75 93
0.10818239 0.40918332 -0.84952098 85 76 91
0.10839088 0.40902868 -0.84984934 87 77 94
0.108936 0.41002423 -0.851744 88 75 94
0.10860153 0.40920827 -0.85042971 88 77 94
0.11079578 0.40596524 -0.85181326 98 90 114
0.11016765 0.4068664 -0.85149729 99 88 112
0.11024143 0.40667707 -0.85143888 99 89 113
0.10994817 0.40578842 -0.8499037 102 95 118
0.11013509 0.4054755 -0.84993541 103 96 119
0.10993849 0.405056 -0.84909594 104 99 122
0.1095938 0.40819201 -0.85178143 96 82 107
0.10943696 0.40609854 -0.84918177 100 93 115
0.1086281 0.408144 -0.84967828 90 80 99
0.10937274 0.40755007 -0.85061681 96 85 108
0.10866024 0.40704167 -0.84855306 93 86 104
0.10957743 0.40658355 -0.85000521 100 91 114
0.10948098 0.4078761 -0.85119981 96 84 107
0.1108845 0.40302214 -0.84896332 110 105 132
0.11127341 0.40408489 -0.85071486 104 99 123
0.11095447 0.40411177 -0.85011077 104 100 124
0.11085955 0.40257189 -0.84849697 112 107 135
0.11136961 0.40394956 -0.85094953 103 98 123
0.11143935 0.40095705 -0.84858328 114 109 141
0.11145625 0.40047538 -0.84823525 116 110 143
0.11166567 0.40300754 -0.8518545 99 90 118
0.11166774 0.40193924 -0.85087103 103 95 125
0.11161562 0.40130669 -0.84996802 108 100 132
0.11147948 0.40334445 -0.85104978 102 97 123
0.11170074 0.40113306 -0.85031772 106 97 129
0.11180513 0.39735401 -0.85142881 122 116 148
0.11188478 0.39800063 -0.85171765 117 108 142
0.11169693 0.39775777 -0.85016775 123 116 148
0.11151742 0.39679363 -0.84918267 133 129 160
0.11164313 0.39676255 -0.85035098 129 125 157
0.11182419 0.39703321 -0.85182005 123 117 150
0.11164818 0.40017346 -0.84933281 112 104 137
0.11156392 0.39819247 -0.84903371 125 118 150
0.11160763 0.39907825 -0.84920359 119 111 144
0.11156326 0.39937159 -0.8489064 118 112 144
0.11146598 0.4003588 -0.8482185 116 110 144
0.11178821 0.39578494 -0.85168147 126 125 155
0.11163615 0.39287508 -0.84952581 127 137 159
0.11171262 0.39531523 -0.85086322 127 128 156
0.11172704 0.3951728 -0.85095912 127 128 156
0.11176689 0.39339793 -0.85086578 126 132 158
0.1117796 0.39292085 -0.85085911 125 133 158
0.11159354 0.39619762 -0.85001093 132 129 160
0.1115908 0.39447972 -0.84952825 129 134 158
0.11144534 0.39548996 -0.84846985 135 136 163
0.11141332 0.3952513 -0.84811401 135 137 163
0.11144465 0.39632306 -0.8486855 136 134 163
0.11166746 0.39550608 -0.85050124 129 129 157
0.11214016 0.38992968 -0.85097396 137 134 168
0.11196172 0.39103529 -0.85055137 130 131 162
0.11210276 0.39071095 -0.85157984 133 134 166
0.11202909 0.39009854 -0.85005468 135 132 165
0.11222809 0.38907963 -0.85079652 141 136 171
0.11198411 0.39118659 -0.8509708 130 132 162
0.11166031 0.39205986 -0.84902966 129 137 160
0.11183015 0.39186352 -0.85035115 128 133 160
0.1119126 0.39212269 -0.85143161 125 131 159
0.11193868 0.39106342 -0.85036027 130 131 162
0.11173334 0.39083275 -0.84818298 134 137 163
0.10797951 0.38510385 -0.85164005 99 94 117
0.11216661 0.38589811 -0.84919792 146 142 178
0.11208743 0.3851158 -0.84951013 144 140 176
0.11208007 0.3850714 -0.84972727 144 140 176
0.11217199 0.38612112 -0.85030842 144 140 176
0.11223396 0.38691133 -0.8512491 144 138 175
0.11208473 0.38518196 -0.85013896 143 139 175
0.11216423 0.38688192 -0.84932166 145 139 175
0.11209473 0.38571382 -0.84841156 145 141 176
0.11232346 0.3884328 -0.85121268 145 138 175
0.11205238 0.38670164 -0.84814996 143 138 173
0.1121669 0.38633654 -0.84925497 146 141 176
0.10705949 0.38415524 -0.85182106 92 87 106
0.10670105 0.38194841 -0.85170311 91 85 103
0.10698547 0.38286772 -0.85146689 93 87 106
0.10715923 0.3811039 -0.85048455 104 98 118
0.10975357 0.38190708 -0.8516295 120 116 147
0.10864861 0.38108617 -0.8507064 116 111 137
0.10954433 0.38260669 -0.85169262 117 113 143
0.10874658 0.38327044 -0.8513757 112 107 134
0.10860214 0.38291177 -0.85118508 112 107 133
0.10800929 0.38134643 -0.85037684 112 107 130
0.10749432 0.38311619 -0.85071623 101 96 117
0.10744684 0.38178039 -0.8502146 107 101 122
0.11162654 0.38123634 -0.85179359 133 132 168
0.11194383 0.38408995 -0.85192299 137 134 171
0.11175255 0.38218793 -0.8495816 133 132 163
0.11173177 0.38214096 -0.85131609 134 132 167
0.11177297 0.38255724 -0.85190201 135 133 169
0.11178613 0.38250038 -0.84972519 134 132 164
0.11188727 0.38335124 -0.84959853 138 135 168
0.11185689 0.38297087 -0.84861475 138 136 168
0.11202855 0.38438341 -0.84816527 145 142 176
0.11203582 0.38451731 -0.84875107 144 141 176
0.11190572 0.38344714 -0.84909397 139 137 170
0.11192637 0.3836455 -0.84927207 139 137 171
0.10700449 0.38034362 -0.8504234 105 99 120
0.10728792 0.38079557 -0.85010487 108 102 123
0.10696132 0.37860367 -0.84955883 114 111 133
0.10612 0.37891138 -0.85171223 95 91 110
0.10665298 0.37824878 -0.85011971 110 107 128
0.10692071 0.37731811 -0.84905249 121 119 143
0.1064255 0.37795502 -0.85054165 107 104 125
0.10653732 0.37840694 -0.85047174 107 103 124
0.10590637 0.37770349 -0.85169178 99 95 114
0.10801237 0.37977895 -0.84969062 119 116 141
0.10800387 0.37936801 -0.84947503 122 119 144
0.10758208 0.37940615 -0.84922934 119 116 140
0.108352 0.3792707 -0.84964412 124 122 149
0.1094165 0.37991983 -0.85064548 125 124 154
0.10989335 0.37950945 -0.85072482 129 129 160
0.10942452 0.37903565 -0.85018837 130 130 159
0.10917536 0.37850192 -0.84951442 132 132 160
0.11038449 0.3793819 -0.85067189 132 132 163
0.11075928 0.3788054 -0.84832054 138 138 166
0.10833329 0.37782654 -0.84850878 132 132 159
0.10933882 0.37843242 -0.84906948 133 133 161
0.10954238 0.37821239 -0.84808934 136 136 162
0.11155002 0.38072911 -0.85013413 131 131 163
0.11156365 0.38072744 -0.8487612 131 131 160
0.11153403 0.38050288 -0.84866244 132 132 161
0.10552666 0.37532285 -0.85069251 100 96 115
0.10505591 0.37332559 -0.8510862 101 98 115
0.10544726 0.37536886 -0.8512547 100 96 114
0.10540139 0.37531444 -0.85147464 100 96 114
0.10552228 0.37397718 -0.84897763 102 98 116
0.1052777 0.37317204 -0.84948325 102 99 116
0.10596254 0.37466145 -0.8486684 109 106 126
0.10677452 0.37662458 -0.84887916 121 120 143
0.10578462 0.37671265 -0.85138482 101 98 117
0.10622615 0.37578088 -0.84927356 112 110 130
0.10631498 0.37549916 -0.84874392 114 112 133
0.106125 0.37680972 -0.85066497 108 105 126
0.10446611 0.36970919 -0.85013068 90 84 104
0.10426337 0.36949098 -0.85135031 88 83 100
0.10465422 0.37004101 -0.84918588 93 85 107
0.104564 0.37058279 -0.85065103 93 87 106
0.10463507 0.37129509 -0.85114139 95 90 109
0.10520907 0.37245747 -0.84894747 101 96 114
0.10520746 0.37211367 -0.84848636 100 95 114
0.10510553 0.37216958 -0.84920824 100 95 113
0.10516426 0.37271777 -0.84958816 101 97 115
0.10485929 0.37070656 -0.84876114 95 88 110
0.10484222 0.37051842 -0.84861118 95 88 109
0.10340804 0.36601862 -0.8499583 74 71 86
0.10336177 0.36585176 -0.84968758 74 71 86
0.10330566 0.3654882 -0.8499614 73 71 85
0.10426093 0.36856943 -0.85002172 86 79 99
0.10451168 0.36887541 -0.84857422 89 80 103
0.10404798 0.36815608 -0.85102487 83 77 95
0.10427682 0.36900231 -0.85053897 87 81 100
0.10368751 0.36653876 -0.85130554 74 71 87
0.10430915 0.36826399 -0.84910828 85 78 99
0.10381475 0.36698508 -0.85049903 77 72 90
0.10353145 0.36666098 -0.84973049 75 71 87
0.10345265 0.36297512 -0.85151094 70 61 80
0.10337266 0.36266533 -0.84943748 70 63 81
0.10340045 0.3637706 -0.85123438 70 64 81
0.10337992 0.36164999 -0.84850127 70 61 81
0.10339359 0.36329031 -0.85056722 70 63 81
0.10335474 0.36364633 -0.85013539 70 64 81
0.10331579 0.36451712 -0.85031682 71 67 83
0.10330005 0.36344767 -0.84887064 71 66 83
0.10317995 0.36488169 -0.84809268 75 72 87
0.10321902 0.36433116 -0.84825629 74 70 86
0.10345316 0.36091536 -0.84824967 71 61 83
0.1036982 0.35959905 -0.84812838 75 65 90
0.10360768 0.3605051 -0.8497476 72 61 85
0.10402896 0.3581008 -0.84865451 79 70 97
0.10363678 0.36000901 -0.84849912 74 64 88
0.10373951 0.36017001 -0.8515923 73 62 86
0.10368953 0.36049864 -0.8515411 72 61 84
0.10406256 0.35792974 -0.84928662 80 71 97
0.10401569 0.35828689 -0.8503502 78 70 95
0.10382455 0.35954627 -0.85021341 75 64 90
0.10350584 0.35501125 -0.85091311 76 67 92
0.10343557 0.35473135 -0.85104668 76 67 91
0.103338 0.35467133 -0.85165799 75 67 89
0.10393485 0.35669756 -0.85026085 79 72 97
0.10405334 0.35712397 -0.84941268 80 72 99
0.10407006 0.35713223 -0.85156387 79 73 97
0.10382707 0.35611728 -0.84844834 79 68 98
0.10373501 0.35575449 -0.84879839 78 67 97
0.10354636 0.35526592 -0.85131681 77 69 92
0.10351706 0.35484886 -0.84929782 77 65 94
0.10317179 0.3530907 -0.84944868 71 59 86
0.10320914 0.35277355 -0.84923863 70 59 85
0.10320842 0.35311478 -0.84913951 72 59 87
0.10078049 0.39714834 -0.82813585 81 73 85
0.10076039 0.39653996 -0.82785541 81 74 87
0.10067236 0.39733744 -0.82806456 80 72 84
0.10217807 0.39376754 -0.82809502 81 75 90
0.10148725 0.39556572 -0.82828969 83 77 91
0.10153972 0.39303008 -0.8270368 77 71 86
0.10296233 0.3929106 -0.82848525 81 76 92
0.10112245 0.39477563 -0.82749468 80 74 87
0.10040941 0.39523292 -0.82687092 78 71 83
0.10064347 0.39536184 -0.8272441 80 73 86
0.1032475 0.39189559 -0.82838488 79 73 89
0.10171315 0.39232847 -0.82691532 76 70 85
0.10188155 0.42134169 -0.8439011 82 73 91
0.10290291 0.41637915 -0.842821 79 65 81
0.10271031 0.41828302 -0.84330243 85 75 93
0.10284089 0.41824758 -0.84354115 86 77 95
0.10347527 0.41602743 -0.84377873 84 71 88
0.10300771 0.41736478 -0.84346902 84 73 91
0.10325506 0.41586387 -0.84324598 81 68 84
0.10332234 0.41358027 -0.84190315 83 70 91
0.10296954 0.41387174 -0.84140331 79 65 84
0.1029338 0.41307914 -0.84083676 81 67 87
0.10398677 0.41252404 -0.84228593 84 71 93
0.10370432 0.41402033 -0.84286553 85 72 93
0.10424192 0.41407534 -0.84367937 83 70 89
0.10409802 0.41374961 -0.84325612 83 71 91
0.10485511 0.4133271 -0.84407204 80 67 86
0.10407201 0.41201708 -0.84205699 84 71 93
0.10511488 0.41205144 -0.84359443 78 66 86
0.10482103 0.40984863 -0.84139973 80 68 84
0.10406148 0.41015452 -0.84051567 83 71 90
0.10528553 0.41087449 -0.84290344 77 65 83
0.10506137 0.41157198 -0.84312469 78 66 85
0.10559081 0.40976137 -0.84279281 79 68 83
0.10555317 0.40875059 -0.84200633 80 69 83
0.1052262 0.40842521 -0.84106588 80 68 82
0.10610008 0.40998179 -0.84405798 80 69 84
0.10584743 0.40874583 -0.84264523 81 69 83
0.1063565 0.40896511 -0.84390926 82 71 84
0.10723951 0.40573707 -0.84404862 90 82 101
0.10617705 0.40437585 -0.84097707 83 73 88
0.10716607 0.40531504 -0.84362549 90 81 101
0.10703036 0.40527514 -0.84330881 89 80 99
0.10608535 0.40518489 -0.8412025 81 71 84
0.10619406 0.40528226 -0.84149051 82 72 86
0.10574104 0.40705302 -0.84143138 81 70 83
0.10645903 0.40807524 -0.84353489 83 72 84
0.10602151 0.40576303 -0.84136665 81 70 84
0.1066275 0.40796489 -0.84384471 83 72 84
0.10612421 0.40730402 -0.84239942 82 71 84
0.10645894 0.40801176 -0.84350139 83 72 84
0.10750242 0.40478623 -0.84410608 94 87 109
0.10609637 0.40419778 -0.84070063 83 73 88
0.10587698 0.40428585 -0.84027523 81 70 84
0.10671636 0.40371901 -0.84176558 91 82 102
0.10625977 0.40342641 -0.84059608 89 80 97
0.10600609 0.40415794 -0.84048015 83 72 87
0.1072492 0.40078437 -0.84115946 115 109 134
0.10685951 0.40134963 -0.84048593 108 101 124
0.10901753 0.40066451 -0.84396672 119 117 144
0.10786758 0.40281001 -0.84351277 106 101 125
0.1077653 0.40053344 -0.84193832 118 114 140
0.10831608 0.40161049 -0.84346431 113 109 135
0.10777663 0.40403947 -0.84413582 99 93 117
0.10745166 0.40371034 -0.84335512 98 90 114
0.10727869 0.39958742 -0.84045208 116 110 135
0.10755154 0.39967158 -0.84115106 117 112 137
0.1082428 0.39933607 -0.84205502 117 114 139
0.10848444 0.39864835 -0.84219754 116 113 137
0.10811958 0.3981173 -0.84137404 115 111 134
0.1078005 0.39758074 -0.84062696 113 109 131
0.10861559 0.39680883 -0.84187609 115 110 133
0.10916037 0.39737362 -0.84308952 118 113 137
0.10863904 0.39682803 -0.84192681 115 110 133
0.10956758 0.39713696 -0.84379995 119 115 139
0.10898846 0.39910474 -0.84327656 118 116 141
0.10938594 0.39693019 -0.84338987 118 114 137
0.10995527 0.39432129 -0.84368896 121 119 142
0.1097784 0.39295048 -0.84285986 120 118 142
0.10932972 0.39397824 -0.84219688 114 110 135
0.1096838 0.39328232 -0.84275693 119 116 140
0.10905095 0.39359882 -0.84145957 111 107 132
0.11018435 0.39286631 -0.84373009 125 124 147
0.10893793 0.39620101 -0.84228146 115 110 133
0.10892596 0.39613649 -0.84223217 115 110 133
0.10932931 0.39571407 -0.8428328 116 111 135
0.10871357 0.39462063 -0.84120393 111 107 130
0.10897127 0.39630157 -0.84238666 116 111 134
0.10869061 0.39630905 -0.84185135 115 110 132
0.11052624 0.3909761 -0.84391785 132 130 155
0.11046588 0.38937971 -0.8433997 134 131 157
0.11045667 0.39137036 -0.84390241 130 129 153
0.11032487 0.38897061 -0.84305376 132 129 156
0.11014669 0.38897604 -0.84275258 130 126 153
0.10930487 0.38932496 -0.84141409 117 113 139
0.10876985 0.39064321 -0.84043986 109 105 131
0.10944754 0.39059472 -0.84193558 117 114 140
0.10938331 0.39076081 -0.84179991 116 113 139
0.10919839 0.3911455 -0.84140563 114 111 136
0.1088549 0.38930926 -0.84057796 111 106 133
0.1093552 0.3906543 -0.84173375 116 113 138
0.11032677 0.38528767 -0.84243757 138 135 161
0.11035944 0.38502905 -0.84246546 139 137 162
0.11100632 0.38616675 -0.84381372 148 146 174
0.11104704 0.38774896 -0.84409064 145 143 170
0.11081975 0.3864207 -0.84349889 144 142 169
0.11026125 0.38686585 -0.84251642 133 130 154
0.10969074 0.38844222 -0.84185249 124 120 146
0.10993154 0.38748041 -0.84206569 128 124 149
0.11046228 0.38750815 -0.84297252 135 132 157
0.11033524 0.38761672 -0.84277892 133 130 155
0.11009696 0.38118786 -0.84323126 134 131 159
0.11095825 0.38411751 -0.84368813 150 149 178
0.11049488 0.38156796 -0.84407026 141 138 167
0.11011276 0.38206053 -0.84271139 135 132 160
0.11030498 0.38416591 -0.84240472 138 137 163
0.11051306 0.38350886 -0.84287292 142 141 169
0.11084212 0.38432935 -0.84338391 148 146 176
0.11021835 0.3834247 -0.84233493 137 135 162
0.1103537 0.38361958 -0.84256274 139 138 165
0.10971185 0.37855849 -0.84341729 133 129 156
0.10959657 0.37713295 -0.84411782 132 127 153
0.10999134 0.3792558 -0.84398359 135 131 159
0.10892017 0.37709454 -0.84139365 128 123 150
0.10917129 0.37781698 -0.84182376 130 125 153
0.10915721 0.37855229 -0.84138501 129 124 151
0.10889378 0.37813798 -0.84075743 126 122 148
0.10883055 0.37774363 -0.840671 127 122 149
0.10926047 0.37614623 -0.84358138 129 124 149
0.1090677 0.37521309 -0.84376734 133 127 153
0.10896327 0.37450004 -0.84413201 137 131 157
0.10860553 0.37386668 -0.843081 130 124 149
0.10892713 0.37664604 -0.84177864 127 122 148
0.10912642 0.37643668 -0.84275454 127 122 148
0.10813132 0.37087932 -0.84366369 109 96 124
0.10839052 0.37205052 -0.84379089 126 117 144
0.10848071 0.37291896 -0.84348923 135 128 154
0.10789157 0.36716303 -0.84297043 112 99 126
0.10794724 0.36606118 -0.84182608 129 119 145
0.10798705 0.36646003 -0.84328616 124 112 138
0.10791399 0.36721712 -0.84346521 112 98 125
0.10797244 0.36606342 -0.84226978 129 119 145
0.1080421 0.36297622 -0.84240484 145 135 163
0.10793815 0.36282286 -0.84344923 141 130 158
0.10814485 0.36496177 -0.8440612 144 134 158
0.10802775 0.36343044 -0.84324592 143 133 160
0.10804031 0.36410546 -0.84148353 144 136 163
0.10810891 0.36504173 -0.8429935 144 135 160
0.10810699 0.36514735 -0.84299558 143 135 159
0.10808086 0.36518958 -0.84255385 143 135 159
0.10810873 0.36466855 -0.84286547 144 135 161
0.10225543 0.44012141 -0.85580844 95 86 106
0.10238403 0.43848965 -0.85541517 94 87 105
0.10247672 0.43826357 -0.85543162 95 88 105
0.10278928 0.43613383 -0.85467184 91 87 103
0.10227008 0.43765745 -0.85473287 91 84 101
0.1021681 0.43716002 -0.8542698 89 81 98
0.10323055 0.43367893 -0.85379577 91 86 102
0.10297252 0.43270588 -0.85272539 87 80 96
0.10282046 0.43535495 -0.85424465 90 86 101
0.10261583 0.43376347 -0.85284877 85 78 94
0.1024272 0.43383873 -0.8525911 84 76 92
0.1027775 0.43182105 -0.85203099 85 77 93
0.10241209 0.43294907 -0.85209864 83 74 90
0.10390313 0.43227562 -0.85411602 88 84 99
0.10403708 0.43434316 -0.85572857 91 88 104
0.10472935 0.43171945 -0.85547394 80 77 91
0.10353824 0.43169561 -0.85298342 90 85 100
0.10360015 0.43480101 -0.855151 95 93 109
0.10349806 0.43027073 -0.85212094 92 86 102
0.10444223 0.43146947 -0.8547318 83 79 94
0.10366969 0.43074128 -0.85272378 90 85 100
0.10408043 0.43161646 -0.85406131 86 81 96
0.10403135 0.42907035 -0.85250765 92 87 103
0.10462952 0.43016446 -0.85436672 85 82 96
0.10456389 0.43002298 -0.85415024 86 82 97
0.10465717 0.42970872 -0.8542639 86 82 97
0.10512335 0.42914477 -0.85543483 81 75 94
0.10485648 0.42803231 -0.85420442 86 80 100
0.10432479 0.4284541 -0.85278249 92 88 104
0.10515427 0.42915046 -0.85552937 80 75 94
0.10532635 0.4284004 -0.85575014 80 73 94
0.10591173 0.42611623 -0.85584122 87 77 98
0.10538961 0.42552724 -0.85410869 80 74 92
0.10534494 0.42455497 -0.85329241 80 74 91
0.10577749 0.42388302 -0.85388708 87 79 95
0.10538452 0.4251096 -0.85379332 80 74 92
0.1047512 0.42659205 -0.85300696 85 81 98
0.1051465 0.42550057 -0.85345364 78 73 90
0.10521523 0.42573717 -0.85381758 78 72 91
0.10467344 0.4274675 -0.85336286 88 83 101
0.10467279 0.42556351 -0.85208237 84 80 95
0.10507438 0.42457417 -0.85261637 77 73 88
0.10716783 0.42056778 -0.85453492 86 69 99
0.10694838 0.42039406 -0.85395205 81 64 92
0.10642842 0.42138147 -0.85365289 79 64 85
0.10552877 0.4222815 -0.85210747 72 64 80
0.10616113 0.42248902 -0.85383874 83 71 89
0.10599527 0.42084271 -0.85223407 69 55 75
0.10619904 0.42240235 -0.85387087 83 70 89
0.10596734 0.42296278 -0.85369658 83 73 90
0.10591426 0.42279375 -0.85344166 81 71 88
0.10728531 0.41797188 -0.85250759 95 86 111
0.10699262 0.41804808 -0.85197848 90 81 103
0.10711714 0.41805455 -0.85223883 92 82 106
0.10685507 0.41852131 -0.85212636 85 74 97
0.10744371 0.41855797 -0.85339308 95 83 112
0.10758693 0.41659451 -0.85203993 110 106 130
0.10798641 0.41870555 -0.85554916 101 91 125
0.10795493 0.41662547 -0.85348994 112 109 135
0.10785276 0.41880056 -0.85505044 102 90 125
0.10802095 0.41733149 -0.85443175 108 103 131
0.10814468 0.41815782 -0.85573792 103 95 127
0.10807377 0.41851765 -0.85575902 101 92 125
0.10868052 0.41324326 -0.85407513 94 86 107
0.10860559 0.41427645 -0.85455179 99 95 116
0.10886048 0.41347295 -0.85487235 100 92 117
0.10871215 0.41237411 -0.85356379 90 78 99
0.10868771 0.412536 -0.85359383 90 80 100
0.10844687 0.41218996 -0.85249925 83 71 86
0.10786489 0.4159807 -0.85250908 115 115 138
0.10834442 0.41409072 -0.8533929 96 91 108
0.10846378 0.41468555 -0.85430092 100 97 117
0.10805571 0.41463521 -0.85247743 102 98 117
0.1079144 0.41579738 -0.85260797 113 112 135
0.10831244 0.41328257 -0.85273057 89 81 97
0.11093047 0.40867731 -0.85568482 99 88 113
