ply
format ascii 1.0
comment PCL generated
element vertex 1055
property float x
property float y
property float z
property uchar red
property uchar green
property uchar blue
element camera 0
property float view_px
property float view_py
property float view_pz
property float x_axisx
property float x_axisy
property float x_axisz
property float y_axisx
property float y_axisy
property float y_axisz
property float z_axisx
property float z_axisy
property float z_axisz
property float focal
property float scalex
property float scaley
property float centerx
property float centery
property int viewportx
property int viewporty
property float k1
property float k2
end_header
-0.22911544 -0.3122125 -0.87711084 81 50 44
-0.22853974 -0.31363672 -0.8776195 82 50 44
-0.22954832 -0.31123608 -0.87614709 81 51 46
-0.22984792 -0.31071484 -0.87781346 82 50 45
-0.22917455 -0.31197408 -0.87545717 81 51 46
-0.22960182 -0.31115627 -0.87665474 82 50 46
-0.22836487 -0.31417343 -0.87753791 81 50 44
-0.22789808 -0.31616974 -0.87889796 77 46 40
-0.22740363 -0.31787074 -0.8763302 76 45 39
-0.22762571 -0.31725791 -0.87914163 73 43 36
-0.22733888 -0.31812152 -0.87630087 76 45 38
-0.22800305 -0.3156935 -0.8781817 80 48 42
-0.22786978 -0.31588727 -0.87541866 78 48 40
-0.22764586 -0.31681314 -0.87558818 77 47 40
-0.2280722 -0.31520581 -0.87649792 79 49 42
-0.22789097 -0.31593764 -0.87649649 79 48 41
-0.22758415 -0.31713662 -0.87617648 78 47 40
-0.22484347 -0.32221198 -0.87682754 59 37 41
-0.22577745 -0.32083684 -0.8765102 66 40 39
-0.22607452 -0.3206937 -0.8769241 68 40 37
-0.22540285 -0.32176989 -0.87734449 64 38 38
-0.22588086 -0.32216334 -0.87913436 67 37 32
-0.22633842 -0.32030761 -0.87682509 70 41 37
-0.22625034 -0.32005906 -0.87617803 70 42 39
-0.22631095 -0.32104033 -0.87829328 69 39 33
-0.22676216 -0.31976485 -0.87696326 73 42 36
-0.22719981 -0.31856343 -0.87625366 75 44 37
-0.22726347 -0.31857052 -0.87910134 70 40 33
-0.22677101 -0.31978452 -0.87766206 71 41 35
-0.22499242 -0.32230777 -0.87733972 60 36 39
-0.22540307 -0.3223106 -0.87829542 63 36 35
-0.22443296 -0.32327726 -0.8773495 56 34 36
-0.22435859 -0.32452968 -0.87926823 57 31 26
-0.22430146 -0.32452312 -0.87897265 56 31 27
-0.22413503 -0.32388049 -0.8770299 53 33 35
-0.22389698 -0.32514396 -0.87761039 52 30 28
-0.22392932 -0.32497811 -0.87757242 52 30 29
-0.22380331 -0.32575426 -0.8783294 50 28 24
-0.22290774 -0.33000857 -0.87559807 58 27 23
-0.22295202 -0.32986221 -0.87623924 58 27 23
-0.22325845 -0.32867017 -0.87915611 54 27 23
-0.22319025 -0.3287527 -0.87695855 55 26 23
-0.22343302 -0.32765672 -0.87798643 52 26 22
-0.2235443 -0.3269887 -0.87771314 52 27 22
-0.22366744 -0.32629865 -0.87770104 53 29 22
-0.22363332 -0.32648453 -0.87768269 53 28 22
-0.22332069 -0.32779178 -0.87589306 58 30 24
-0.22347496 -0.3271428 -0.87676024 55 29 23
-0.22162785 -0.3336845 -0.87766397 51 26 26
-0.22195002 -0.33237249 -0.87664002 54 26 25
-0.22182664 -0.33151481 -0.87540942 55 26 23
-0.22169709 -0.33347836 -0.87756342 52 26 26
-0.22186805 -0.33222264 -0.87632775 54 26 24
-0.22183478 -0.33208331 -0.87610656 54 26 24
-0.22189501 -0.33161536 -0.87564045 55 26 23
-0.22264585 -0.33207127 -0.87774211 55 27 27
-0.22286163 -0.33049339 -0.87686974 57 27 24
-0.22281981 -0.33068714 -0.87632644 57 27 25
-0.22251193 -0.3331708 -0.87904835 53 27 28
-0.22251225 -0.33307967 -0.87848169 53 27 28
-0.22085094 -0.33610073 -0.87903863 48 25 23
-0.22089155 -0.33514771 -0.87800664 49 26 23
-0.22131461 -0.33496973 -0.87854224 49 26 25
-0.22052701 -0.3368023 -0.87927145 45 23 21
-0.22067668 -0.33425733 -0.87659752 49 26 22
-0.22047754 -0.33412459 -0.87601697 47 25 20
-0.21948342 -0.33727103 -0.87632889 44 22 17
-0.21973859 -0.33771265 -0.87841845 39 19 15
-0.21990666 -0.33589673 -0.87645769 43 22 17
-0.2198796 -0.33667848 -0.87754858 40 21 16
-0.21917692 -0.33784238 -0.87556416 47 22 17
-0.21961905 -0.33631575 -0.87555462 46 23 18
-0.21749537 -0.34003532 -0.87750381 45 19 13
-0.21718279 -0.34075209 -0.87847823 45 19 13
-0.21824199 -0.33973011 -0.87912673 42 19 13
-0.21736476 -0.34037766 -0.87803125 45 19 13
-0.21904114 -0.33876118 -0.87906039 39 19 14
-0.21721308 -0.34049052 -0.87784439 46 19 13
-0.21720783 -0.34046912 -0.87776697 46 19 13
-0.21870381 -0.33834636 -0.87567413 47 22 16
-0.21909383 -0.33813378 -0.87658012 44 21 16
-0.21935204 -0.33798543 -0.87713641 43 21 16
-0.21927066 -0.33811447 -0.87743288 42 20 15
-0.21619785 -0.34087056 -0.876459 41 17 11
-0.21489389 -0.34132835 -0.8757295 24 10 6
-0.21645392 -0.34116352 -0.87757677 45 18 12
-0.21631686 -0.34107882 -0.8771621 43 18 11
-0.21665616 -0.34070328 -0.87669921 47 20 12
-0.2160223 -0.34382838 -0.87786663 38 16 12
-0.21581556 -0.34421065 -0.87846023 35 15 11
-0.21628438 -0.3426452 -0.87895083 43 17 12
-0.21547531 -0.34494704 -0.87915558 31 14 10
-0.21581431 -0.34417176 -0.87857229 35 15 11
-0.21422632 -0.34200579 -0.87580752 16 7 4
-0.21529871 -0.34191641 -0.87742782 30 12 8
-0.21564475 -0.34529957 -0.87558335 32 14 12
-0.21579535 -0.34472701 -0.87619942 34 15 12
-0.21426682 -0.34189689 -0.87594193 16 7 4
-0.21537921 -0.34320688 -0.87664944 30 13 9
-0.21556014 -0.34336236 -0.87680453 32 14 10
-0.21346702 -0.34741363 -0.87876427 28 15 16
-0.21387412 -0.34718674 -0.87746555 28 14 14
-0.21464542 -0.34622994 -0.87929326 27 13 12
-0.21293728 -0.34802243 -0.87790257 29 15 18
-0.21299493 -0.34797731 -0.87782425 29 15 17
-0.2142438 -0.34697199 -0.87635607 30 14 14
-0.21382879 -0.34735399 -0.87645429 30 14 14
-0.21463701 -0.34652311 -0.87697136 29 14 13
-0.21531197 -0.34585947 -0.8771565 30 14 11
-0.21430242 -0.34676734 -0.87756968 28 13 12
-0.21178994 -0.34938997 -0.87658721 30 16 17
-0.21202619 -0.34911966 -0.8766697 30 15 17
-0.21210633 -0.34893966 -0.87728333 29 15 17
-0.21241966 -0.34843653 -0.87878734 28 16 18
-0.2121771 -0.34867272 -0.87887079 28 16 18
-0.28508779 -0.13384029 -0.89732194 90 80 102
-0.28448865 -0.13392113 -0.89578283 91 79 102
-0.28511328 -0.13387907 -0.89735085 90 80 102
-0.28516573 -0.133691 -0.89764231 91 81 103
-0.2873098 -0.13820547 -0.89726055 81 70 84
-0.28744793 -0.13844535 -0.89740723 80 69 84
-0.28727892 -0.13753344 -0.89868671 82 72 86
-0.28647712 -0.13575044 -0.89879173 84 74 92
-0.28701618 -0.13694631 -0.89872026 83 73 88
-0.28618109 -0.13521633 -0.89853764 85 75 93
-0.28702015 -0.13697837 -0.898664 83 73 88
-0.2864081 -0.13730961 -0.89553577 81 70 87
-0.28533906 -0.13489956 -0.8969146 86 75 95
-0.28590569 -0.13500531 -0.89812839 85 75 94
-0.28531948 -0.13598353 -0.89506751 85 72 93
-0.28554228 -0.13482459 -0.89753735 86 75 95
-0.28496999 -0.13484988 -0.89609218 87 75 96
-0.28484255 -0.13487382 -0.89573991 87 75 96
-0.29110286 -0.14186443 -0.89655501 77 52 58
-0.29238644 -0.14212058 -0.89784831 77 51 54
-0.29153129 -0.14221154 -0.8962633 77 51 56
-0.29104149 -0.14116128 -0.89859599 77 54 61
-0.29288739 -0.14246163 -0.89761758 77 50 51
-0.29230151 -0.14192636 -0.89828837 77 52 55
-0.28849909 -0.13933741 -0.89772826 79 65 77
-0.28900075 -0.13957509 -0.8986851 80 64 75
-0.28801435 -0.13915892 -0.89645278 79 65 78
-0.28773242 -0.13904493 -0.89578074 78 66 79
-0.28750727 -0.13888952 -0.89568567 79 66 81
-0.29094133 -0.1418055 -0.89632618 77 52 58
-0.28872156 -0.13984138 -0.89603359 78 62 72
-0.29011315 -0.1406422 -0.89755368 77 57 66
-0.28871381 -0.14011614 -0.89515799 78 61 71
-0.28918713 -0.14020059 -0.89625853 77 60 70
-0.29099458 -0.14118828 -0.89839596 77 54 61
-0.29061916 -0.14083628 -0.898408 77 56 63
-0.28932098 -0.14057213 -0.89549035 77 58 68
-0.29609796 -0.14609858 -0.89849573 72 43 39
-0.29578876 -0.14636324 -0.89801681 72 43 40
-0.29574963 -0.14486358 -0.89882165 74 45 41
-0.29436776 -0.14515656 -0.89692235 73 45 42
-0.29483354 -0.14470442 -0.89789355 74 45 43
-0.29463881 -0.1446967 -0.89759856 74 45 43
-0.29460269 -0.14363059 -0.89829814 76 47 44
-0.29425648 -0.14307308 -0.89859754 77 48 46
-0.29370841 -0.14305501 -0.89812768 77 49 48
-0.29361182 -0.14483982 -0.89643413 73 45 43
-0.29350448 -0.14351571 -0.89741474 76 48 47
-0.29341885 -0.1442045 -0.89668667 75 47 46
-0.29211295 -0.1436796 -0.89512879 76 48 50
-0.29291847 -0.14355724 -0.89647585 76 48 48
-0.29377133 -0.14337517 -0.89794749 76 48 47
-0.29554394 -0.14760673 -0.89621246 72 42 39
-0.29575801 -0.14798498 -0.89594322 72 42 38
-0.29578841 -0.1487755 -0.89496309 71 42 36
-0.29563177 -0.14723353 -0.89674401 72 42 40
-0.29687664 -0.14867823 -0.89610571 72 42 36
-0.29585677 -0.14729337 -0.89688909 72 42 39
-0.2972039 -0.14768575 -0.89777583 72 42 36
-0.29774323 -0.14863573 -0.89702189 72 41 34
-0.29579693 -0.14732121 -0.89678639 72 42 39
-0.29849529 -0.14816198 -0.89827299 66 37 30
-0.29762942 -0.14757323 -0.89829558 69 40 33
-0.29828346 -0.14819753 -0.89805067 67 38 31
-0.29863957 -0.14961983 -0.89654386 70 40 31
-0.29491317 -0.14750388 -0.89570767 70 42 38
-0.29407045 -0.14664625 -0.89550853 71 42 40
-0.29853794 -0.1517081 -0.89498162 71 40 33
-0.2868841 -0.18857169 -0.89862865 54 29 20
-0.27956888 -0.20643827 -0.89512116 57 26 19
-0.27958557 -0.20687926 -0.89618897 54 25 17
-0.27944601 -0.20644616 -0.89584911 57 27 19
-0.28024641 -0.20798956 -0.89531636 42 18 11
-0.279423 -0.20703092 -0.89752477 54 25 16
-0.28041819 -0.20891304 -0.89763772 54 27 18
-0.27972472 -0.20789957 -0.89845216 54 26 17
-0.28073651 -0.20896205 -0.89510965 34 13 6
-0.27585086 -0.20807736 -0.89767206 54 26 18
-0.27539694 -0.20881453 -0.89834863 53 26 18
-0.27670863 -0.20700909 -0.89703441 53 25 18
-0.27679422 -0.20861754 -0.89865881 54 25 17
-0.27757213 -0.20768036 -0.89821064 54 26 17
-0.27599555 -0.20694107 -0.89653867 53 26 19
-0.27759537 -0.20785151 -0.89839196 54 26 17
-0.27608481 -0.20742652 -0.89706713 54 26 18
-0.27730972 -0.20572844 -0.89496005 57 27 21
-0.27740836 -0.2063182 -0.89650923 54 26 19
-0.27795485 -0.20656431 -0.89711809 54 26 18
-0.27873415 -0.2062663 -0.89627367 58 28 20
-0.27927983 -0.20580646 -0.89501953 62 29 22
-0.27658015 -0.20613505 -0.89608741 53 26 19
-0.27385375 -0.2088321 -0.89629132 51 25 17
-0.2745336 -0.207414 -0.89566916 52 25 19
-0.27462301 -0.2087933 -0.89728737 52 26 17
-0.27514017 -0.2081479 -0.89728469 53 26 18
-0.27411765 -0.20773214 -0.89545321 51 25 18
-0.27398631 -0.20841788 -0.89602053 51 25 17
-0.27990517 -0.20965689 -0.89748108 51 26 17
-0.2794424 -0.21046461 -0.89563084 35 15 9
-0.28014156 -0.20942308 -0.89720339 50 24 16
-0.28068107 -0.20900118 -0.89558202 38 16 9
-0.27975219 -0.20996538 -0.89663017 44 21 13
-0.27675298 -0.21158776 -0.89720058 50 27 22
-0.27704966 -0.21220168 -0.89751947 59 33 29
-0.27734762 -0.21268837 -0.89614809 42 22 20
-0.27673343 -0.21148667 -0.89638931 38 19 14
-0.27684507 -0.21183348 -0.89801669 63 36 31
-0.27715397 -0.21245091 -0.89806569 68 39 35
-0.27916548 -0.21081182 -0.89497048 29 11 6
-0.277327 -0.21012543 -0.89659017 40 18 12
-0.27560222 -0.20910299 -0.8983224 52 26 17
-0.27777073 -0.21006612 -0.89632571 38 17 10
-0.27790418 -0.21135871 -0.89550978 31 14 10
-0.27885374 -0.21046054 -0.89578855 36 15 9
-0.27821127 -0.21001759 -0.89724982 48 23 15
-0.27825698 -0.20976853 -0.89872736 61 32 22
-0.27621362 -0.20934492 -0.89782226 49 23 15
-0.27631333 -0.20934595 -0.89797717 50 24 16
-0.27780035 -0.20976757 -0.89799696 54 27 18
-0.27459323 -0.21056111 -0.89882272 60 31 26
-0.27318424 -0.21011178 -0.89660919 56 29 23
-0.27342054 -0.2103873 -0.89718634 58 30 24
-0.27445546 -0.20988008 -0.89810789 57 29 22
-0.27393863 -0.21027359 -0.89777899 58 30 24
-0.27409232 -0.21095896 -0.89862853 62 33 28
-0.27505788 -0.20920044 -0.8982842 54 27 19
-0.2728515 -0.21140516 -0.89737189 62 34 30
-0.27262136 -0.21259026 -0.89776522 65 35 32
-0.27266905 -0.21266228 -0.89796537 66 36 33
-0.27242208 -0.21158916 -0.89632297 59 30 24
-0.27266505 -0.21236429 -0.89769602 65 35 31
-0.27227551 -0.21267609 -0.89683944 62 32 26
-0.2726166 -0.2097078 -0.89525789 52 26 18
-0.27744612 -0.21558289 -0.89771163 44 25 22
-0.27741379 -0.21582776 -0.89730191 40 22 20
-0.27747867 -0.2155679 -0.89796418 44 25 23
-0.27724522 -0.21599199 -0.89593405 37 19 16
-0.27736321 -0.21461305 -0.89776546 57 33 30
-0.27718827 -0.21670265 -0.89500725 27 12 9
-0.27726477 -0.21515805 -0.8962301 44 24 21
-0.27740437 -0.21383832 -0.89535481 32 16 14
-0.27729037 -0.21518393 -0.89551389 34 17 14
-0.27731809 -0.2140505 -0.89714694 57 33 29
-0.27203196 -0.21379186 -0.89725614 61 31 25
-0.27153701 -0.21506472 -0.89714599 57 28 20
-0.27174762 -0.21524006 -0.89793688 59 31 24
-0.27189085 -0.21553384 -0.89865589 61 33 27
-0.27238384 -0.21338309 -0.89784926 64 35 30
-0.27269897 -0.2133272 -0.89870238 68 38 35
-0.27130085 -0.21455693 -0.89630288 56 27 18
-0.26881093 -0.21656765 -0.89505029 65 37 29
-0.27140594 -0.21457377 -0.89645875 56 27 18
-0.27102655 -0.21622498 -0.89763021 58 30 23
-0.27044398 -0.21446094 -0.89507359 58 30 20
-0.27040929 -0.21584995 -0.89643484 59 32 23
-0.27039152 -0.21668659 -0.89725894 60 33 25
-0.27004096 -0.21630801 -0.89641219 61 33 25
-0.27449682 -0.21998601 -0.89523643 25 12 6
-0.27485403 -0.21995682 -0.89558709 25 12 6
-0.26987439 -0.21758886 -0.89700699 58 31 23
-0.26883408 -0.21823363 -0.89589274 58 31 23
-0.26855746 -0.21723256 -0.89512342 63 36 29
-0.26966533 -0.21805793 -0.89692003 56 29 22
-0.26870054 -0.2177348 -0.89551502 61 34 26
-0.2701396 -0.21758291 -0.89735496 57 30 23
-0.26779631 -0.22011197 -0.89555544 52 25 18
-0.26818371 -0.2199627 -0.89613634 52 25 17
-0.27002344 -0.21815233 -0.89757419 55 28 20
-0.26858139 -0.22066307 -0.89789623 54 26 17
-0.26960841 -0.21946092 -0.89843512 55 27 19
-0.26887068 -0.22053397 -0.89833128 55 26 17
-0.26916772 -0.21916576 -0.8971076 53 26 18
-0.26910394 -0.2199766 -0.89806932 55 26 18
-0.26844978 -0.2209865 -0.8980636 54 26 17
-0.26779693 -0.22087523 -0.89653468 52 24 16
-0.267995 -0.22072451 -0.89674431 52 24 16
-0.2674652 -0.22292726 -0.89875966 54 26 17
-0.26756784 -0.22105004 -0.89630151 51 24 16
-0.26663399 -0.22272286 -0.89743352 60 31 23
-0.2668834 -0.22130176 -0.89556694 55 27 20
-0.26695374 -0.22198215 -0.89681393 56 28 21
-0.26644906 -0.22206819 -0.89575744 56 28 21
-0.2649096 -0.22426276 -0.89498401 50 22 14
-0.26563838 -0.22431403 -0.89797407 65 35 28
-0.26495075 -0.22441992 -0.89552402 53 24 17
-0.26604339 -0.22240059 -0.89496189 51 24 17
-0.26556879 -0.22454298 -0.89825124 66 36 29
-0.26871482 -0.22803624 -0.89794445 55 26 15
-0.26925021 -0.22789338 -0.89675236 45 21 12
-0.2690455 -0.22780234 -0.89747858 52 25 14
-0.26981974 -0.22760904 -0.89573002 38 17 9
-0.27025333 -0.22666043 -0.89631063 47 21 12
-0.27131584 -0.2258561 -0.89561534 44 20 12
-0.27041233 -0.22677433 -0.89733315 54 27 17
-0.2710689 -0.2261616 -0.89633578 48 23 15
-0.27057976 -0.22693631 -0.89854288 62 33 24
-0.27040908 -0.22672176 -0.89708227 52 25 16
-0.26372936 -0.22708142 -0.89517736 52 23 16
-0.26387858 -0.22690403 -0.89546919 52 23 16
-0.26419753 -0.22740626 -0.89748609 54 26 19
-0.26518887 -0.22514614 -0.89777291 62 32 25
-0.26492599 -0.22596158 -0.89804018 60 31 24
-0.26475093 -0.22659409 -0.89836091 60 31 24
-0.26442462 -0.22728972 -0.8981874 56 28 22
-0.26482296 -0.22550608 -0.89690804 56 28 20
-0.26484019 -0.22631492 -0.89826643 60 31 25
-0.26251417 -0.22840691 -0.89517748 66 38 30
-0.26345867 -0.22766991 -0.89589375 55 26 20
-0.26302084 -0.22780082 -0.89502424 60 31 24
-0.26214844 -0.22885071 -0.89508772 68 40 33
-0.26149461 -0.2300477 -0.89556956 68 39 35
-0.26164871 -0.23008391 -0.8960622 66 37 33
-0.26237229 -0.22949979 -0.8969388 62 34 29
-0.26323265 -0.22868155 -0.89774567 58 30 25
-0.2628822 -0.22911341 -0.89760464 59 31 26
-0.26084837 -0.23120582 -0.89600027 68 39 37
-0.26222861 -0.23031619 -0.89760405 62 35 31
-0.26349685 -0.22906719 -0.89867711 56 28 23
-0.26036161 -0.23237096 -0.89613593 71 45 42
-0.26088828 -0.23165478 -0.89647973 68 41 38
-0.26140437 -0.23200747 -0.89736009 69 43 39
-0.25997621 -0.23258783 -0.89584446 72 45 43
-0.2616601 -0.23273994 -0.8983109 69 45 40
-0.25994059 -0.23291746 -0.89620167 72 46 43
-0.26037094 -0.23261358 -0.89641047 71 45 42
-0.26051125 -0.23290598 -0.89696002 71 45 42
-0.25976509 -0.23508228 -0.89862669 71 46 42
-0.25951976 -0.23430139 -0.89734113 71 45 42
-0.25942689 -0.23360381 -0.89630651 71 44 41
-0.25768599 -0.23626134 -0.89646089 72 44 41
-0.25773606 -0.23543715 -0.89536238 73 45 42
-0.25797945 -0.23629059 -0.89712322 71 44 41
-0.25903121 -0.23411502 -0.89616519 71 43 40
-0.25817764 -0.23569924 -0.89667767 71 44 41
-0.25897697 -0.23370744 -0.89545518 72 43 41
-0.25827071 -0.23520148 -0.89614689 72 44 41
-0.26756823 -0.23988132 -0.89678586 39 18 11
-0.26743189 -0.2388207 -0.89560604 39 18 11
-0.25596377 -0.23930183 -0.89726502 76 48 43
-0.25784779 -0.23753981 -0.89881629 71 44 40
-0.25650281 -0.23872864 -0.89756608 74 46 42
-0.25752184 -0.23771636 -0.89828247 72 44 40
-0.25588834 -0.24008198 -0.89867109 77 49 43
-0.25711182 -0.23790148 -0.89753455 72 45 41
-0.25720766 -0.23726456 -0.89659852 71 44 41
-0.2580919 -0.23656328 -0.89767909 70 43 40
-0.25742653 -0.23659669 -0.89631176 72 45 42
-0.25652769 -0.23767424 -0.89562219 73 45 42
-0.2546654 -0.23998639 -0.89532584 72 42 39
-0.25510758 -0.23954011 -0.89553881 73 44 40
-0.25570726 -0.23982468 -0.89767009 76 47 43
-0.25561473 -0.23905423 -0.89583695 74 45 42
-0.26757497 -0.24101892 -0.89780384 36 17 10
-0.26731312 -0.24243449 -0.89876783 33 16 10
-0.26631314 -0.24114497 -0.89612854 26 16 13
-0.26668292 -0.2415749 -0.89718539 31 18 13
-0.2661407 -0.24331217 -0.89824188 28 18 15
-0.26666451 -0.24124564 -0.8967939 30 17 12
-0.26597884 -0.24296683 -0.89609689 26 17 14
-0.26605058 -0.2420789 -0.89597625 25 16 13
-0.2661384 -0.24092402 -0.89553809 23 15 12
-0.26598075 -0.24286345 -0.89575255 26 17 13
-0.26603526 -0.24208917 -0.89523363 25 16 13
-0.25278154 -0.24360378 -0.89640963 77 46 43
-0.25518131 -0.24097908 -0.89842415 77 48 43
-0.2523416 -0.24405116 -0.89591622 77 46 43
-0.25464755 -0.24157327 -0.89801419 77 47 43
-0.25400177 -0.24225503 -0.89738196 77 47 43
-0.25307155 -0.24334441 -0.89686555 77 46 43
-0.25341684 -0.24332459 -0.89847028 75 45 43
-0.25324765 -0.24283637 -0.89602941 77 47 43
-0.25327417 -0.24204132 -0.89492548 74 43 40
-0.25290343 -0.24309286 -0.89552248 77 46 42
-0.25473383 -0.24074964 -0.89677465 75 45 41
-0.25402483 -0.24176739 -0.89645195 76 46 42
-0.25412825 -0.24099499 -0.8955791 73 43 39
-0.25267893 -0.24318613 -0.89508265 76 45 42
-0.26257199 -0.24782565 -0.89531708 26 16 14
-0.26245618 -0.24802907 -0.89607888 39 26 24
-0.26257426 -0.24797313 -0.89692539 55 39 35
-0.26356542 -0.24686019 -0.89882284 89 69 63
-0.26332504 -0.24711278 -0.89748985 67 50 44
-0.26311883 -0.24737564 -0.89730513 64 46 41
-0.25223899 -0.24473509 -0.89773148 77 46 43
-0.25212908 -0.24487104 -0.89766103 77 46 43
-0.24950039 -0.24803177 -0.89667904 79 46 42
-0.25049931 -0.24656536 -0.89717615 79 46 44
-0.25016883 -0.24703759 -0.896424 79 46 42
-0.2513032 -0.24532729 -0.89493495 78 46 42
-0.2498486 -0.24753246 -0.89739281 79 46 43
-0.25039747 -0.24667625 -0.89536643 78 46 41
-0.25185415 -0.24528068 -0.89786041 78 47 43
-0.25183126 -0.24551988 -0.89864039 79 47 44
-0.25072622 -0.24672654 -0.89872068 79 47 44
-0.25118136 -0.2455699 -0.89629078 78 46 43
-0.25078917 -0.24635713 -0.89762354 79 47 44
-0.24841596 -0.25054187 -0.89642692 79 46 43
-0.24842082 -0.25050503 -0.89635313 79 46 43
-0.24863267 -0.25003865 -0.89614934 79 46 42
-0.24856015 -0.2500506 -0.89582831 79 46 42
-0.24911833 -0.24911894 -0.89714676 79 46 42
-0.24943824 -0.24817878 -0.89632243 79 46 41
-0.24859709 -0.25063756 -0.89817744 79 46 44
-0.2473301 -0.25169924 -0.89498395 80 48 45
-0.24795465 -0.25125542 -0.89621925 80 47 44
-0.24791929 -0.25244996 -0.89877927 79 47 44
-0.24640645 -0.25404155 -0.89536124 80 48 44
-0.24588743 -0.25558636 -0.89593077 80 48 43
-0.2464201 -0.25398707 -0.89528787 79 48 44
-0.24655782 -0.25366107 -0.89549065 80 48 44
-0.24474004 -0.25823885 -0.89655167 80 48 40
-0.24483407 -0.25810272 -0.89667332 80 48 40
-0.24453886 -0.25851583 -0.89625001 80 48 40
-0.24426839 -0.2591452 -0.89658839 80 48 39
-0.24443047 -0.25829315 -0.89501059 80 48 42
-0.24569295 -0.2563374 -0.89722466 80 48 42
-0.24542557 -0.25673339 -0.89612496 80 48 42
-0.2454783 -0.25655141 -0.89582682 80 48 42
-0.2450747 -0.25774401 -0.89711648 80 48 40
-0.24276352 -0.2624377 -0.89684743 80 47 44
-0.24273072 -0.2625165 -0.89668 80 47 44
-0.24259701 -0.26286361 -0.89612454 81 48 43
-0.24288948 -0.26179975 -0.89584267 80 48 43
-0.24217513 -0.26515648 -0.89779985 85 52 56
-0.24181038 -0.26655367 -0.89828444 84 50 54
-0.24214005 -0.2653113 -0.89765131 86 53 58
-0.24217573 -0.26506126 -0.8986876 82 48 48
-0.24154356 -0.26755875 -0.89880151 83 48 51
-0.24220581 -0.26504177 -0.89773285 86 52 57
-0.24240209 -0.26416042 -0.89817476 83 49 50
-0.24208881 -0.26533985 -0.89619607 88 56 61
-0.24225512 -0.2647233 -0.89727348 85 52 55
-0.24226888 -0.26397201 -0.89539206 83 50 46
-0.24227253 -0.26460287 -0.89722908 85 52 54
-0.2409308 -0.27008608 -0.89709848 83 46 64
-0.24063779 -0.27123418 -0.89603603 84 45 72
-0.24083845 -0.27085876 -0.89827067 84 48 52
-0.24102953 -0.26988861 -0.89815128 84 48 54
-0.24091725 -0.27034348 -0.89779872 84 47 57
-0.24066734 -0.27096611 -0.8955844 83 44 77
-0.24060521 -0.27118492 -0.89512128 84 44 81
-0.24134289 -0.26855743 -0.89561552 92 58 77
-0.24155909 -0.26766184 -0.89712024 89 56 65
-0.24122453 -0.26891533 -0.89622581 88 53 72
-0.2415836 -0.26766974 -0.89610523 93 61 73
-0.24034221 -0.27256122 -0.89593822 84 46 64
-0.2405054 -0.27235064 -0.8981536 85 48 50
-0.24048308 -0.27237651 -0.89783728 85 48 52
-0.24051139 -0.27164263 -0.89530784 84 44 77
-0.23968807 -0.27421191 -0.8950147 82 45 56
-0.23979425 -0.27391577 -0.89544433 83 45 59
-0.23933667 -0.27508038 -0.8958925 82 45 47
-0.23942482 -0.27487445 -0.89542603 82 45 49
-0.24018615 -0.27318245 -0.89629817 84 46 62
-0.23972239 -0.27448374 -0.89880532 84 47 46
-0.2400984 -0.27329153 -0.89615256 84 45 63
-0.2381953 -0.27803791 -0.89705545 98 61 80
-0.2380815 -0.27833065 -0.897035 100 65 84
-0.23896635 -0.2760427 -0.89636105 86 47 53
-0.23892936 -0.27620253 -0.89516801 86 47 54
-0.23831917 -0.27785495 -0.89501745 95 51 76
-0.23805252 -0.2785562 -0.89536554 99 53 85
-0.2385878 -0.2770274 -0.89707071 91 49 66
-0.2384363 -0.27748477 -0.89609802 94 50 71
-0.23707737 -0.2831549 -0.89511329 81 45 43
-0.23713472 -0.28276047 -0.89544261 85 50 49
-0.23747677 -0.28095829 -0.89506418 94 52 73
-0.23769471 -0.27952218 -0.89620173 105 68 94
-0.23754071 -0.28026924 -0.8966471 101 71 85
-0.23754857 -0.2805143 -0.89530241 97 55 79
-0.23660296 -0.28549114 -0.89687741 81 47 43
-0.23687646 -0.28394866 -0.89531094 81 45 42
-0.23634112 -0.28532684 -0.89501834 81 46 42
-0.23692419 -0.28400937 -0.89597791 81 45 43
-0.23692559 -0.28401205 -0.89580643 81 45 43
-0.23658054 -0.28592238 -0.89782923 80 47 43
-0.23677666 -0.28478122 -0.89755052 78 44 43
-0.23603648 -0.28640714 -0.89607608 79 45 41
-0.23589569 -0.28639325 -0.89550519 79 44 40
-0.23602471 -0.28673193 -0.89670897 79 46 42
-0.23620029 -0.28732282 -0.89856166 81 48 44
-0.23588234 -0.28719154 -0.8970986 79 46 42
-0.23406646 -0.29427052 -0.8962431 70 38 44
-0.23401478 -0.29464674 -0.8959679 68 37 42
-0.23451571 -0.29133573 -0.8952648 79 46 40
-0.23423307 -0.29299045 -0.89635259 76 44 47
-0.23428787 -0.29275322 -0.89505666 74 41 40
-0.2339429 -0.29802948 -0.89860529 65 36 34
-0.23386328 -0.29730099 -0.89678007 70 38 38
-0.23385225 -0.29791674 -0.8971138 69 38 37
-0.23380931 -0.29829276 -0.89675856 70 39 37
-0.23398669 -0.2972368 -0.89863288 65 36 35
-0.23398565 -0.29740012 -0.89875042 65 36 34
-0.23391436 -0.29556364 -0.89539808 68 36 41
-0.2339654 -0.29583362 -0.89687693 68 36 39
-0.23381881 -0.29717767 -0.89577991 71 39 40
-0.23383211 -0.29673859 -0.89540786 71 39 41
-0.23391502 -0.2958003 -0.89576358 69 37 41
-0.23361768 -0.30241966 -0.89820576 62 35 24
-0.23374222 -0.30256236 -0.8951723 64 37 25
-0.23379193 -0.30127424 -0.89665169 64 37 28
-0.23373069 -0.30121708 -0.89811718 63 36 27
-0.23383196 -0.2997928 -0.89873105 64 36 31
-0.23370977 -0.30115572 -0.8949604 69 39 31
-0.23379825 -0.2990908 -0.89694655 69 39 36
-0.23375419 -0.30081713 -0.89574778 68 39 31
-0.23380952 -0.30042174 -0.89672089 66 38 31
-0.2337949 -0.29980692 -0.8966797 68 39 33
-0.2338452 -0.29916224 -0.89764994 67 38 34
-0.23301232 -0.30547515 -0.89710307 65 38 31
-0.23314218 -0.30462542 -0.89786863 63 36 28
-0.23318478 -0.30513766 -0.8967129 68 40 32
-0.23304036 -0.30543789 -0.89700818 66 38 31
-0.23315577 -0.30562797 -0.89600742 71 42 34
-0.23362687 -0.30296108 -0.89646757 64 37 25
-0.23327766 -0.30515096 -0.89542925 70 41 33
-0.23354718 -0.30295119 -0.89826542 62 35 24
-0.23337486 -0.30426782 -0.89681065 67 39 29
-0.23354627 -0.30341953 -0.89641541 65 38 26
-0.23268922 -0.30666709 -0.89683366 65 37 34
-0.23253459 -0.30805713 -0.89500433 72 43 38
-0.23280735 -0.30708095 -0.89534628 72 43 37
-0.23238003 -0.30736852 -0.8970241 63 36 33
-0.23160729 -0.3085672 -0.89649659 61 35 36
-0.2317761 -0.30723199 -0.89801967 57 32 32
-0.23166001 -0.30781654 -0.89744443 58 33 34
-0.23154591 -0.30977181 -0.89492506 66 38 39
-0.23106946 -0.31039655 -0.89508641 62 35 39
-0.23117305 -0.30951589 -0.89665318 59 33 36
-0.23147082 -0.30810401 -0.89777142 57 32 33
-0.23134409 -0.30895686 -0.89653349 59 33 36
-0.2299016 -0.31369647 -0.89581871 57 32 37
-0.22966886 -0.31408149 -0.89584094 57 31 37
-0.22966932 -0.31442586 -0.89527297 58 32 37
-0.23016721 -0.31308129 -0.89550072 59 33 37
-0.23011936 -0.31302094 -0.89621419 57 32 36
-0.23038751 -0.31255546 -0.8949703 60 34 38
-0.23079103 -0.31059295 -0.8974213 57 32 37
-0.23026684 -0.31294 -0.8949303 60 34 38
-0.23005657 -0.31359026 -0.89492869 59 33 37
-0.22927231 -0.31687033 -0.89524686 55 31 31
-0.22919753 -0.31760624 -0.8949784 55 31 29
-0.22923449 -0.31620181 -0.89598137 55 30 32
-0.22935022 -0.31625155 -0.89540279 56 31 32
-0.22872269 -0.31975076 -0.89613807 52 29 26
-0.22868453 -0.31905028 -0.89652348 51 29 27
-0.22878273 -0.31964043 -0.89589232 53 30 27
-0.22873521 -0.32076818 -0.89576918 53 30 26
-0.22878686 -0.3212623 -0.89519131 52 30 26
-0.22834447 -0.3220095 -0.89650625 52 30 26
-0.2273414 -0.32438004 -0.89605755 53 30 31
-0.22736323 -0.32512215 -0.8955605 54 29 31
-0.22812603 -0.32274354 -0.89639646 52 30 27
-0.22821149 -0.32342812 -0.89567518 53 29 26
-0.22753233 -0.32560682 -0.89494705 55 29 30
-0.2260938 -0.32967854 -0.89765084 52 27 36
-0.22622435 -0.32828879 -0.89663386 50 28 34
-0.22651576 -0.32736146 -0.89643663 51 28 33
-0.22698984 -0.32618123 -0.89588523 54 29 32
-0.22638987 -0.32985991 -0.89504927 52 27 32
-0.22649002 -0.32831296 -0.89584368 52 28 32
-0.22684525 -0.32673347 -0.89591843 53 28 32
-0.22563943 -0.33248562 -0.89701688 53 27 31
-0.22580136 -0.33226755 -0.89831305 52 27 35
-0.22554992 -0.33363536 -0.89672905 53 26 29
-0.22574829 -0.33141276 -0.89750212 53 27 34
-0.22565363 -0.33342057 -0.89752799 52 26 31
-0.22600356 -0.33034092 -0.89781767 53 27 36
-0.2260296 -0.33132517 -0.89504755 53 27 29
-0.22602634 -0.33116683 -0.89548433 53 27 31
-0.2260744 -0.33080333 -0.89596188 53 27 32
-0.22573359 -0.33176968 -0.89670718 53 27 32
-0.22604889 -0.3303307 -0.8974151 53 27 36
-0.22550744 -0.334838 -0.89877689 51 26 33
-0.22571711 -0.33495471 -0.89788777 52 25 32
-0.22545868 -0.33760393 -0.89567119 53 26 27
-0.22533819 -0.3362377 -0.89777565 52 26 30
-0.22565694 -0.33511704 -0.89791989 52 25 32
-0.2253802 -0.33574328 -0.89821297 51 26 31
-0.22572871 -0.33411631 -0.89833522 52 26 32
-0.22559592 -0.33507013 -0.89668983 53 26 29
-0.22567268 -0.33436331 -0.89772373 52 26 31
-0.22566241 -0.33577892 -0.89688164 52 26 30
-0.22557156 -0.33674166 -0.89559054 53 26 27
-0.22507721 -0.34119004 -0.89710271 51 25 22
-0.22511037 -0.33945543 -0.89538443 52 25 24
-0.22518682 -0.33934388 -0.8954587 52 25 24
-0.22505116 -0.34009412 -0.89588124 51 25 23
-0.22506154 -0.33932427 -0.89513373 52 25 24
-0.22536716 -0.33855379 -0.89633054 52 25 26
-0.2252517 -0.33916217 -0.89737278 51 25 26
-0.22544071 -0.33979878 -0.89728951 51 25 25
-0.22542854 -0.33934146 -0.89688104 52 25 25
-0.22540686 -0.34033751 -0.89795345 51 24 24
-0.22397098 -0.34156278 -0.89616972 43 21 18
-0.22404213 -0.3405911 -0.89496458 44 22 19
-0.22441936 -0.34082627 -0.89556915 49 24 21
-0.22489928 -0.34225518 -0.89840078 50 24 22
-0.2233282 -0.34235796 -0.89624375 34 17 14
-0.22163804 -0.34336346 -0.89540458 12 6 5
-0.22282113 -0.34261885 -0.89597166 28 14 11
-0.2233388 -0.34298345 -0.89726013 34 16 15
-0.22439142 -0.34202355 -0.8970716 48 24 20
-0.2227422 -0.34298879 -0.89636046 26 13 11
-0.22113237 -0.34360796 -0.89633888 14 7 10
-0.22308673 -0.34320733 -0.89734548 30 14 14
-0.22414409 -0.34288159 -0.89858681 46 22 22
-0.22230977 -0.34332964 -0.89718157 26 13 14
-0.22218642 -0.34334669 -0.89717072 25 13 15
-0.22111508 -0.34332818 -0.89814109 30 17 25
-0.21810511 -0.34453863 -0.89609098 0 0 0
-0.21778503 -0.34487742 -0.89646852 0 0 0
-0.21710254 -0.34369266 -0.89737934 0 0 0
-0.21782725 -0.34455648 -0.89643407 0 0 0
-0.21740134 -0.34436423 -0.89697212 0 0 0
-0.21900997 -0.3449606 -0.89577198 4 2 4
-0.21919122 -0.34375292 -0.89726269 14 8 13
-0.21920164 -0.34402189 -0.89696497 13 7 11
-0.21987574 -0.3444474 -0.89693785 18 10 16
-0.21980149 -0.34393355 -0.89746994 20 12 18
-0.2193495 -0.34454304 -0.8964743 11 6 10
-0.21860339 -0.34473276 -0.89575571 1 1 1
-0.21945037 -0.34505951 -0.895944 9 5 8
-0.22043756 -0.34385821 -0.89689106 17 10 16
-0.22012985 -0.34443399 -0.89530855 3 2 3
-0.22004509 -0.34450215 -0.89545083 4 2 4
-0.19563432 -0.49361777 -0.76972693 115 86 87
-0.19420502 -0.49245033 -0.76992112 102 70 72
-0.19610059 -0.49385017 -0.76972008 119 91 91
-0.19207235 -0.49394935 -0.76921642 102 71 74
-0.19323549 -0.49404159 -0.76916915 100 66 72
-0.19255655 -0.49393234 -0.76921779 101 69 73
-0.19307439 -0.49212274 -0.76989931 95 62 65
-0.19062154 -0.49255767 -0.76974535 97 66 69
-0.18958977 -0.4932431 -0.76949763 101 74 74
-0.18899326 -0.49263006 -0.76976591 99 67 73
-0.1885772 -0.49407905 -0.76927894 107 83 85
-0.1876511 -0.49349505 -0.76958191 107 77 88
-0.18803239 -0.49251148 -0.7699073 101 65 79
-0.19931667 -0.49559581 -0.76988214 150 127 126
-0.19944797 -0.49581954 -0.76984715 152 129 128
-0.19845799 -0.49510425 -0.76982635 142 119 116
-0.19939902 -0.49677268 -0.76954937 156 134 133
-0.19882077 -0.49678537 -0.76940173 151 128 128
-0.20043714 -0.49771836 -0.76951569 168 146 147
-0.19793786 -0.49781874 -0.76886338 146 122 125
-0.19894755 -0.49661842 -0.76948476 152 129 128
-0.19953692 -0.49780074 -0.76926655 160 138 139
-0.19621025 -0.49763173 -0.76856798 131 105 110
-0.19384694 -0.49501801 -0.76894897 106 73 80
-0.19369853 -0.49762022 -0.76813364 110 83 90
-0.19448291 -0.49782467 -0.76820838 117 90 97
-0.19494668 -0.49658382 -0.76866561 119 89 96
-0.19577441 -0.49765757 -0.76848412 127 101 107
-0.19687524 -0.49682319 -0.76893342 134 108 112
-0.1962745 -0.49513429 -0.76934665 125 98 99
-0.1960569 -0.49493465 -0.76936924 123 95 96
-0.19676369 -0.49625209 -0.76908958 132 106 108
-0.19603103 -0.4949905 -0.76934737 123 95 96
-0.19642156 -0.49565515 -0.76921237 127 101 103
-0.19187164 -0.49758202 -0.76801687 106 78 84
-0.19143042 -0.49698129 -0.76821703 106 79 83
-0.18946432 -0.49548984 -0.76865071 104 77 77
-0.1918876 -0.49739507 -0.76809025 106 78 84
-0.19257146 -0.4980264 -0.76789588 107 78 86
-0.19144978 -0.4946779 -0.76898718 104 76 78
-0.19041009 -0.49471468 -0.76898694 105 81 80
-0.19232677 -0.49522907 -0.76881075 104 75 79
-0.19181362 -0.49480513 -0.76894474 104 75 78
-0.19210644 -0.49652246 -0.76842064 107 81 85
-0.19087805 -0.49522406 -0.7688275 106 81 82
-0.18695262 -0.4970834 -0.76819831 111 76 96
-0.18564832 -0.49764478 -0.76801169 118 81 107
-0.18811905 -0.49783084 -0.7678175 106 71 85
-0.18754938 -0.49759355 -0.76794749 109 73 90
-0.18710886 -0.49783918 -0.76785994 111 75 94
-0.18855661 -0.49727574 -0.76804084 104 70 81
-0.18939702 -0.49417409 -0.76916367 106 83 80
-0.18785624 -0.49463415 -0.76913625 109 82 90
-0.18943046 -0.49539548 -0.76868856 104 78 78
-0.18812382 -0.49532974 -0.76884139 107 78 87
-0.18775785 -0.4950583 -0.76898193 109 80 90
-0.18552583 -0.49743217 -0.76811135 118 81 108
-0.19856527 -0.49987841 -0.76832724 151 124 132
-0.19740692 -0.49982363 -0.76804495 143 118 125
-0.20080017 -0.49950877 -0.76901317 170 145 151
-0.2004472 -0.49891225 -0.769126 168 144 148
-0.19811139 -0.49809074 -0.76882142 148 124 128
-0.19842531 -0.49896175 -0.76860666 149 123 130
-0.199982 -0.49977225 -0.76872122 162 136 143
-0.19970952 -0.49974307 -0.76866329 160 133 141
-0.19418456 -0.50172353 -0.76668954 118 84 102
-0.19550832 -0.50113046 -0.76720786 129 101 113
-0.19342627 -0.49987626 -0.76724589 110 79 92
-0.19438995 -0.49915445 -0.76773643 118 91 100
-0.19424781 -0.50122249 -0.76689875 118 86 102
-0.19366857 -0.50027007 -0.76714474 112 81 95
-0.19565681 -0.49875033 -0.76810098 128 102 109
-0.19646649 -0.49842593 -0.76835489 134 109 115
-0.19718106 -0.50173682 -0.76732838 144 119 128
-0.19701116 -0.50099611 -0.76755625 141 116 125
-0.1972623 -0.50188035 -0.76729262 144 119 129
-0.19236776 -0.5011825 -0.76664871 108 73 90
-0.19110516 -0.50140321 -0.76646346 107 75 91
-0.1919589 -0.50083131 -0.76675582 107 72 88
-0.19120732 -0.50141823 -0.76646543 107 75 91
-0.1913974 -0.50128067 -0.76653463 107 75 91
-0.192279 -0.49836937 -0.76774096 106 76 85
-0.19119613 -0.49910918 -0.76737386 105 71 82
-0.19293833 -0.49834338 -0.76779884 108 79 88
-0.19306275 -0.50136811 -0.76662773 110 74 93
-0.19219153 -0.50001901 -0.76709104 107 73 87
-0.19327022 -0.49896649 -0.76757979 109 79 90
-0.18832932 -0.50150436 -0.76630235 109 80 98
-0.18700333 -0.49991286 -0.76700926 114 80 103
-0.18841876 -0.50113297 -0.76647526 110 80 97
-0.1863337 -0.50148141 -0.76627302 114 80 105
-0.18732429 -0.50191891 -0.76609117 111 80 101
-0.18802665 -0.50153148 -0.76628375 110 80 99
-0.1893013 -0.50176096 -0.76620084 107 79 94
-0.18848626 -0.49996945 -0.76694614 108 76 92
-0.18648025 -0.49818793 -0.7677418 114 77 101
-0.18792278 -0.50005412 -0.76693833 111 79 97
-0.18721995 -0.49896523 -0.7674008 112 77 98
-0.18783005 -0.4992075 -0.76727718 110 76 94
-0.18467538 -0.50150555 -0.76631391 127 94 120
-0.18195051 -0.50192326 -0.76633453 157 134 158
-0.18255664 -0.50083649 -0.76678717 154 129 149
-0.18407945 -0.50101894 -0.76658434 136 105 128
-0.18273218 -0.50016302 -0.76708335 154 129 147
-0.18488738 -0.50145859 -0.76631898 125 91 117
-0.18311217 -0.49861816 -0.7677651 152 126 141
-0.18384799 -0.50003487 -0.76705527 141 112 131
-0.1852805 -0.50042021 -0.76676697 120 85 112
-0.18488139 -0.49870506 -0.7675882 127 93 117
-0.18341541 -0.4995819 -0.76729751 147 120 137
-0.18505077 -0.50102258 -0.76650715 123 89 114
-0.19726814 -0.50298315 -0.76691461 145 119 130
-0.19820955 -0.50298679 -0.76726359 151 127 137
-0.19835851 -0.50451076 -0.76679564 152 127 138
-0.19902715 -0.50582504 -0.7665928 156 132 143
-0.200325 -0.50579172 -0.76708639 165 144 152
-0.19805731 -0.50465143 -0.76663548 150 124 135
-0.20076452 -0.50489682 -0.76749521 168 147 155
-0.19501366 -0.50393265 -0.76609331 126 95 110
-0.19428912 -0.50333744 -0.76613986 120 88 104
-0.19411032 -0.50235265 -0.76644647 117 83 101
-0.19467333 -0.50279331 -0.76641697 122 89 106
-0.19614597 -0.50205266 -0.7669909 135 107 119
-0.19710428 -0.50217086 -0.76715803 143 117 128
-0.19637246 -0.50466269 -0.76614255 137 107 121
-0.19150998 -0.50262332 -0.76603305 110 81 96
-0.19298382 -0.50205886 -0.76635414 110 76 95
-0.19148755 -0.50233054 -0.76614112 110 80 95
-0.18271936 -0.50235093 -0.76606166 145 118 145
-0.19972609 -0.5074957 -0.7662679 159 139 148
-0.19870937 -0.5066151 -0.76619846 153 129 140
-0.20045494 -0.50689435 -0.7667492 164 146 153
-0.19873762 -0.50698358 -0.76607996 153 129 141
-0.19892852 -0.50644815 -0.76633823 155 131 142
-0.21583088 -0.45487428 -0.78519899 94 58 68
-0.21476802 -0.45458454 -0.7850852 92 58 65
-0.21519424 -0.45392826 -0.7854023 92 58 67
-0.2144942 -0.45411441 -0.78520268 91 58 64
-0.21296048 -0.45355216 -0.78511482 89 56 59
-0.21231826 -0.45413992 -0.78485245 89 54 58
-0.21163206 -0.45485446 -0.78455001 90 53 57
-0.21046644 -0.45449859 -0.78460187 89 51 55
-0.21190782 -0.45483381 -0.78457552 90 54 57
-0.21030228 -0.4528099 -0.7851994 85 50 51
-0.20909734 -0.45424423 -0.78460377 87 48 51
-0.21136396 -0.4525992 -0.7853449 86 52 54
-0.21075597 -0.45294151 -0.78518176 86 51 53
-0.20983563 -0.45442554 -0.78458685 88 50 54
-0.20621458 -0.45489383 -0.78422898 82 41 41
-0.20787491 -0.45482376 -0.78433418 86 45 48
-0.20707093 -0.45344228 -0.78479314 81 42 40
-0.20730814 -0.45374554 -0.78469533 82 43 42
-0.20877276 -0.45479879 -0.7843864 87 48 52
-0.20797169 -0.45234621 -0.78524631 80 43 41
-0.20776896 -0.45216373 -0.78533655 80 43 40
-0.2085007 -0.45166487 -0.78553712 80 45 42
-0.2061594 -0.45224318 -0.78535813 77 40 34
-0.20645101 -0.45214418 -0.7853927 77 40 35
-0.20476569 -0.45433158 -0.78447527 78 37 35
-0.20362723 -0.45500705 -0.78426987 77 37 35
-0.20282485 -0.45484847 -0.7844137 75 36 34
-0.20433789 -0.45325667 -0.78500223 76 37 32
-0.20477353 -0.45479661 -0.78426313 79 37 36
-0.20328762 -0.45325306 -0.78510326 73 37 31
-0.20178764 -0.45417321 -0.78483367 72 36 31
-0.20194821 -0.45321456 -0.78529656 70 36 30
-0.20093453 -0.45326942 -0.7854104 68 36 29
-0.20075615 -0.45336807 -0.78539127 67 36 29
-0.20048776 -0.45464674 -0.78479201 69 35 31
-0.19793448 -0.45428506 -0.78542221 62 33 27
-0.19672325 -0.4546183 -0.7854932 60 32 26
-0.21301161 -0.45829034 -0.78361177 95 63 68
-0.21337658 -0.45559022 -0.78449661 93 58 62
-0.21559383 -0.45585898 -0.78485763 96 61 69
-0.2167149 -0.45536366 -0.78522706 95 60 71
-0.21522495 -0.45559135 -0.78486365 95 60 67
-0.21495415 -0.4563072 -0.78459775 97 63 69
-0.21536683 -0.45649812 -0.78462315 98 64 71
-0.21208879 -0.45875221 -0.78333998 96 65 68
-0.21217363 -0.45875943 -0.783351 96 65 68
-0.21238174 -0.45856237 -0.78346366 95 63 68
-0.21249393 -0.45738676 -0.78383261 93 60 64
-0.21121854 -0.45658487 -0.78398985 92 56 61
-0.21102585 -0.45618504 -0.78409731 91 55 59
-0.21283597 -0.45533201 -0.78447211 91 56 59
-0.21240561 -0.45528129 -0.78445911 91 55 58
-0.2058472 -0.45624673 -0.78366941 87 48 46
-0.20737174 -0.45812795 -0.7829842 97 66 61
-0.20535569 -0.45806968 -0.78286284 99 67 60
-0.20511393 -0.45766595 -0.78301603 96 63 57
-0.20586495 -0.45617464 -0.78370118 87 48 45
-0.20783265 -0.4552761 -0.78416157 87 46 49
-0.20882282 -0.45611915 -0.7838732 92 54 57
-0.20780933 -0.45619678 -0.78379345 90 52 52
-0.20773393 -0.45639452 -0.78371108 90 53 53
-0.20703848 -0.45552924 -0.78402245 86 46 47
-0.202264 -0.45828566 -0.78286302 96 64 56
-0.20147255 -0.45798725 -0.78302741 93 59 52
-0.20138179 -0.4556399 -0.78417736 77 40 37
-0.2027465 -0.45690733 -0.78352576 87 54 48
-0.20306702 -0.45725143 -0.78335005 90 58 51
-0.20269394 -0.4575882 -0.78319407 92 59 52
-0.20492606 -0.45533115 -0.78401452 82 40 38
-0.20372672 -0.45668268 -0.78355002 88 53 48
-0.20396291 -0.4571304 -0.78333956 91 57 52
-0.20313139 -0.45609742 -0.78385079 83 47 43
-0.20224565 -0.45519689 -0.78431082 75 37 35
-0.20313448 -0.45626935 -0.78377783 84 48 44
-0.1976959 -0.45564848 -0.78476471 65 36 30
-0.19917047 -0.45866859 -0.78292924 80 46 41
-0.19944876 -0.45797753 -0.78328574 83 50 43
-0.19860214 -0.45698586 -0.78392577 74 43 37
-0.19858697 -0.4587225 -0.78295946 75 40 36
-0.19846334 -0.45831209 -0.78320092 73 39 35
-0.19955666 -0.45705184 -0.78376889 81 50 43
-0.19942814 -0.4569889 -0.7838217 80 49 42
-0.19827124 -0.45552731 -0.78473485 67 37 31
-0.20086001 -0.45732608 -0.7834112 87 53 46
-0.20036073 -0.45762545 -0.78335047 88 55 48
-0.19878609 -0.45564601 -0.78458852 69 38 32
-0.19460589 -0.45613316 -0.78510422 59 30 22
-0.19437529 -0.45585445 -0.78532273 59 30 22
-0.19348073 -0.45584926 -0.78552932 59 30 21
-0.1966293 -0.4552733 -0.78515565 60 32 25
-0.19539925 -0.45578417 -0.78513151 59 31 24
-0.19540495 -0.45564196 -0.78521496 59 31 24
-0.19577603 -0.45749873 -0.78406 60 29 24
-0.19512743 -0.45760369 -0.78412431 59 30 23
-0.19547266 -0.45746762 -0.78413481 59 30 23
-0.19576706 -0.45690665 -0.7843917 60 30 24
-0.19670554 -0.45886299 -0.78312361 62 26 24
-0.19626606 -0.45838729 -0.78347194 61 27 24
-0.19316871 -0.45697874 -0.78494519 59 29 21
-0.19306932 -0.45764786 -0.78457844 59 29 21
-0.19325697 -0.45699683 -0.78490621 59 29 21
-0.19177157 -0.45853105 -0.78446776 59 30 21
-0.19062695 -0.45893514 -0.7845934 60 31 22
-0.19006632 -0.45774072 -0.785505 58 30 21
-0.19031726 -0.458051 -0.78522581 60 31 22
-0.19859464 -0.46095443 -0.78177309 86 53 49
-0.19829965 -0.45989928 -0.78237301 77 43 40
-0.1989425 -0.46095893 -0.78174531 89 57 52
-0.19855443 -0.46077681 -0.7818734 85 51 47
-0.1995382 -0.45954534 -0.78244346 86 53 49
-0.19959961 -0.45999753 -0.78221792 88 57 53
-0.20082317 -0.45906487 -0.78254378 96 63 55
-0.19451503 -0.45987278 -0.78298241 64 33 26
-0.19427283 -0.4596692 -0.7831403 62 32 25
-0.1933808 -0.45935631 -0.78347892 58 28 22
-0.19678596 -0.46118382 -0.78183424 76 41 36
-0.19377759 -0.46126917 -0.78234208 59 29 28
-0.196731 -0.46148682 -0.78167593 76 40 36
-0.19702232 -0.46110171 -0.78183526 76 41 36
-0.19433586 -0.45916617 -0.78340513 60 29 22
-0.19607331 -0.45945704 -0.78291655 64 30 26
-0.19658284 -0.46051252 -0.78224152 72 37 32
-0.19144061 -0.46257451 -0.78222668 57 28 27
-0.19322051 -0.46193224 -0.78208911 57 28 28
-0.19058578 -0.4625912 -0.78245491 57 28 26
-0.1906001 -0.4618195 -0.78288007 57 28 24
-0.19196786 -0.46071666 -0.78311312 57 28 23
-0.19024703 -0.46262822 -0.78252852 57 28 25
-0.19003217 -0.45954004 -0.7844221 59 30 22
-0.19110842 -0.46098498 -0.78321332 57 28 23
-0.19002356 -0.46177706 -0.78308672 57 28 24
-0.19099255 -0.45975479 -0.78398621 59 30 22
-0.18992226 -0.46035674 -0.78396875 59 30 23
-0.19096139 -0.45904174 -0.7844227 59 30 22
-0.18971683 -0.46058017 -0.78390086 59 30 23
-0.18655157 -0.4610084 -0.78487074 61 30 22
-0.18581977 -0.46130994 -0.78499085 62 30 23
-0.18737632 -0.46031025 -0.78497154 61 30 22
-0.1879335 -0.46049148 -0.78460854 60 31 21
-0.18863721 -0.45974389 -0.78479469 60 31 22
-0.18798715 -0.46287006 -0.78316492 58 28 22
-0.18811488 -0.4607785 -0.7843681 60 30 21
-0.18884769 -0.46277973 -0.78289646 57 28 23
-0.18885009 -0.4605642 -0.78422076 59 30 22
-0.18894121 -0.46014231 -0.78443897 60 31 22
-0.18832026 -0.46209949 -0.78350097 58 29 22
-0.18358731 -0.46221349 -0.7853812 71 35 30
-0.18449639 -0.46155143 -0.78541547 68 33 28
-0.18453614 -0.46164191 -0.78533822 67 33 28
-0.18544561 -0.46257213 -0.7843222 61 30 19
-0.19074912 -0.46299115 -0.78217566 57 28 27
-0.19040447 -0.46291041 -0.78232384 57 28 26
-0.18931974 -0.46306515 -0.78254741 57 28 24
-0.18900652 -0.46429366 -0.78189337 60 29 25
-0.1892577 -0.46424064 -0.78182238 60 30 25
-0.18643966 -0.46518543 -0.78236431 57 27 21
-0.18636839 -0.46386287 -0.78317964 58 28 20
-0.18628092 -0.46600053 -0.78193778 57 27 22
-0.18810672 -0.46312034 -0.78297085 57 28 22
-0.18690699 -0.4632498 -0.78334332 58 29 20
-0.18765129 -0.4635745 -0.78287071 57 28 22
-0.18717727 -0.46364713 -0.78300512 58 28 21
-0.1817961 -0.46520117 -0.78410012 74 40 36
-0.18219823 -0.464892 -0.784141 72 39 34
-0.18350902 -0.46358091 -0.78448349 69 35 28
-0.18510287 -0.46300271 -0.78418499 62 31 20
-0.18429296 -0.46346518 -0.78421789 65 33 24
-0.18390016 -0.46374509 -0.78419483 66 34 26
-0.18266426 -0.46418035 -0.78443551 72 38 32
-0.18292789 -0.46595961 -0.78311503 67 36 31
-0.18504347 -0.46623886 -0.7822395 59 29 23
-0.18393104 -0.46626401 -0.78259736 63 32 27
-0.18486112 -0.46613693 -0.78236139 59 29 23
-0.18393853 -0.46665049 -0.78236437 62 32 28
-0.18532909 -0.46376336 -0.78361982 60 30 19
-0.17988457 -0.46638167 -0.78407198 70 39 37
-0.18002026 -0.46498612 -0.78499389 74 40 37
-0.18126053 -0.46454638 -0.78478426 76 41 37
-0.17804292 -0.46656674 -0.78471142 68 39 37
-0.18128242 -0.46408403 -0.78509933 77 41 37
-0.18111171 -0.46386248 -0.785326 78 41 37
-0.17799278 -0.4656325 -0.78536707 68 38 34
-0.17943074 -0.46453658 -0.78553969 72 39 34
-0.18215553 -0.46879166 -0.78191787 67 37 35
-0.18253817 -0.46709582 -0.78260487 67 36 33
-0.18293267 -0.46715781 -0.78244376 66 35 32
-0.18346535 -0.46843788 -0.78165174 63 33 30
-0.1833359 -0.4682065 -0.78180593 64 33 30
-0.17884313 -0.46850225 -0.78311652 71 41 40
-0.17866671 -0.47001997 -0.78193218 76 46 45
-0.1784493 -0.46941829 -0.78245264 74 45 44
-0.17946574 -0.4696416 -0.78209358 73 43 42
-0.17780724 -0.47025621 -0.78189534 78 49 48
-0.17895921 -0.46886691 -0.78280383 71 42 41
-0.17879988 -0.46881068 -0.78287715 72 42 41
-0.17935841 -0.46788365 -0.78347868 68 39 37
-0.17952965 -0.4672766 -0.78369862 69 39 37
-0.18113413 -0.46915472 -0.78212655 69 39 37
-0.17981306 -0.46781421 -0.7833221 68 39 37
-0.17977999 -0.46819866 -0.78315133 68 39 37
-0.17767496 -0.46959791 -0.78253871 75 47 46
-0.17765887 -0.46728775 -0.78441715 68 39 38
-0.17594878 -0.46866828 -0.78481698 38 23 23
-0.17741455 -0.46952054 -0.78288227 70 43 43
-0.17683648 -0.46955323 -0.7833032 58 36 36
-0.17645676 -0.46752822 -0.78547782 44 26 26
-0.1773496 -0.46899655 -0.78341901 67 41 41
-0.17579012 -0.46824032 -0.78533775 34 20 20
-0.17695816 -0.46712092 -0.78546423 53 31 31
-0.1773687 -0.46888196 -0.78351039 67 41 41
-0.17672047 -0.47045082 -0.78253132 62 40 39
-0.17513572 -0.47061208 -0.78295833 57 40 45
-0.17559382 -0.47029701 -0.78340119 45 29 31
-0.17388648 -0.47002289 -0.78477442 18 13 16
-0.21396618 -0.41587922 -0.80111939 76 42 48
-0.21299979 -0.41881976 -0.79992783 73 39 40
-0.21422884 -0.4177815 -0.80007386 77 45 50
-0.2139384 -0.41676039 -0.8006863 76 42 47
-0.21408685 -0.41687989 -0.80057889 77 43 48
-0.21509926 -0.41760814 -0.79989064 81 50 56
-0.21568507 -0.41633153 -0.80036002 83 52 61
-0.21311174 -0.41910553 -0.79974622 73 40 41
-0.21439861 -0.41988039 -0.79903132 78 48 47
-0.21503021 -0.41982001 -0.79889721 81 51 51
-0.21591561 -0.41873923 -0.79916191 84 55 58
-0.21564025 -0.41987759 -0.798715 83 55 54
-0.21558496 -0.41904348 -0.79910821 83 54 56
-0.21575765 -0.41953972 -0.79883856 84 55 55
-0.21121643 -0.41956165 -0.80025977 70 38 36
-0.21019174 -0.4197365 -0.80058455 68 37 33
-0.21164775 -0.41950819 -0.80011272 70 38 37
-0.21245568 -0.41899291 -0.80004984 72 38 38
-0.212841 -0.41824251 -0.80027831 72 38 39
-0.21188729 -0.41967535 -0.79993021 71 39 37
-0.2148025 -0.42321566 -0.79728115 86 55 56
-0.21380033 -0.423325 -0.79746068 82 49 52
-0.21406265 -0.42219976 -0.79795069 81 49 51
-0.21391173 -0.42117327 -0.7985065 79 47 48
-0.2131118 -0.42144927 -0.798572 76 43 44
-0.2142127 -0.42114347 -0.79844451 80 49 49
-0.21400587 -0.42071778 -0.7987119 78 47 47
-0.21357812 -0.42006618 -0.79914963 75 44 43
-0.21514142 -0.42024964 -0.7986573 82 53 52
-0.21071567 -0.42188495 -0.79926986 72 40 38
-0.21009785 -0.42305264 -0.79878598 71 40 36
-0.20958611 -0.42211324 -0.79950106 69 39 33
-0.20923264 -0.42300504 -0.79909337 68 38 32
-0.21094428 -0.42362761 -0.79817611 73 41 40
-0.21116035 -0.42288283 -0.7985422 74 41 41
-0.21010143 -0.42111966 -0.79991609 70 39 36
-0.20953761 -0.42023847 -0.80059463 68 37 33
-0.21053734 -0.42132246 -0.79964423 71 39 37
-0.21226895 -0.42252761 -0.79833668 76 42 44
-0.21195555 -0.42050523 -0.79948241 72 40 39
-0.21187025 -0.42276821 -0.79837674 76 42 44
-0.21099232 -0.42023215 -0.80000955 70 38 36
-0.20716907 -0.42131737 -0.80112058 63 34 29
-0.20575547 -0.4227913 -0.80097044 60 31 27
-0.2060513 -0.42339534 -0.80042964 60 32 26
-0.2089573 -0.4207015 -0.80053532 67 37 30
-0.20582207 -0.42345995 -0.80050784 59 31 26
-0.20787887 -0.4235664 -0.79940444 65 36 29
-0.20602347 -0.42375511 -0.80023313 60 32 26
-0.20673048 -0.42231053 -0.80072069 61 33 27
-0.20859732 -0.42205861 -0.7999233 66 37 30
-0.20466958 -0.42358863 -0.80111831 58 30 26
-0.21096252 -0.42472735 -0.79757512 74 42 41
-0.21118976 -0.42453474 -0.79761088 75 42 42
-0.2092029 -0.4249759 -0.79798716 69 38 33
-0.21037789 -0.42398125 -0.79817146 72 41 37
-0.2111325 -0.42396614 -0.7979368 74 42 41
-0.20780697 -0.42701364 -0.79745841 69 38 34
-0.20707576 -0.42762628 -0.79744995 69 38 34
-0.20635849 -0.42663705 -0.79832202 69 38 33
-0.20650348 -0.42698926 -0.79806119 69 38 33
-0.20824413 -0.42575374 -0.79795897 68 38 32
-0.2088773 -0.42543957 -0.79784679 68 38 32
-0.20715718 -0.42416775 -0.79940999 64 35 28
-0.2078736 -0.42425576 -0.79899383 66 37 30
-0.20644896 -0.42620575 -0.79852873 68 38 32
