ply
format ascii 1.0
comment PCL generated
element vertex 986
property float x
property float y
property float z
property uchar red
property uchar green
property uchar blue
element camera 0
property float view_px
property float view_py
property float view_pz
property float x_axisx
property float x_axisy
property float x_axisz
property float y_axisx
property float y_axisy
property float y_axisz
property float z_axisx
property float z_axisy
property float z_axisz
property float focal
property float scalex
property float scaley
property float centerx
property float centery
property int viewportx
property int viewporty
property float k1
property float k2
end_header
-0.34066358 0.0291197 -0.88633752 169 153 148
-0.33891684 0.028277427 -0.88533735 167 149 149
-0.33787653 0.027974209 -0.88456237 166 144 146
-0.33608714 0.029123215 -0.8836171 165 147 146
-0.33733019 0.026703874 -0.88377088 165 143 147
-0.33741075 0.028613258 -0.8844071 165 145 147
-0.33699107 0.027894737 -0.88388985 165 145 147
-0.34281611 0.022807287 -0.88698858 178 160 161
-0.34214208 0.024830479 -0.88662422 173 157 155
-0.34257001 0.022118811 -0.88670528 180 163 163
-0.34258896 0.021514293 -0.88664973 182 163 164
-0.34186408 0.023392541 -0.88622248 177 161 159
-0.33817378 0.022355983 -0.88340008 166 147 146
-0.33816722 0.024162842 -0.88377434 168 144 146
-0.33827388 0.024484245 -0.88392168 168 144 146
-0.33910066 0.021533642 -0.88392234 169 152 151
-0.33860308 0.021829028 -0.88361132 167 150 148
-0.33905461 0.02339704 -0.88427877 171 149 150
-0.34021533 0.025005911 -0.88531226 171 152 151
-0.34166244 0.024908839 -0.88625538 173 158 155
-0.34017202 0.024317224 -0.88520104 173 152 153
-0.34017092 0.023954054 -0.88515669 174 153 153
-0.34142229 0.023926452 -0.88597894 175 158 157
-0.341544 0.024586553 -0.8861385 174 158 155
-0.33782691 0.024946533 -0.88368046 167 142 145
-0.34231007 0.020131651 -0.88638157 182 166 165
-0.34215111 0.021351948 -0.88625056 182 164 163
-0.34299845 0.019384 -0.886994 182 167 167
-0.34210745 0.017946215 -0.88615561 180 165 167
-0.34275624 0.018196866 -0.88675994 181 168 168
-0.34169781 0.019609263 -0.8858068 181 163 164
-0.34095901 0.018076025 -0.88509256 177 160 161
-0.33982944 0.017941028 -0.88404059 174 155 155
-0.34107476 0.018610338 -0.88520974 178 160 161
-0.34114015 0.019251589 -0.88528216 179 161 161
-0.3397975 0.019283703 -0.88410485 174 155 154
-0.33961788 0.018515572 -0.88385522 173 154 153
-0.34099805 0.021178717 -0.88528842 179 160 159
-0.3392573 0.018651744 -0.88360536 172 153 152
-0.33870769 0.021350948 -0.88359737 167 151 149
-0.3392463 0.018402599 -0.88355982 172 153 152
-0.34267664 0.016723232 -0.88653654 179 164 166
-0.34296715 0.016852645 -0.8868261 179 166 167
-0.34314731 0.016837321 -0.88699013 180 167 168
-0.34307128 0.013854663 -0.88642168 173 161 162
-0.34274974 0.014721274 -0.88626784 175 161 163
-0.34184673 0.014625478 -0.8853966 175 164 165
-0.34188849 0.014398432 -0.88539672 175 164 165
-0.34047067 0.014424964 -0.88413066 173 162 161
-0.34061205 0.014123642 -0.88420457 173 162 162
-0.34105089 0.014956779 -0.88474095 174 163 163
-0.34037346 0.013699206 -0.88391787 172 162 161
-0.33926487 0.016088521 -0.88328171 171 155 154
-0.34166577 0.017411415 -0.88571459 179 163 166
-0.34010497 0.016286435 -0.88409245 174 158 158
-0.33985424 0.014955528 -0.88365597 172 160 159
-0.34108233 0.016841974 -0.88508546 177 162 163
-0.3404865 0.015846679 -0.88437968 174 161 161
-0.34423244 0.010974706 -0.88710594 173 154 156
-0.34371984 0.013495046 -0.88697863 173 159 160
-0.34397727 0.011786666 -0.88697976 173 156 158
-0.34392005 0.01292108 -0.88708663 173 157 159
-0.34344575 0.010711767 -0.88633054 173 155 157
-0.34234944 0.012412806 -0.88553369 173 160 161
-0.34355786 0.010559197 -0.88641483 173 154 157
-0.34327543 0.01100758 -0.88621086 173 156 158
-0.34406921 0.010271166 -0.88685179 173 154 156
-0.3417384 0.012283443 -0.88494468 172 158 161
-0.34144756 0.011841968 -0.88458925 171 157 159
-0.34138665 0.01071303 -0.884381 169 152 156
-0.34095433 0.013398313 -0.8843829 172 162 162
-0.3410604 0.01184028 -0.88419986 170 158 159
-0.34088668 0.012108488 -0.88409263 170 158 159
-0.34139436 0.013480043 -0.88479036 173 163 163
-0.34450427 0.0084051667 -0.88694835 172 153 155
-0.34440008 0.0077847755 -0.88674164 171 154 154
-0.34452054 0.0075104884 -0.88680458 171 154 155
-0.34294078 0.0097071603 -0.88572991 171 149 155
-0.34264475 0.0069398703 -0.8849315 169 150 151
-0.34480301 0.0061019817 -0.88681334 169 156 154
-0.34317783 0.006227626 -0.88529766 169 152 151
-0.34359181 0.0069963313 -0.88584006 169 152 153
-0.34218433 0.0072351033 -0.88455284 169 149 151
-0.34335423 0.0078117601 -0.8857742 169 151 154
-0.34260058 0.008758679 -0.88524491 169 149 154
-0.34171662 0.0084033767 -0.88433689 168 147 152
-0.34068921 0.0090645337 -0.8834151 167 149 152
-0.341032 0.0084795523 -0.88366026 167 148 151
-0.34089619 0.0090804249 -0.88363045 167 149 152
-0.3418102 0.0049891863 -0.88373876 167 148 149
-0.34459576 0.0028188925 -0.88571131 170 158 160
-0.34519741 0.0023645516 -0.8861407 171 160 163
-0.34335163 0.0041091656 -0.88490021 169 154 155
-0.34238636 0.0028895338 -0.88378417 165 149 155
-0.34258667 0.0047509321 -0.88436836 169 151 152
-0.34218934 0.0040953197 -0.88387531 167 149 152
-0.34440863 0.0025758296 -0.88549346 169 157 160
-0.34384003 0.0052506402 -0.88567817 169 154 153
-0.34548444 0.0033252938 -0.88668275 171 160 161
-0.34302971 0.0049021412 -0.88480997 169 152 152
-0.34402531 0.0041190106 -0.88552815 170 155 156
-0.3454774 0.0033795196 -0.88669163 171 160 161
-0.34240738 0.0053009195 -0.88433486 169 150 150
-0.34340808 0.0057497099 -0.8854124 169 152 151
-0.34545809 0.0041528353 -0.88689858 171 159 159
-0.34132388 0.0052013411 -0.88332045 166 147 148
-0.34746701 -0.0011774099 -0.8870886 161 154 155
-0.34635916 0.001459007 -0.88687861 170 161 163
-0.34691334 -0.0014065264 -0.88663 159 152 153
-0.34636804 0.00016631116 -0.88658231 165 157 159
-0.34586826 -0.0015296845 -0.88584304 157 150 151
-0.3443327 -0.00091759313 -0.88458729 155 146 149
-0.34475294 -0.0019033683 -0.88475859 152 145 147
-0.34390876 -0.0012355028 -0.88412356 153 143 147
-0.34489983 0.00069838075 -0.88547176 164 154 157
-0.3443467 -0.00092219375 -0.88459927 155 146 149
-0.34372193 -0.00012754695 -0.88422436 157 146 151
-0.34240332 0.0011896264 -0.88339967 160 146 154
-0.34329626 0.00095803896 -0.88412595 161 148 155
-0.34337273 0.00092877215 -0.88418573 161 149 155
-0.34271038 0.0013111951 -0.88370055 161 147 155
-0.34389567 0.00063182972 -0.88457012 161 150 155
-0.34413719 -0.00020906422 -0.88456875 158 148 152
-0.34661022 -0.0019722488 -0.88628334 156 150 151
-0.34642282 -0.0025133393 -0.88600248 150 143 145
-0.34652588 -0.0030721526 -0.88591492 145 138 140
-0.34589633 -0.0030801527 -0.88540632 147 140 141
-0.34524232 -0.0031383424 -0.88478774 147 137 140
-0.36064303 0.035362612 -0.89935744 132 109 108
-0.36081707 0.03440452 -0.90004885 116 93 91
-0.35952997 0.034167089 -0.89904302 109 90 86
-0.36115494 0.036261547 -0.89930618 148 124 124
-0.36127731 0.03597733 -0.89957392 143 120 119
-0.36086994 0.031404465 -0.90058929 126 103 98
-0.36085933 0.031245496 -0.90055519 128 106 101
-0.35914207 0.029505206 -0.89923525 151 131 121
-0.36029926 0.029637916 -0.89994258 154 132 125
-0.36110207 0.031196272 -0.90069002 130 107 103
-0.35874292 0.032592919 -0.89890951 101 83 77
-0.3589721 0.033188 -0.89909065 92 74 69
-0.35869369 0.030082712 -0.89895749 141 121 111
-0.35945052 0.03197673 -0.89955819 112 92 86
-0.36081508 0.032797851 -0.90073586 102 80 76
-0.36198694 0.028354447 -0.90055633 156 134 131
-0.3616446 0.02683484 -0.8997888 160 135 133
-0.36174485 0.027814656 -0.90020883 159 135 133
-0.36332858 0.026657172 -0.90077031 142 121 120
-0.36319777 0.026187984 -0.9005177 143 122 121
-0.36254591 0.02629886 -0.90015322 150 127 126
-0.36312577 0.026981458 -0.90076268 144 123 122
-0.36354223 0.029216088 -0.90152377 73 63 61
-0.36391631 0.02864182 -0.90157598 75 65 63
-0.3622925 0.028581643 -0.90079254 145 125 122
-0.36152494 0.029280208 -0.90058076 156 134 130
-0.36373827 0.026907196 -0.90111315 137 118 116
-0.36218846 0.028751092 -0.90078014 144 124 121
-0.36034197 0.026247485 -0.89921278 166 142 140
-0.36083472 0.027386026 -0.89971083 165 141 138
-0.35946289 0.028411139 -0.89920121 158 137 129
-0.36104548 0.028902445 -0.9002406 163 140 136
-0.35935637 0.028727833 -0.89920515 157 136 128
-0.35917017 0.028938618 -0.89913964 156 135 126
-0.36080387 0.028877243 -0.90009248 162 140 135
-0.36310226 0.022086278 -0.90047538 169 146 150
-0.36192802 0.022684203 -0.89989948 170 147 152
-0.36227232 0.02277256 -0.90000898 169 146 149
-0.36435995 0.021964731 -0.90097535 165 142 143
-0.36312842 0.021777393 -0.90055466 170 148 152
-0.36254457 0.021671666 -0.90035903 171 150 157
-0.36471173 0.022830628 -0.90111506 155 133 133
-0.36451098 0.023907404 -0.90101242 146 124 124
-0.36512667 0.024922052 -0.90141571 128 110 110
-0.36325228 0.025065498 -0.90025401 146 123 123
-0.36499372 0.023374705 -0.90130144 146 126 125
-0.36305189 0.024635084 -0.90012068 153 129 128
-0.36492145 0.022909109 -0.90124696 152 130 130
-0.35929298 0.023270277 -0.89894992 176 156 155
-0.35942951 0.022193501 -0.89923197 179 161 163
-0.35982573 0.023304638 -0.8990972 175 153 154
-0.35903007 0.022100527 -0.8991366 181 163 165
-0.36090389 0.023494687 -0.89936823 171 147 150
-0.35958892 0.023796111 -0.89893925 174 152 151
-0.36087307 0.02522881 -0.89900571 165 139 138
-0.36245075 0.01825553 -0.89993089 176 157 159
-0.36335632 0.018916681 -0.90039933 168 147 151
-0.36180514 0.019615946 -0.89986569 177 158 163
-0.36188388 0.02090231 -0.90008664 173 153 161
-0.36240011 0.019561552 -0.90010172 173 153 158
-0.36250666 0.018596997 -0.90000391 174 155 158
-0.36447257 0.019485204 -0.9009012 163 142 144
-0.36377704 0.020363415 -0.90073848 167 145 149
-0.36302802 0.021126708 -0.9005428 170 149 155
-0.36435035 0.020564903 -0.9009766 165 143 146
-0.36412469 0.019293783 -0.90074897 164 143 146
-0.36489823 0.0204923 -0.90117437 164 141 142
-0.36069643 0.017732937 -0.89918768 186 169 170
-0.36115059 0.01800088 -0.8993752 185 167 169
-0.36054632 0.019552121 -0.89940554 181 163 169
-0.35952216 0.018655974 -0.89896113 186 169 172
-0.35923338 0.020964837 -0.89925051 183 166 170
-0.35929331 0.019716688 -0.89906609 185 168 171
-0.36100528 0.020902142 -0.89975595 178 158 167
-0.35876992 0.019830063 -0.8989321 186 171 172
-0.36146456 0.014609472 -0.89883506 178 159 161
-0.36383119 0.014968491 -0.90017658 162 143 140
-0.36222863 0.015082887 -0.89936078 173 155 155
-0.36224496 0.015471246 -0.89944416 174 156 156
-0.36289316 0.015308848 -0.89975178 169 151 149
-0.36211362 0.014579193 -0.89920354 173 154 155
-0.36439067 0.015857082 -0.90048921 160 140 138
-0.36317101 0.016527224 -0.90004271 170 152 150
-0.36320582 0.017332757 -0.90012151 172 153 153
-0.36470518 0.015179504 -0.9005639 156 137 133
-0.36331066 0.016846552 -0.90012556 170 151 150
-0.36364651 0.017428938 -0.90030998 169 149 149
-0.36095986 0.015977299 -0.8989082 182 164 166
-0.36104634 0.016981438 -0.89915138 184 167 169
-0.32076263 0.03897661 -0.87517732 131 108 105
-0.32012767 0.039266963 -0.87498146 132 112 106
-0.32109392 0.0381632 -0.87504506 131 107 107
-0.32127616 0.0375246 -0.8748849 129 103 107
-0.32002214 0.037879456 -0.87437403 127 101 105
-0.31542525 0.037955157 -0.87262475 132 110 106
-0.31514961 0.037158322 -0.87212735 134 115 110
-0.31156901 0.037477508 -0.8716588 133 107 103
-0.31296018 0.037228286 -0.87170941 135 114 108
-0.31257766 0.037671246 -0.87199223 134 111 105
-0.31224227 0.037756383 -0.87200308 133 110 104
-0.31314388 0.03806844 -0.87239671 134 113 106
-0.31364974 0.038202349 -0.87250543 134 114 106
-0.32321447 0.033647183 -0.87504166 144 125 125
-0.32258284 0.035311092 -0.87497336 137 114 117
-0.32354271 0.03337086 -0.87525731 146 128 126
-0.31896549 0.034773923 -0.87255841 127 100 110
-0.32033032 0.03358395 -0.8729288 135 112 118
-0.32117739 0.033264458 -0.87334591 138 118 121
-0.32114422 0.033980489 -0.87364393 137 116 119
-0.31966248 0.034478109 -0.87288696 130 105 113
-0.31958064 0.034540094 -0.87286055 130 104 113
-0.32110521 0.035296127 -0.87407488 133 109 114
-0.3207826 0.036413465 -0.87424916 128 102 109
-0.3210122 0.037095807 -0.87457758 127 99 107
-0.32153502 0.034426894 -0.87403238 137 115 118
-0.32024142 0.035608329 -0.87372106 129 105 111
-0.3204267 0.035680801 -0.87383962 130 105 111
-0.31513157 0.036027513 -0.87152487 134 115 113
-0.31629646 0.036127687 -0.87205553 131 109 110
-0.3164615 0.035428058 -0.87179869 132 109 112
-0.31710312 0.034860343 -0.87176412 130 105 112
-0.31633824 0.037039869 -0.87247837 129 106 107
-0.31664923 0.036307752 -0.87225693 129 106 108
-0.31636372 0.035787564 -0.87192625 131 109 111
-0.32411438 0.032019414 -0.87521386 151 133 132
-0.3234131 0.033129506 -0.87505537 147 129 127
-0.32363713 0.031662669 -0.87462199 150 133 132
-0.32287776 0.029827252 -0.87318778 153 138 135
-0.32487679 0.029532148 -0.87484264 158 143 141
-0.32424697 0.030449873 -0.8746618 154 138 137
-0.32424161 0.029721657 -0.87435633 156 141 139
-0.32286358 0.03218326 -0.87414801 147 129 129
-0.32280618 0.030464433 -0.87338722 151 136 134
-0.32430264 0.030643232 -0.87479115 154 137 137
-0.3215414 0.030588122 -0.87251455 147 131 130
-0.32155055 0.030807436 -0.87261069 146 130 129
-0.32121381 0.029458692 -0.87184757 149 134 132
-0.31981266 0.031240471 -0.8716436 139 118 124
-0.32016429 0.032927398 -0.8725403 136 113 120
-0.31978264 0.032090854 -0.87195861 137 114 121
-0.32021722 0.03228391 -0.8723219 138 116 122
-0.32077587 0.029460046 -0.87157917 147 132 131
-0.32197374 0.032982729 -0.87375808 142 124 124
-0.32068229 0.030007627 -0.87173295 145 129 129
-0.32721335 0.025661705 -0.87519491 158 143 147
-0.32632092 0.026842536 -0.87493312 159 144 146
-0.32253036 0.027237179 -0.87182373 154 138 138
-0.32361037 0.025484815 -0.87206 156 138 142
-0.32351628 0.026035506 -0.87219763 155 138 141
-0.32329723 0.027945299 -0.87276602 154 140 139
-0.32272995 0.028192965 -0.87238258 153 139 137
-0.32362261 0.026621992 -0.87251943 155 139 141
-0.32318181 0.026503 -0.87209851 155 138 140
-0.3254959 0.02668489 -0.87415844 157 142 144
-0.32450026 0.028903635 -0.87423956 157 143 141
-0.32522872 0.026659481 -0.87390995 156 142 144
-0.32436574 0.029229945 -0.87426215 157 143 141
-0.32397941 0.02837567 -0.87354678 155 141 140
-0.32464954 0.028000368 -0.87397897 156 142 142
-0.3259075 0.027418332 -0.8748405 159 144 145
-0.32135284 0.028960848 -0.87172645 150 135 133
-0.32198581 0.028622825 -0.87197375 152 138 135
-0.32727906 0.025176426 -0.87506509 157 143 147
-0.32796079 0.02317174 -0.87497336 155 139 147
-0.32784197 0.023366515 -0.87493753 156 139 147
-0.32679448 0.024135023 -0.87429625 156 141 147
-0.32697624 0.021681461 -0.87358624 155 139 147
-0.32638139 0.021656346 -0.87305635 155 139 147
-0.32856143 0.021600537 -0.87494576 155 137 147
-0.32677665 0.023008838 -0.87388164 156 140 147
-0.3259688 0.023846431 -0.87348878 155 142 147
-0.32547557 0.022825383 -0.87273854 153 141 147
-0.32594964 0.022851586 -0.87312126 155 141 147
-0.32315335 0.025106756 -0.87154198 155 137 141
-0.32373309 0.024007071 -0.87167305 153 139 143
-0.3250396 0.023950394 -0.8727628 154 141 146
-0.32359034 0.024580885 -0.87174016 154 138 143
-0.32428369 0.023940902 -0.87211841 154 140 145
-0.32514724 0.024976384 -0.8731907 155 141 145
-0.32647976 0.020033369 -0.87255061 150 134 139
-0.32652324 0.018826295 -0.87213731 144 128 132
-0.32876995 0.017678777 -0.87377596 149 134 131
-0.32866284 0.01760979 -0.87365133 149 133 130
-0.3272295 0.019286416 -0.87296069 150 134 136
-0.32743734 0.01983819 -0.87335944 154 138 140
-0.32799861 0.018628115 -0.87342191 150 135 135
-0.32638273 0.021321589 -0.87294286 155 139 146
-0.32979369 0.018300829 -0.87493265 155 139 136
-0.32888722 0.020452192 -0.87484914 155 138 144
-0.32738626 0.021041235 -0.87372917 155 139 145
-0.32900968 0.021328019 -0.87524551 155 137 147
-0.32746977 0.021362776 -0.87390846 155 138 146
-0.32585967 0.018805826 -0.87156355 141 129 132
-0.32579422 0.020635242 -0.87219673 150 136 142
-0.33020964 0.017537931 -0.8750512 156 139 134
-0.33036035 0.015401039 -0.87460655 151 135 131
-0.33036244 0.014909578 -0.8744663 150 134 130
-0.33086693 0.01506143 -0.87503648 152 136 132
-0.328803 0.013976601 -0.87267375 140 118 121
-0.32906181 0.015525261 -0.87337136 145 124 125
-0.32999867 0.017287217 -0.87478244 154 138 133
-0.32980093 0.014050641 -0.87365443 146 128 126
-0.32955581 0.017099112 -0.87431133 152 134 131
-0.33082807 0.013576832 -0.87457526 149 133 129
-0.33141166 0.012345941 -0.87495118 151 135 132
-0.33154407 0.012309837 -0.87508249 152 136 133
-0.33020413 0.010058252 -0.87319374 146 135 126
-0.3311933 0.010535378 -0.87435842 151 137 132
-0.33011228 0.013501836 -0.87381244 147 131 127
-0.33021203 0.01197277 -0.87360126 147 133 127
-0.33096185 0.010611614 -0.87412506 150 136 131
-0.32944426 0.010687875 -0.87251484 142 130 122
-0.329584 0.010091682 -0.87253922 142 131 123
-0.3294059 0.011523832 -0.87264824 142 128 122
-0.32868642 0.012503674 -0.87218624 138 119 119
-0.32890847 0.010884199 -0.87200153 138 125 119
-0.32909709 0.012675662 -0.87262326 140 123 121
-0.32886204 0.012520457 -0.87235916 139 120 120
-0.32880288 0.010218219 -0.87173635 138 126 118
-0.33262023 0.0079029603 -0.87526852 151 138 134
-0.33112019 0.0089841755 -0.87392366 148 136 129
-0.33188632 0.0078916056 -0.8744753 148 136 130
-0.33124596 0.0092292558 -0.87412047 149 137 131
-0.33186954 0.0067731482 -0.8741858 147 134 129
-0.33242813 0.0067657763 -0.87477779 147 135 129
-0.33135444 0.0079927351 -0.87392986 146 135 128
-0.33206749 0.0071234116 -0.87447989 147 135 129
-0.33047348 0.0084544327 -0.87310386 146 134 127
-0.33074462 0.0064122672 -0.87290382 146 131 128
-0.32996041 0.0073397006 -0.87229496 145 131 126
-0.32964113 0.0088915918 -0.87232643 143 131 124
-0.32981813 0.0086752092 -0.87246382 144 131 125
-0.32971415 0.0073241116 -0.87203532 144 129 125
-0.33016804 0.0051946403 -0.87195772 143 128 127
-0.33274493 0.0026840204 -0.87401611 144 130 129
-0.3328158 0.0028143765 -0.87413365 144 130 129
-0.33171672 0.0033261958 -0.8730852 142 128 128
-0.33298576 0.0025146864 -0.87422836 144 130 129
-0.33091015 0.0048774853 -0.87267524 145 130 128
-0.33140668 0.0031025738 -0.87267697 140 127 127
-0.33062318 0.0047553079 -0.87232322 143 129 127
-0.33301592 0.0046528243 -0.87485725 147 133 130
-0.33353597 0.0034784651 -0.87509024 146 133 130
-0.33360583 0.0026280065 -0.87493289 146 132 130
-0.33185318 0.0056315586 -0.8738879 146 133 129
-0.3332442 0.0029690273 -0.8746413 146 132 130
-0.33173096 0.0058169421 -0.8738085 147 133 129
-0.33396626 0.0022882593 -0.87521684 146 132 131
-0.33481511 -0.00095865666 -0.8751418 149 134 140
-0.33400348 -0.0017574271 -0.87404209 149 135 141
-0.33514756 -0.0016126207 -0.87529361 150 135 142
-0.3322773 -0.0016173294 -0.87196529 153 137 144
-0.33273023 -0.0015017717 -0.87255752 152 136 143
-0.33361948 -0.00027498638 -0.87402445 149 134 137
-0.33283404 -0.00055856083 -0.87297231 150 135 140
-0.33234555 -2.7036993e-05 -0.87261569 147 133 137
-0.33297059 0.0015493825 -0.87388939 143 130 131
-0.33227834 0.00089940894 -0.87288785 143 130 132
-0.33166358 -0.00014345744 -0.87182462 145 131 136
-0.3316192 0.00028172694 -0.87193471 144 130 134
-0.3349168 -0.0019577488 -0.87494457 150 136 143
-0.33564231 -0.0037235711 -0.87499267 154 141 146
-0.33614063 -0.0041217655 -0.87535673 155 142 147
-0.33637819 -0.0053485045 -0.87509865 157 146 149
-0.33543965 -0.0056754933 -0.87384146 158 146 151
-0.3354148 -0.0046979687 -0.87429094 156 143 148
-0.33606288 -0.0048460811 -0.87497604 156 144 148
-0.3340992 -0.004261923 -0.87296647 154 141 148
-0.33523741 -0.0055443025 -0.87366927 157 145 151
-0.33375505 -0.0041580694 -0.87261486 154 140 148
-0.33296606 -0.0033661621 -0.87202895 154 139 147
-0.33356816 -0.0033002165 -0.87280118 153 139 146
-0.33382669 -0.0022922507 -0.87360501 151 136 143
-0.33288538 -0.0031537022 -0.87203217 154 139 147
-0.3323659 -0.0028035066 -0.87156212 154 139 147
-0.33438694 -0.0069619948 -0.87182897 160 147 154
-0.33602145 -0.0097438488 -0.87203234 162 152 156
-0.33531567 -0.0074042459 -0.87270755 157 145 152
-0.33565819 -0.0084207254 -0.87245995 159 148 154
-0.33726284 -0.0091747753 -0.87399805 156 144 151
-0.33582053 -0.0087883091 -0.87241948 160 149 154
-0.33552989 -0.0072110048 -0.87309021 157 144 152
-0.33612567 -0.0073215896 -0.87372392 157 145 151
-0.3361192 -0.0069242367 -0.87394178 157 145 151
-0.3355796 -0.0061318139 -0.87376052 158 146 151
-0.33475882 -0.0065210676 -0.87258017 157 144 152
-0.33617073 -0.0071336525 -0.87388325 157 145 151
-0.33542058 -0.0061374023 -0.87357146 158 146 152
-0.33773926 -0.0091977157 -0.87454611 156 144 151
-0.33386803 -0.0063898349 -0.87158853 161 147 155
-0.33711818 -0.010269196 -0.87303334 156 147 151
-0.33707124 -0.010632697 -0.87269723 154 148 150
-0.33776405 -0.010179892 -0.87392461 154 144 149
-0.33675319 -0.0100487 -0.87273556 158 149 153
-0.33717254 -0.0098753609 -0.87340188 157 147 152
-0.33536676 0.041609298 -0.88780123 149 125 114
-0.33649918 0.041233864 -0.88826936 150 125 115
-0.34205523 0.037587795 -0.88923681 152 129 125
-0.33968461 0.037713524 -0.88841122 153 128 125
-0.33793795 0.03736034 -0.88761163 153 125 125
-0.339544 0.038443986 -0.88862658 152 127 123
-0.33964279 0.038447045 -0.88866556 152 128 123
-0.33867481 0.03931151 -0.88861316 151 125 120
-0.33796054 0.038244598 -0.88794619 152 125 123
-0.34060991 0.038541459 -0.88906813 152 128 123
-0.33751634 0.038301945 -0.88769257 152 125 122
-0.33664909 0.040421877 -0.8880353 151 126 117
-0.33696055 0.03862771 -0.88751155 152 126 122
-0.33672711 0.039330795 -0.88765615 152 126 120
-0.33680829 0.039071787 -0.88760024 152 126 121
-0.33658874 0.039366391 -0.88759458 152 126 120
-0.3465316 0.035361364 -0.88999742 154 126 125
-0.34727848 0.035020437 -0.8901884 155 128 125
-0.34766081 0.033884518 -0.89011878 158 131 127
-0.34593883 0.034553759 -0.88965815 156 128 127
-0.34659714 0.035191644 -0.88998985 154 127 125
-0.34307078 0.035787337 -0.88909626 156 133 129
-0.34221768 0.036092974 -0.88885432 155 133 130
-0.34194374 0.0340336 -0.88812101 160 133 133
-0.34256187 0.036216639 -0.88902694 155 133 129
-0.34271079 0.03597609 -0.88901234 156 133 129
-0.34335616 0.033443421 -0.88849598 161 133 133
-0.34437728 0.035828162 -0.88945282 154 129 127
-0.34556615 0.035296176 -0.88967246 154 126 126
-0.34493256 0.034304891 -0.88933343 158 131 129
-0.33804825 0.036236569 -0.8872599 155 128 128
-0.34084031 0.033498023 -0.88749784 161 134 135
-0.33964097 0.035190336 -0.88757938 157 130 130
-0.3406128 0.035402134 -0.8880254 157 131 130
-0.3389695 0.0362681 -0.88765877 155 128 128
-0.34161553 0.036390331 -0.88871002 155 132 129
-0.34125569 0.035141207 -0.88819253 158 132 131
-0.34011093 0.035361975 -0.8878209 157 130 130
-0.34004134 0.036910985 -0.88826495 154 129 127
-0.33788586 0.036366954 -0.88723505 155 128 128
-0.34929407 0.03160103 -0.89093715 158 129 127
-0.3472296 0.030065892 -0.88997418 163 134 134
-0.34865081 0.032008152 -0.89035666 161 135 130
-0.34865209 0.030367607 -0.89090848 158 127 127
-0.34796286 0.030973969 -0.89020306 161 134 132
-0.34668365 0.029364912 -0.88981211 163 134 135
-0.34591985 0.031880721 -0.88934118 162 135 134
-0.3472698 0.032120273 -0.88980722 162 136 132
-0.34589988 0.033105198 -0.88940442 161 133 131
-0.34646001 0.032619566 -0.88956434 161 134 131
-0.34656224 0.03153953 -0.88953698 163 136 134
-0.34185711 0.032284431 -0.88763875 164 139 138
-0.34222686 0.03203845 -0.88779104 164 139 138
-0.3430495 0.030434441 -0.88789243 167 145 142
-0.34345958 0.030520143 -0.88814068 166 143 141
-0.34413993 0.02949309 -0.88829142 168 146 143
-0.34423915 0.030419128 -0.88855374 165 140 139
-0.34488815 0.030176165 -0.8888514 165 139 139
-0.34393018 0.03151644 -0.88855195 164 136 137
-0.3429009 0.032676067 -0.88821417 162 134 135
-0.34537449 0.032790989 -0.88919151 161 133 132
-0.34489724 0.031723943 -0.88894331 163 136 135
-0.34514737 0.030807419 -0.88898915 164 138 137
-0.34165198 0.032731283 -0.88764006 163 137 136
-0.34129819 0.032409102 -0.88741171 163 139 138
-0.34745264 0.027472856 -0.89054024 168 135 139
-0.34738013 0.029067975 -0.89036024 162 130 133
-0.34753215 0.028634006 -0.89050549 163 131 134
-0.34649673 0.028446287 -0.88976669 167 138 140
-0.34755298 0.029280871 -0.89046907 160 128 131
-0.34665987 0.027136948 -0.88996845 171 140 144
-0.34663638 0.02727857 -0.88994491 171 140 144
-0.34642485 0.027863111 -0.88975418 169 140 143
-0.34650412 0.026365697 -0.88986558 173 141 145
-0.34415001 0.026917186 -0.88808429 169 146 146
-0.34552041 0.025946032 -0.88909507 174 143 147
-0.3455545 0.02632368 -0.88910758 173 142 146
-0.34489959 0.026596278 -0.88863057 171 144 146
-0.34549028 0.025949629 -0.88907337 174 143 147
-0.34246558 0.027105404 -0.8871184 170 153 149
-0.34328356 0.028808642 -0.88772601 169 150 146
-0.342962 0.029142983 -0.88757586 170 152 146
-0.34442338 0.028948853 -0.88837522 168 146 143
-0.34241328 0.028623678 -0.88722336 170 154 148
-0.34261185 0.027935199 -0.88727343 170 153 148
-0.34639072 0.024629213 -0.88986546 177 147 152
-0.34765065 0.023176828 -0.89101034 181 157 161
-0.34762329 0.023531545 -0.89095926 180 154 159
-0.34757563 0.024995934 -0.89080161 176 142 149
-0.34685853 0.021624729 -0.8904348 184 167 171
-0.34617415 0.022963913 -0.88976109 180 157 162
-0.34646681 0.022931457 -0.89002973 181 159 163
-0.34697375 0.021683136 -0.89053798 184 167 171
-0.34455091 0.021982813 -0.88835788 181 160 165
-0.34542489 0.023141664 -0.88908082 179 154 160
-0.34384125 0.021658111 -0.88774866 181 162 166
-0.34511805 0.022716807 -0.88882768 180 156 162
-0.34367162 0.021574443 -0.88760322 181 163 166
-0.34469789 0.02492425 -0.88849121 175 147 150
-0.34321585 0.022862783 -0.88728642 178 159 160
-0.34294391 0.024840342 -0.88723058 172 153 152
-0.34387815 0.022761595 -0.88775313 179 157 160
-0.34335831 0.023467259 -0.88743073 177 156 157
-0.34719744 0.018660109 -0.89067429 180 165 171
-0.34605548 0.020871857 -0.88968974 181 163 171
-0.34686014 0.020032734 -0.89040262 181 166 171
-0.34601307 0.017831171 -0.88964266 180 168 171
-0.34634155 0.018562797 -0.88992834 180 166 171
-0.34574088 0.020477004 -0.88941413 181 164 171
-0.3460404 0.018187497 -0.88966715 180 167 171
-0.34539923 0.019224808 -0.88910913 181 166 170
-0.34501037 0.018439744 -0.88876265 181 167 170
-0.34428725 0.018944839 -0.88812339 181 167 170
-0.34540093 0.018824773 -0.88910961 181 167 170
-0.34429827 0.020552518 -0.88814586 182 164 169
-0.34350187 0.020421114 -0.88744771 182 165 167
-0.34327847 0.019176045 -0.88724029 182 167 168
-0.34465536 0.020372437 -0.88845658 182 165 170
-0.34634858 0.016994696 -0.88987434 180 167 169
-0.34680003 0.016322814 -0.89019823 180 165 168
-0.34693041 0.016224278 -0.89030117 180 164 168
-0.34795648 0.014350769 -0.89100301 179 160 165
-0.3463847 0.015057509 -0.8897025 177 161 165
-0.34653345 0.014311683 -0.88975316 176 158 163
-0.34705946 0.013699183 -0.89014959 177 157 162
-0.34621209 0.015389743 -0.88958651 178 162 165
-0.34512252 0.013827345 -0.88839924 173 156 160
-0.34522143 0.015483274 -0.88867438 176 162 165
-0.34502998 0.01431348 -0.88836014 174 158 162
-0.34485078 0.015138378 -0.88827193 176 162 164
-0.34409755 0.016767962 -0.88782603 179 167 168
-0.34365782 0.015352049 -0.88721657 176 163 164
-0.34430841 0.016726628 -0.88800639 179 167 168
-0.34433499 0.015867537 -0.88789648 177 164 166
-0.34338745 0.016784379 -0.88719958 180 167 168
-0.34863189 0.010940417 -0.89097941 177 162 161
-0.34737995 0.01182727 -0.89005768 174 159 160
-0.34767303 0.011529866 -0.89025545 175 160 160
-0.34778893 0.012881672 -0.89062876 177 159 162
-0.34693661 0.010697522 -0.88948762 174 158 157
-0.34656629 0.010514598 -0.88914514 174 156 156
-0.34735894 0.01097835 -0.88989043 174 159 159
-0.34617501 0.011821008 -0.88903779 173 155 157
-0.34602693 0.010979867 -0.88877046 173 155 155
-0.34726799 0.01103949 -0.88982427 174 159 159
-0.34523576 0.010683407 -0.88801795 173 153 155
-0.34562182 0.011266824 -0.88847208 173 154 155
-0.34511894 0.013136098 -0.88829976 173 155 159
-0.34475502 0.013165704 -0.88794523 173 156 159
-0.34497544 0.013000603 -0.88813818 173 155 159
-0.34434825 0.011973619 -0.88736778 173 155 158
-0.34896472 0.0082895886 -0.89078069 172 162 161
-0.34790277 0.0085485205 -0.88993222 172 159 158
-0.3486 0.0075025628 -0.8903383 170 160 161
-0.34908295 0.008330809 -0.8908872 172 162 161
-0.34734994 0.0091022598 -0.88956267 173 158 157
-0.34792218 0.0075634159 -0.88976866 170 158 159
-0.34657711 0.0088135712 -0.88885885 172 155 155
-0.34612873 0.0066589941 -0.88811344 170 157 156
-0.34651214 0.0077273184 -0.88861769 171 156 156
-0.34592885 0.0058770757 -0.88781184 169 158 156
-0.34576741 0.0092609096 -0.88825893 173 154 153
-0.34860888 0.0059295651 -0.89006114 168 160 161
-0.34746134 0.0073574521 -0.88934749 170 157 158
-0.34551337 0.0080139441 -0.88781047 172 155 153
-0.34508535 0.0074679255 -0.88731909 171 155 154
-0.34532702 0.0074511915 -0.88753843 171 155 154
-0.35059622 0.002868311 -0.89076769 171 159 164
-0.35064557 0.0031489097 -0.89087003 170 159 164
-0.349821 0.0051045241 -0.89083153 168 160 164
-0.34682858 0.0030645858 -0.88775194 171 161 162
-0.3472001 0.003899992 -0.88834912 171 159 160
-0.3489632 0.0025334973 -0.88950413 173 160 163
-0.34593353 0.0051411409 -0.88760114 170 158 157
-0.34658888 0.0035839924 -0.88770002 171 160 161
-0.34644255 0.0037736089 -0.88762814 171 160 160
-0.34926763 0.0044058673 -0.89023393 170 160 163
-0.34743544 0.0050500659 -0.88886452 170 159 159
-0.34742659 0.005745037 -0.88903201 169 159 159
-0.34884802 0.0042964807 -0.88985568 170 160 162
-0.34954381 0.0049254335 -0.89059556 169 160 164
-0.34744728 0.0042329691 -0.88866878 171 159 159
-0.34930488 0.0035204799 -0.89004225 171 160 163
-0.35142505 0.00044505892 -0.89063221 171 159 162
-0.3499929 0.0016954805 -0.89007419 173 160 164
-0.35207152 0.00013873074 -0.8909592 170 158 162
-0.3511568 -0.0017093853 -0.88975728 165 154 154
-0.34961033 0.00078513264 -0.88951755 170 157 160
-0.35110965 -2.4318346e-05 -0.89028096 170 158 161
-0.35210148 -0.00092165673 -0.89066654 170 158 160
-0.35099572 -0.0014825717 -0.88972145 166 154 154
-0.35265848 -0.0018191318 -0.89075327 168 157 158
-0.3494671 0.00093454239 -0.8894518 170 158 161
-0.34918091 0.00090629485 -0.88921225 170 158 161
-0.34801498 -0.0017571215 -0.88739562 160 152 153
-0.3495951 0.0012661747 -0.88966417 171 159 162
-0.34815454 -0.00083130877 -0.88780183 163 154 156
-0.34795004 0.0016122782 -0.88831329 171 161 163
-0.34731421 -0.00030949432 -0.88719469 164 156 158
-0.34755072 0.0016483578 -0.88796443 171 161 164
-0.34797865 -0.00080078817 -0.88765234 163 154 156
-0.34758615 0.00091498543 -0.88778764 169 159 161
-0.35455465 -0.0045119794 -0.89097226 155 138 143
-0.3512992 -0.0021177055 -0.8897177 164 153 153
-0.3503238 -0.0024134233 -0.88894284 161 148 149
-0.35329181 -0.0041294787 -0.89038152 160 145 150
-0.35284948 -0.0040476406 -0.89010578 159 144 149
-0.35172805 -0.003612374 -0.88948703 159 144 147
-0.35195079 -0.0040848902 -0.8894738 157 142 146
-0.34979081 -0.0030607963 -0.88839769 151 139 141
-0.34874928 -0.0023407403 -0.88780689 156 146 147
-0.34925377 -0.0021879689 -0.8882578 158 147 147
-0.30693752 0.033474065 -0.86727464 121 94 102
-0.31145453 0.030577147 -0.86718571 125 111 108
-0.31216726 0.029650003 -0.86696965 123 109 109
-0.3116996 0.030301407 -0.86713839 124 110 109
-0.31138733 0.029366234 -0.86639416 121 107 107
-0.30727032 0.033109982 -0.86712164 122 96 104
-0.30845192 0.032350417 -0.86707324 123 101 105
-0.30947682 0.032196768 -0.86734813 125 107 106
-0.31000128 0.030853575 -0.86669791 122 107 105
-0.30874556 0.032063659 -0.86700016 123 102 105
-0.30842218 0.030368757 -0.86567831 119 101 103
-0.30714884 0.030947415 -0.86548382 119 98 103
-0.30900618 0.029975267 -0.86566985 119 102 104
-0.30756658 0.031627674 -0.86621141 120 97 103
-0.30744079 0.030124765 -0.86500204 119 101 103
-0.30693597 0.031603977 -0.8658784 119 96 103
-0.30712813 0.030192403 -0.86489749 118 100 103
-0.30411011 0.031608231 -0.86461365 117 93 95
-0.30416957 0.030977016 -0.86407316 116 95 95
-0.30584294 0.029698776 -0.86388254 117 100 100
-0.30560926 0.032415759 -0.86590493 119 93 99
-0.30573547 0.032603726 -0.86610281 119 92 100
-0.30562988 0.031907327 -0.8655259 119 94 99
-0.30620274 0.030313609 -0.86455733 118 99 101
-0.30546853 0.032426272 -0.86585218 119 93 99
-0.306245 0.031551871 -0.8655203 119 96 101
-0.31488705 0.026612796 -0.86665893 130 113 120
-0.31678843 0.025574347 -0.86720115 138 122 126
-0.3144936 0.025687292 -0.86590874 129 111 119
-0.31616408 0.026896734 -0.86757213 135 119 123
-0.31504598 0.026994178 -0.86696619 131 114 120
-0.31214622 0.026336815 -0.8650341 125 105 110
-0.31205148 0.026067963 -0.86482394 125 105 109
-0.31085777 0.028744154 -0.86576265 121 106 106
-0.3116335 0.027030582 -0.86516774 123 105 108
-0.31155106 0.025482412 -0.8642078 125 102 107
-0.31277937 0.026991708 -0.86576283 125 108 113
-0.3115685 0.025424605 -0.86418301 125 102 107
-0.31226584 0.027579838 -0.86583358 124 108 111
-0.31338096 0.027951585 -0.86661172 126 110 114
-0.31268767 0.029153913 -0.866934 124 109 111
-0.31291729 0.029174874 -0.86706299 124 109 111
-0.31420237 0.026537543 -0.86623579 128 110 118
-0.31396645 0.026294716 -0.8659789 128 110 117
-0.31028935 0.025746003 -0.86369121 123 100 102
-0.30983245 0.02711051 -0.86427081 121 101 103
-0.30901688 0.028733205 -0.864824 119 103 103
-0.30952603 0.026578536 -0.86380285 122 100 103
-0.3102465 0.025806896 -0.86370599 123 100 103
-0.30768108 0.028742786 -0.86416245 119 102 103
-0.30864558 0.027562845 -0.86394572 120 101 103
-0.31014213 0.027813425 -0.86484158 121 103 104
-0.31908506 0.022593729 -0.8674987 142 128 133
-0.31863901 0.023011189 -0.86731207 142 126 132
-0.31786782 0.024523426 -0.86738133 141 125 129
-0.31487447 0.025295673 -0.86592901 131 112 121
-0.31686866 0.023716088 -0.86649483 137 119 126
-0.31831476 0.02341301 -0.86722159 142 126 130
-0.31703955 0.024469247 -0.86687654 138 121 127
-0.31761488 0.022374861 -0.86642557 139 120 128
-0.31780651 0.022112733 -0.86643869 139 121 129
-0.31555879 0.023858717 -0.86576235 133 115 123
-0.31726944 0.021839079 -0.86598128 137 120 127
-0.31461686 0.023554137 -0.86502826 130 114 120
-0.31518584 0.021736037 -0.86460465 132 118 121
-0.31556848 0.023474492 -0.86560214 133 115 122
-0.31536028 0.023908159 -0.86565685 132 114 122
-0.31435567 0.024366444 -0.86521745 129 112 119
-0.31216305 0.024741486 -0.86419708 126 105 109
-0.31351101 0.023426957 -0.86434376 127 111 116
-0.31296536 0.023707846 -0.86417347 127 109 113
-0.31372523 0.024518397 -0.86494118 128 110 116
-0.31213778 0.025068749 -0.86432791 126 104 109
-0.31219247 0.024777317 -0.86422873 126 105 109
-0.31500605 0.020423016 -0.86397851 126 115 119
-0.31657758 0.01896923 -0.86448795 123 114 120
-0.31694469 0.0186671 -0.86462259 122 114 121
-0.31517676 0.0210643 -0.86434442 129 117 120
-0.31727472 0.019430166 -0.86511993 127 116 123
-0.3156592 0.020663954 -0.86451423 129 117 121
-0.31818676 0.019439362 -0.86570621 130 118 126
-0.31728855 0.019987727 -0.86532182 130 118 124
-0.31813064 0.018730944 -0.86542511 126 116 124
-0.33057526 0.037619546 -0.88279665 154 137 126
-0.32726973 0.039016813 -0.88028747 141 123 116
-0.32706273 0.040077776 -0.88049316 136 117 112
-0.32882091 0.038120124 -0.881446 148 132 122
-0.32692653 0.037873968 -0.87951773 145 127 118
-0.32909086 0.037592094 -0.88150525 151 136 125
-0.32728535 0.039655156 -0.88054699 138 120 114
-0.32794937 0.037218843 -0.88025725 150 133 123
-0.32849312 0.039727427 -0.88171464 142 121 115
-0.32846114 0.040149547 -0.88183415 141 118 113
-0.32898867 0.038488802 -0.88174134 148 131 121
-0.32768267 0.040106505 -0.8810873 138 118 113
-0.32924947 0.038306396 -0.88192171 149 132 122
-0.327142 0.040052138 -0.88055998 136 117 113
-0.33001128 0.038363915 -0.88266087 152 133 123
-0.331745 0.035581686 -0.88292402 158 141 133
-0.33189079 0.036002994 -0.88315654 157 139 132
-0.33052349 0.034826029 -0.88170242 159 143 136
-0.33050954 0.03332511 -0.88108391 160 143 141
-0.33059362 0.033311818 -0.88114464 161 143 141
-0.33031827 0.034203455 -0.88128895 159 143 138
-0.33158919 0.034517169 -0.88241577 159 143 137
-0.33225366 0.033480138 -0.88251877 161 143 141
-0.32993907 0.034277007 -0.8810038 159 143 138
-0.32984152 0.033468734 -0.88058817 160 143 140
-0.32974169 0.0334609 -0.88049448 160 143 140
-0.32856536 0.03474392 -0.87991172 156 141 132
-0.32857794 0.036964141 -0.8807686 152 136 125
-0.32969919 0.036872178 -0.88181913 155 141 128
-0.3283267 0.036200002 -0.88023466 153 137 127
-0.32923976 0.036608107 -0.88127387 154 139 128
-0.32923695 0.035954226 -0.88102239 156 141 130
-0.33406836 0.031235117 -0.88308001 163 146 143
-0.33050576 0.030986704 -0.88017535 164 147 146
-0.33048975 0.03171654 -0.8804453 162 146 144
-0.33336562 0.029459653 -0.88184834 164 149 145
-0.33128849 0.031286649 -0.88091123 163 146 144
-0.33283663 0.029326009 -0.8813777 164 149 146
-0.33323458 0.030006371 -0.88195634 163 148 144
-0.33328325 0.029829448 -0.88192636 163 148 144
-0.33296329 0.032311928 -0.88262433 162 145 142
-0.33379599 0.029653717 -0.88226342 163 148 144
-0.33138949 0.032195926 -0.88134187 161 145 142
-0.33207157 0.031276558 -0.88152707 162 146 143
-0.33348846 0.030240234 -0.88224566 163 147 144
-0.33322269 0.031935174 -0.88268441 162 145 142
-0.33354759 0.032429624 -0.88313299 162 145 142
-0.33006492 0.02967475 -0.8793202 166 150 149
-0.32979989 0.030766925 -0.87950182 164 148 146
-0.32953203 0.032308791 -0.87985462 161 145 142
-0.33574417 0.027827937 -0.8830027 165 146 146
-0.33572048 0.027769223 -0.88297153 165 146 146
-0.33578166 0.027766479 -0.88300997 165 146 146
-0.33520806 0.026151326 -0.88206232 163 145 148
-0.33497176 0.027797982 -0.88247728 164 146 146
-0.33407402 0.027222525 -0.88159639 163 147 148
-0.33433846 0.028363885 -0.88220543 163 147 146
-0.33669165 0.025487017 -0.88293701 165 142 148
-0.33263645 0.025825931 -0.87985533 165 152 152
-0.33389574 0.028950065 -0.88207346 164 149 145
-0.33378243 0.027822444 -0.88156945 163 149 147
-0.33239108 0.028307751 -0.88062251 165 150 148
-0.33146745 0.027677955 -0.87964207 166 152 151
-0.33297417 0.027770836 -0.88087177 165 151 148
-0.33320883 0.028446671 -0.88132489 164 150 147
-0.33125216 0.028652713 -0.87985712 166 151 149
-0.33209938 0.029114552 -0.8807106 165 150 147
-0.33790538 0.022004757 -0.88311577 164 147 147
-0.33629835 0.023866227 -0.88229418 163 146 148
-0.33683506 0.02338556 -0.88259834 164 146 148
-0.33742478 0.02315362 -0.88299346 164 146 147
-0.33644572 0.024165254 -0.8824662 164 145 148
-0.3371903 0.022728873 -0.8827284 164 147 147
-0.33438176 0.022409746 -0.88025498 162 144 143
-0.3366769 0.021771641 -0.88203585 163 147 145
-0.33414954 0.023172591 -0.88029951 162 144 145
-0.33480301 0.024193998 -0.88119364 162 147 149
-0.33495334 0.023977781 -0.8812542 162 147 148
-0.33434919 0.022075256 -0.8801192 162 144 142
-0.33498383 0.023924254 -0.88126332 162 147 148
-0.33425596 0.022987934 -0.88033223 162 144 144
-0.33390382 0.021858161 -0.87965703 162 143 141
-0.33385873 0.024426386 -0.88044399 162 146 148
-0.33366516 0.022814615 -0.8797459 163 146 145
-0.3327544 0.023964914 -0.8793326 165 150 149
-0.33345252 0.022222323 -0.8793664 164 146 144
-0.3383745 0.020294348 -0.88318872 166 149 148
-0.33857998 0.018799363 -0.8831104 168 151 149
-0.338521 0.018170815 -0.88292772 170 152 150
-0.33649284 0.017894782 -0.88092613 166 150 146
-0.33630979 0.018513676 -0.88094699 166 149 146
-0.33669847 0.018081391 -0.88119084 167 150 147
-0.3347781 0.018654428 -0.87947541 160 146 141
-0.33640885 0.018558539 -0.88105983 167 150 146
-0.33719182 0.019887339 -0.88206768 166 149 147
-0.33632663 0.020989621 -0.88154078 164 147 144
-0.33557713 0.019917456 -0.88067639 166 147 144
-0.33748659 0.019221108 -0.88218862 168 151 148
-0.33682835 0.018701276 -0.88151443 169 150 147
-0.33576319 0.020961221 -0.88104743 163 146 143
-0.33722258 0.018461931 -0.88180739 169 151 148
-0.33892271 0.015973236 -0.88293952 171 156 154
-0.33905423 0.015142984 -0.88293463 171 158 155
-0.33819938 0.016202226 -0.88227582 172 156 153
-0.33879271 0.015370272 -0.88271916 171 158 155
-0.33864176 0.014032023 -0.88233936 172 161 158
-0.33733317 0.016506769 -0.88147736 171 155 152
-0.33654252 0.014166659 -0.88030005 171 158 156
-0.33687758 0.01537849 -0.88083684 171 156 154
-0.33751175 0.016753253 -0.88169456 171 155 152
-0.33737659 0.016423224 -0.88150543 171 155 152
-0.33593833 0.015285796 -0.8798942 168 154 151
-0.33676964 0.016375575 -0.88089806 169 154 151
-0.33582327 0.015617345 -0.87983501 166 153 150
-0.33596912 0.017141012 -0.8802315 164 150 145
-0.33677658 0.017405078 -0.8810752 167 151 147
-0.33967391 0.011351813 -0.88283974 169 155 155
-0.34010157 0.010445735 -0.8830837 167 152 154
-0.33901531 0.013469725 -0.88260674 171 161 158
-0.33835015 0.01074844 -0.88146132 168 157 155
-0.33910778 0.010784055 -0.88218963 168 155 154
-0.33918327 0.011403058 -0.88236982 169 156 155
-0.33848026 0.010196946 -0.88148886 167 156 154
-0.33874357 0.0098127471 -0.88167262 167 155 153
-0.33784223 0.011387872 -0.88109016 169 159 155
-0.33742902 0.011409536 -0.88070893 168 156 154
-0.3375634 0.010443983 -0.8806653 167 156 153
-0.33660963 0.012388559 -0.88008207 168 155 154
-0.33630681 0.011637896 -0.87966955 165 152 152
-0.33707216 0.012044779 -0.88048172 168 155 154
-0.33657092 0.011215337 -0.87986273 165 151 152
-0.33582574 0.013612702 -0.87950397 170 158 156
-0.33987874 0.0088378508 -0.88258916 166 151 151
-0.34025219 0.0068489644 -0.88260841 166 149 148
-0.33887348 0.0087773679 -0.88162094 166 154 151
-0.34032631 0.0082325432 -0.88291323 166 150 150
-0.33881509 0.0073384158 -0.88128495 165 149 150
-0.33984604 0.0068032108 -0.88219798 165 148 148
-0.33858061 0.0078301243 -0.88115048 165 151 150
-0.3387841 0.0067828037 -0.8811444 165 147 149
-0.33812609 0.0092629399 -0.88098478 166 156 153
-0.33791581 0.0081470348 -0.88055617 165 151 151
-0.33740094 0.0062265382 -0.87968773 163 142 147
-0.33677939 0.0084920134 -0.87956017 162 146 148
-0.33766988 0.0091728615 -0.88052672 165 154 152
-0.33734336 0.0074223615 -0.87987059 163 147 149
-0.3364929 0.0087446934 -0.87934411 161 145 148
-0.33870342 0.0019955994 -0.88002455 162 145 148
-0.33818927 0.0025738315 -0.87964624 162 144 147
-0.33799326 0.0040726503 -0.87978464 163 143 147
-0.33876577 0.004512371 -0.88064247 163 143 150
-0.33793968 0.0035887766 -0.8796249 162 143 147
-0.33950511 0.0024555277 -0.88091558 162 145 150
-0.3414827 0.0020116661 -0.88276452 162 146 156
-0.34129816 0.0025322039 -0.88269824 163 146 155
-0.34010369 0.0057305461 -0.8822369 165 145 147
-0.34155661 0.0022569255 -0.88289177 163 146 156
-0.33985698 0.0049503436 -0.88181764 164 144 149
-0.34100345 0.0036043071 -0.88264805 163 146 152
-0.34008563 0.0046808273 -0.88198304 164 145 150
-0.33760911 0.004941876 -0.87960935 162 142 147
-0.34244677 -0.00036093465 -0.88304394 153 141 147
-0.3418906 -0.00069832522 -0.8824687 149 138 145
-0.3413673 0.0012466278 -0.88243562 157 142 151
-0.34056163 4.8491172e-05 -0.8812952 148 133 141
-0.34177858 -0.0015909027 -0.88214004 144 135 141
-0.34151918 -0.00067725673 -0.8821035 148 136 143
-0.34118575 -3.132259e-05 -0.88192213 150 136 144
-0.34058899 0.0017262421 -0.88180578 160 144 152
-0.3382583 0.0018116573 -0.87953585 161 144 145
-0.33835655 0.0015146057 -0.87954634 158 142 144
-0.33812797 0.0018780276 -0.87942684 161 144 145
-0.34055105 0.00024405029 -0.88133806 149 134 142
-0.34273973 -0.0021097185 -0.88284469 145 135 140
-0.35225832 0.026333792 -0.89446098 171 143 146
-0.35061836 0.025976058 -0.89310592 168 134 143
-0.35202876 0.027760958 -0.89388609 154 110 120
-0.35169554 0.026621299 -0.89388895 166 131 138
-0.35156733 0.026320554 -0.8938542 168 136 143
-0.35186163 0.025694096 -0.89427745 177 153 155
-0.34799027 0.026046481 -0.89104211 172 136 143
-0.35089695 0.023912212 -0.89371878 178 153 159
-0.35167724 0.023442395 -0.89447594 182 162 165
-0.35153523 0.023008775 -0.89441341 182 162 165
-0.35021296 0.025189469 -0.89292961 173 142 152
-0.35172108 0.022371419 -0.89466983 184 165 167
-0.35067597 0.021902919 -0.89387715 184 167 168
-0.35035962 0.022669708 -0.89347833 181 160 164
-0.35132673 0.022056578 -0.89438075 183 164 167
-0.34965122 0.024551585 -0.89255512 174 143 152
-0.34821349 0.022548055 -0.8915273 181 161 166
-0.34829378 0.021710873 -0.8917588 185 169 170
-0.34943444 0.024211472 -0.89241278 175 147 155
-0.34919876 0.024416316 -0.89214557 174 144 154
-0.34804425 0.024686182 -0.89120054 176 144 151
-0.34840176 0.024749473 -0.8914746 175 143 151
-0.34887657 0.025022633 -0.89182401 173 140 150
-0.34989238 0.021220926 -0.89329314 185 172 170
-0.35001358 0.021034421 -0.89337772 185 171 170
-0.35143605 0.02064619 -0.89450979 185 168 170
-0.35139281 0.019948149 -0.89442033 184 166 170
-0.34981313 0.020982085 -0.89321458 185 171 170
-0.35016233 0.018609853 -0.89335996 181 164 169
-0.3498621 0.018400172 -0.89311403 180 163 169
-0.35092241 0.01849447 -0.89394778 182 163 169
-0.35067371 0.01953816 -0.8938095 184 167 170
-0.34815538 0.018541928 -0.89157891 180 167 170
-0.34852067 0.018359732 -0.8919071 180 166 170
-0.3477883 0.017668035 -0.89119232 179 165 170
-0.34889793 0.01889701 -0.89228499 181 166 170
-0.34810728 0.019150371 -0.89155215 181 168 171
-0.34940502 0.021331783 -0.89287895 185 172 171
-0.34883046 0.020566629 -0.89229727 184 171 171
-0.34767202 0.019412663 -0.89113545 182 168 171
-0.35201579 0.015062688 -0.89437807 183 168 170
-0.35210332 0.016008077 -0.8945874 183 165 169
-0.35177299 0.016586157 -0.89441544 182 164 169
-0.35005453 0.017499568 -0.8932085 178 161 169
-0.35203657 0.015195426 -0.89441413 183 168 170
-0.35125327 0.013877052 -0.89371574 183 165 166
-0.35160702 0.014191082 -0.89399445 183 167 168
-0.35198414 0.013895313 -0.89423645 184 168 168
-0.35087642 0.015777521 -0.89361453 181 165 169
-0.35002637 0.016768986 -0.89309758 179 162 168
-0.35161856 0.015231235 -0.89409375 182 168 170
-0.34931222 0.014262313 -0.89229363 181 159 163
-0.34891444 0.014623247 -0.89193916 180 159 164
-0.34923846 0.016044596 -0.89237815 179 160 166
-0.34881493 0.017131811 -0.89209014 178 162 169
-0.34871051 0.016173776 -0.89189231 178 161 167
-0.34801897 0.016018219 -0.89123607 179 162 167
-0.35372669 0.0098486338 -0.89465737 184 176 174
-0.35090938 0.013583293 -0.89343786 183 164 165
-0.35238105 0.012210005 -0.89424014 184 171 170
-0.35180002 0.013344864 -0.89402825 184 168 168
-0.35204822 0.011382248 -0.8938154 183 170 170
-0.35328838 0.010110641 -0.89444506 184 176 174
-0.35304943 0.011548303 -0.89458805 185 174 172
-0.34999987 0.011455178 -0.89232397 179 164 163
-0.3506676 0.0099151935 -0.89247251 178 168 165
-0.35130757 0.011942124 -0.89339507 183 167 167
-0.34963793 0.012822172 -0.892362 180 160 162
-0.34996316 0.010739438 -0.89213753 178 165 163
-0.3519592 0.010031162 -0.89344907 181 172 169
-0.35243896 0.010130552 -0.8938244 183 174 171
-0.34920296 0.0099718012 -0.89131379 176 164 161
-0.34815794 0.013659085 -0.89111888 180 159 163
-0.34943289 0.013509356 -0.89232302 181 159 162
-0.34898639 0.013113951 -0.89180195 180 159 162
-0.35401577 0.0093496833 -0.89466935 183 173 173
-0.35455018 0.0070855245 -0.89436692 175 163 167
-0.35548198 0.0064107589 -0.89462477 172 155 164
-0.35467526 0.0063673183 -0.89425355 173 159 166
-0.35404444 0.0087298872 -0.89452821 181 171 171
-0.35369375 0.0080954088 -0.89422172 179 171 171
-0.34962532 0.0087809339 -0.89147514 173 164 162
-0.35029882 0.0083948355 -0.89186722 174 164 163
-0.34976667 0.00956407 -0.89172995 175 165 162
-0.35015833 0.007279594 -0.89154273 171 163 163
-0.35215378 0.0060228873 -0.89269078 172 163 165
-0.35143632 0.0059145438 -0.89216465 170 162 165
-0.35017768 0.005937411 -0.8912847 168 161 164
-0.35035431 0.009634723 -0.8921777 177 167 164
-0.3524546 0.0082257492 -0.89339161 178 169 168
-0.35328287 0.0096163489 -0.89432913 184 176 173
-0.35283792 0.0090099704 -0.89385861 181 173 171
-0.35315025 0.0070022796 -0.89361525 176 166 168
-0.35226989 0.0084390072 -0.8933059 178 169 168
