ply
format ascii 1.0
comment PCL generated
element vertex 997
property float x
property float y
property float z
property uchar red
property uchar green
property uchar blue
element camera 0
property float view_px
property float view_py
property float view_pz
property float x_axisx
property float x_axisy
property float x_axisz
property float y_axisx
property float y_axisy
property float y_axisz
property float z_axisx
property float z_axisy
property float z_axisz
property float focal
property float scalex
property float scaley
property float centerx
property float centery
property int viewportx
property int viewporty
property float k1
property float k2
end_header
-0.33361253 -0.19917214 -0.84548181 122 103 104
-0.33235842 -0.20068999 -0.84507859 130 111 113
-0.33389348 -0.1999466 -0.84564573 112 93 97
-0.2715551 -0.20016405 -0.84541476 149 130 93
-0.27182722 -0.19748831 -0.84683305 97 62 43
-0.27196917 -0.19750716 -0.84655052 98 62 44
-0.27071467 -0.19986232 -0.84739757 124 100 79
-0.27122772 -0.19775291 -0.84786522 97 65 45
-0.27063754 -0.19937532 -0.84791666 113 86 69
-0.27035356 -0.20052761 -0.84766895 127 105 87
-0.27104992 -0.20054515 -0.84619266 145 127 96
-0.33064336 -0.20371586 -0.84414399 152 132 132
-0.3323341 -0.20473295 -0.84499693 136 116 118
-0.33191422 -0.20302135 -0.84500724 142 123 123
-0.33213547 -0.20424016 -0.8449536 139 119 120
-0.33382884 -0.2050629 -0.84583694 123 104 106
-0.33157992 -0.2046859 -0.84455496 143 122 123
-0.33389333 -0.20194066 -0.84575891 108 89 94
-0.33388931 -0.20142578 -0.84573567 105 86 93
-0.33369914 -0.20389003 -0.84576279 120 101 104
-0.33398357 -0.20158841 -0.84578037 105 86 92
-0.33387586 -0.204078 -0.84584165 118 99 102
-0.33296087 -0.20252255 -0.84540904 124 105 108
-0.27115721 -0.20125674 -0.84544873 160 145 109
-0.27093729 -0.20268081 -0.84483141 160 143 119
-0.27093503 -0.20229997 -0.84513915 158 141 115
-0.27008393 -0.20246328 -0.84674418 139 119 108
-0.27131382 -0.2024653 -0.8442353 167 152 121
-0.27045017 -0.20268971 -0.84581733 149 130 114
-0.27022606 -0.20435099 -0.8449592 154 133 128
-0.26980084 -0.20302936 -0.84692979 136 109 106
-0.26996019 -0.20312637 -0.84650129 140 116 111
-0.26952896 -0.202539 -0.84791386 126 95 94
-0.33270136 -0.20744254 -0.84504926 135 114 116
-0.33343861 -0.20601365 -0.84555739 127 107 109
-0.33364409 -0.20870155 -0.84554023 127 109 111
-0.33176523 -0.20868587 -0.84443355 145 122 124
-0.33133113 -0.20729783 -0.84424222 147 125 126
-0.33283347 -0.20600389 -0.84519804 133 112 114
-0.331994 -0.20538075 -0.84472758 139 119 120
-0.3310329 -0.2051381 -0.8441667 147 126 127
-0.3328003 -0.20622587 -0.84516782 133 112 114
-0.26966807 -0.20595445 -0.84494019 146 122 123
-0.27012688 -0.20522487 -0.84449768 156 133 132
-0.2697174 -0.20649041 -0.84440923 149 131 127
-0.33231804 -0.21212047 -0.8449505 162 144 155
-0.33213979 -0.21271245 -0.84488547 170 153 165
-0.3338663 -0.21058978 -0.84576827 146 131 138
-0.33331543 -0.21080206 -0.84545398 147 131 138
-0.33351016 -0.21013893 -0.84552389 138 121 127
-0.33323631 -0.20936185 -0.84530932 132 114 116
-0.33300567 -0.2092334 -0.84516519 134 115 117
-0.33216766 -0.21013027 -0.84472835 145 125 130
-0.33194634 -0.2096108 -0.84456486 145 124 127
-0.33351544 -0.21472652 -0.84545916 124 113 121
-0.33278593 -0.21586393 -0.84483999 98 84 91
-0.33295822 -0.21640716 -0.84488106 75 63 67
-0.33222586 -0.21381724 -0.844805 152 135 146
-0.33240163 -0.2154514 -0.84465533 115 99 108
-0.33233935 -0.21461566 -0.84474838 134 118 128
-0.33205253 -0.21432772 -0.8446219 139 122 132
-0.33629146 -0.21923491 -0.84712756 20 18 17
-0.33585066 -0.21718188 -0.8474468 45 38 37
-0.33599216 -0.21884772 -0.84694391 24 21 20
-0.33685169 -0.21862255 -0.84800315 31 26 26
-0.33489221 -0.21718387 -0.84636474 41 35 34
-0.33409107 -0.21781833 -0.84562153 56 49 49
-0.33401915 -0.21771078 -0.84556931 56 49 49
-0.33547398 -0.21847567 -0.84654367 29 25 24
-0.33583599 -0.2191774 -0.84681571 31 27 27
-0.3347562 -0.21990316 -0.84616733 74 65 66
-0.3353641 -0.21990152 -0.84655589 57 50 51
-0.33302566 -0.22000255 -0.84506458 106 95 96
-0.33376262 -0.21781625 -0.84541088 61 53 53
-0.33365244 -0.22037482 -0.84548831 107 94 97
-0.3328687 -0.21975845 -0.84494978 103 92 93
-0.33164397 -0.22002208 -0.8441776 122 109 111
-0.3335931 -0.21732323 -0.84527332 55 48 47
-0.33174667 -0.21934322 -0.84420258 113 99 102
-0.3370114 -0.22085324 -0.84762412 28 25 26
-0.33760202 -0.2216831 -0.84782732 30 27 30
-0.336833 -0.2234572 -0.8469522 86 77 83
-0.33705938 -0.22363092 -0.84705985 83 74 81
-0.33711097 -0.22213718 -0.84741485 53 47 51
-0.33554515 -0.22141831 -0.84656626 81 72 75
-0.33484524 -0.2218844 -0.84605849 103 91 95
-0.33509955 -0.22355209 -0.84604365 100 88 92
-0.33458698 -0.22174008 -0.84593868 105 92 96
-0.33531302 -0.22357467 -0.84615105 99 87 92
-0.33611989 -0.22443789 -0.84648937 92 82 87
-0.33243147 -0.22437489 -0.84428656 124 111 111
-0.3338109 -0.22376674 -0.84532917 110 97 99
-0.33338806 -0.22407524 -0.84499896 114 101 102
-0.33197057 -0.22088887 -0.84440577 128 115 117
-0.33216199 -0.22222126 -0.84436792 126 113 114
-0.33323225 -0.22133633 -0.84516132 116 104 106
-0.33271861 -0.22075997 -0.84490126 121 108 110
-0.3369613 -0.22789718 -0.84798139 108 97 104
-0.33576369 -0.22770341 -0.84689754 112 97 104
-0.33631852 -0.22688925 -0.84702086 104 90 97
-0.33466944 -0.22809629 -0.84613723 120 101 108
-0.33572552 -0.22800808 -0.846995 115 99 106
-0.33707115 -0.22572827 -0.84716403 92 81 88
-0.33472615 -0.22540618 -0.84583277 106 92 96
-0.33732733 -0.22484863 -0.84711492 85 75 83
-0.33536559 -0.2259333 -0.84620827 104 90 96
-0.33532491 -0.22536218 -0.84613556 102 89 94
-0.3367365 -0.22534858 -0.84685761 91 80 87
-0.33650115 -0.2256012 -0.84675997 94 82 89
-0.33261955 -0.22787727 -0.84461498 129 111 112
-0.33314165 -0.22691792 -0.84493417 122 106 107
-0.33234507 -0.22816704 -0.8444277 132 113 114
-0.33308154 -0.22795425 -0.84498155 128 109 112
-0.33288068 -0.22523446 -0.84462529 120 106 107
-0.33228737 -0.22752021 -0.84433436 130 113 113
-0.33288673 -0.22665508 -0.84471339 122 106 107
-0.33680579 -0.2301286 -0.84769988 68 59 64
-0.33568445 -0.2293725 -0.84694964 94 81 86
-0.33712757 -0.23001985 -0.84800154 70 62 66
-0.3377313 -0.23208143 -0.84796691 9 7 8
-0.33517474 -0.2296152 -0.84645319 90 75 80
-0.33615389 -0.23118368 -0.84692079 57 48 49
-0.33533588 -0.23097621 -0.84633946 85 71 73
-0.33500201 -0.23110203 -0.84606689 97 81 83
-0.33421883 -0.23107767 -0.84548098 124 104 105
-0.33492771 -0.23129509 -0.84597838 100 84 85
-0.33581492 -0.23052375 -0.84677649 67 56 59
-0.33531114 -0.22986978 -0.84650695 83 70 73
-0.33364424 -0.2302404 -0.84522879 132 111 114
-0.33335409 -0.23162924 -0.84481066 137 116 116
-0.33307672 -0.23024511 -0.84483075 135 114 117
-0.33264768 -0.23107149 -0.84440213 139 119 119
-0.33299154 -0.23027422 -0.84476113 136 115 117
-0.33278441 -0.23054437 -0.84456897 137 117 118
-0.33335054 -0.23309141 -0.84455514 133 113 112
-0.33367983 -0.2343767 -0.84453434 120 101 102
-0.33374619 -0.2342404 -0.84460098 121 102 102
-0.33396426 -0.23899975 -0.8442539 113 96 94
-0.33350116 -0.26337433 -0.84433323 9 7 9
-0.33319229 -0.26694053 -0.84434927 18 15 17
-0.33340904 -0.26727182 -0.84451842 13 11 12
-0.33322066 -0.26610059 -0.84433007 17 14 16
-0.33291334 -0.26725033 -0.8441748 24 20 22
-0.30690217 -0.1609835 -0.82933593 162 141 145
-0.30666071 -0.15982528 -0.82922184 160 136 144
-0.30447128 -0.16200626 -0.82909709 155 133 139
-0.30631572 -0.1605285 -0.82920271 158 134 141
-0.30736616 -0.16535521 -0.82963049 159 141 148
-0.30803996 -0.16389032 -0.82981622 161 145 148
-0.30998102 -0.1655978 -0.83053017 162 150 153
-0.30758303 -0.16380695 -0.82965779 161 143 147
-0.30672848 -0.16298966 -0.82934147 161 141 145
-0.30856308 -0.16318369 -0.82996064 166 151 152
-0.30852255 -0.16360348 -0.82996637 164 148 150
-0.30820912 -0.16346081 -0.82985771 163 147 149
-0.30771792 -0.16275136 -0.82966536 164 146 148
-0.30361629 -0.16304462 -0.82905722 152 130 140
-0.30501595 -0.16476172 -0.82921892 155 134 143
-0.3053005 -0.16564409 -0.82925457 156 135 144
-0.30393869 -0.16568434 -0.82910597 154 134 141
-0.30343491 -0.16409917 -0.82904279 153 131 140
-0.30366942 -0.16305839 -0.82906306 152 130 140
-0.30522186 -0.16278604 -0.82918596 157 136 142
-0.30515808 -0.16406465 -0.82921922 155 134 143
-0.30364233 -0.1627169 -0.82905084 152 130 140
-0.30649656 -0.16493276 -0.8293581 158 138 146
-0.30605254 -0.16397732 -0.82929182 158 137 145
-0.30453146 -0.16299154 -0.82913405 155 133 141
-0.31281739 -0.16810933 -0.83204806 164 150 156
-0.31288707 -0.16704926 -0.832017 167 152 158
-0.31160709 -0.16699165 -0.83134848 163 151 155
-0.3122361 -0.16621691 -0.83162606 167 153 158
-0.3131285 -0.1677577 -0.83218735 166 151 157
-0.31125432 -0.16757844 -0.83118546 160 148 153
-0.31163266 -0.1690363 -0.83144659 158 143 151
-0.31157562 -0.16806008 -0.83138204 160 147 153
-0.31167892 -0.16765581 -0.83142668 162 149 154
-0.31067917 -0.16811891 -0.83088022 157 143 151
-0.30845636 -0.16980277 -0.83014953 153 135 146
-0.30728433 -0.16966604 -0.82974559 154 135 146
-0.30764872 -0.16895683 -0.82984579 154 135 146
-0.30747572 -0.16851066 -0.82977176 155 136 146
-0.3072018 -0.16703001 -0.82962835 156 137 147
-0.3091284 -0.1673191 -0.83029526 157 141 149
-0.3101638 -0.16639261 -0.83061773 161 148 153
-0.3081567 -0.16690837 -0.82994998 157 139 148
-0.30914873 -0.16628522 -0.83026773 160 145 151
-0.31009045 -0.16680381 -0.8306064 160 146 152
-0.31052899 -0.16898705 -0.83082873 154 139 148
-0.30294818 -0.16778146 -0.82901335 160 139 142
-0.30295405 -0.16624475 -0.82900751 154 133 139
-0.30408332 -0.16802846 -0.8291719 157 136 142
-0.30540207 -0.16898094 -0.82935905 155 135 144
-0.30310518 -0.16944452 -0.82904243 166 145 145
-0.30559313 -0.16684987 -0.82931662 156 136 145
-0.30458939 -0.16708754 -0.82921499 155 134 142
-0.30586332 -0.16663286 -0.82933885 156 136 145
-0.30580908 -0.16693257 -0.82934302 156 136 145
-0.30340734 -0.16667995 -0.829072 154 133 140
-0.30045542 -0.16868411 -0.82914948 150 124 127
-0.30080667 -0.16958359 -0.82913268 154 127 130
-0.30234668 -0.16769554 -0.82900977 158 137 139
-0.3015801 -0.16800943 -0.82906353 156 133 135
-0.30211526 -0.16747552 -0.82902461 156 135 137
-0.30249622 -0.16677567 -0.82899553 155 134 138
-0.31184331 -0.17209275 -0.83175278 152 135 142
-0.31243911 -0.17023641 -0.83195215 157 142 150
-0.31147617 -0.17139836 -0.83149582 152 135 144
-0.31259111 -0.17113179 -0.83210295 156 140 147
-0.31157038 -0.17171335 -0.8315717 152 134 143
-0.31195346 -0.17367746 -0.83192688 151 132 138
-0.31065363 -0.17112961 -0.83101141 151 133 144
-0.31117573 -0.17381436 -0.83149612 150 129 137
-0.30739731 -0.17175049 -0.82990551 153 133 143
-0.30939955 -0.17331558 -0.83070445 151 129 139
-0.30725038 -0.17137206 -0.82983226 154 133 144
-0.30766556 -0.1720286 -0.83001637 153 132 143
-0.31022242 -0.17357157 -0.83101135 150 128 137
-0.30835503 -0.17354931 -0.83034605 152 131 141
-0.3102172 -0.17147017 -0.83086258 151 132 142
-0.30964592 -0.17142096 -0.83066446 151 132 142
-0.30981183 -0.17051205 -0.83065701 152 133 145
-0.3068746 -0.16992705 -0.82961494 154 134 146
-0.30968821 -0.17001817 -0.83058012 152 134 146
-0.30985105 -0.17010769 -0.83064187 152 134 146
-0.30418661 -0.17142807 -0.82927752 164 143 145
-0.30342454 -0.17092922 -0.8291409 168 148 147
-0.30333844 -0.17192781 -0.82917106 171 154 152
-0.30506077 -0.17357475 -0.8295024 164 147 151
-0.30428222 -0.17380895 -0.829395 170 156 156
-0.30443293 -0.17061675 -0.82926726 163 142 145
-0.30465907 -0.17079912 -0.82930881 162 141 145
-0.30586365 -0.17144179 -0.82951158 157 137 145
-0.30533838 -0.17238772 -0.82949126 159 139 145
-0.3052572 -0.17011362 -0.82935369 160 139 145
-0.30054876 -0.17296745 -0.82920527 169 151 147
-0.30100965 -0.17236158 -0.8292107 165 146 144
-0.30039796 -0.1738027 -0.8291918 176 161 154
-0.29947615 -0.17089185 -0.82925701 149 120 125
-0.29979119 -0.17218442 -0.82922918 161 138 137
-0.30183962 -0.173134 -0.82918602 173 159 154
-0.30153847 -0.17177483 -0.82916194 166 146 144
-0.30172801 -0.17229782 -0.82917053 168 151 148
-0.30116802 -0.17162563 -0.82918298 162 141 141
-0.30185232 -0.17163451 -0.82913256 168 149 146
-0.29980358 -0.17008065 -0.82921743 147 117 122
-0.31123754 -0.17488442 -0.83157802 150 129 137
-0.31227767 -0.17640956 -0.83223343 151 132 137
-0.31209466 -0.17522402 -0.83207822 151 132 137
-0.31180137 -0.17526059 -0.83191371 151 131 137
-0.31191555 -0.17754903 -0.83206969 151 131 136
-0.31152028 -0.1772151 -0.83182764 150 130 136
-0.31111002 -0.17540272 -0.83152461 150 129 136
-0.30712533 -0.17649581 -0.83006209 151 119 134
-0.30683789 -0.17747854 -0.83001995 150 112 130
-0.30731592 -0.1752971 -0.83005977 152 128 140
-0.3078106 -0.1762844 -0.83028036 151 124 136
-0.30741388 -0.17737877 -0.83020777 150 115 131
-0.30688208 -0.17746434 -0.83003402 150 112 130
-0.30877244 -0.17409477 -0.83051938 151 130 140
-0.30896905 -0.17541169 -0.83063585 151 130 139
-0.3099587 -0.17494674 -0.83097136 150 129 137
-0.30855045 -0.17447615 -0.83045387 151 131 140
-0.31019256 -0.17679156 -0.83111966 149 129 136
-0.30904919 -0.17473656 -0.83064044 151 130 139
-0.30507302 -0.17660984 -0.82965678 161 133 144
-0.30274269 -0.17596684 -0.82922268 176 164 168
-0.30375829 -0.17536376 -0.82938743 171 154 156
-0.30290797 -0.17600515 -0.82925326 175 162 167
-0.30493611 -0.17704062 -0.8296442 161 133 146
-0.30490714 -0.17534436 -0.82957399 164 141 147
-0.30651012 -0.1769546 -0.82990509 151 116 132
-0.30490446 -0.17560771 -0.82958817 164 139 146
-0.30492157 -0.17575948 -0.82959914 163 138 145
-0.30443642 -0.17385484 -0.82942057 169 155 155
-0.30096135 -0.17656064 -0.82925057 173 158 163
-0.30007666 -0.17549358 -0.82923496 173 157 157
-0.29981339 -0.17716374 -0.82925475 176 160 159
-0.29952362 -0.17568702 -0.82923579 175 157 155
-0.2997357 -0.17740294 -0.82925749 176 160 159
-0.30219942 -0.17488638 -0.829198 177 166 164
-0.3022126 -0.17540191 -0.82921207 176 164 165
-0.29925033 -0.17384434 -0.82920617 174 156 150
-0.30222428 -0.17530312 -0.82920921 176 164 165
-0.30175442 -0.17510754 -0.82920969 176 163 163
-0.29808578 -0.17722973 -0.82940423 169 151 148
-0.29707387 -0.17753203 -0.82957 160 140 140
-0.2987377 -0.17551264 -0.82925141 175 156 151
-0.29810739 -0.17544487 -0.82938826 167 148 144
-0.29856056 -0.17568587 -0.82929224 173 154 149
-0.29790318 -0.17600855 -0.82943976 165 146 143
-0.31129429 -0.17915289 -0.83174652 152 129 135
-0.31181267 -0.18001626 -0.83206809 153 130 136
-0.31216201 -0.17973146 -0.83226514 154 131 136
-0.31057155 -0.18026207 -0.83135402 151 127 135
-0.31200755 -0.18136796 -0.83221292 155 130 136
-0.31114608 -0.18050605 -0.83169287 153 128 135
-0.3070465 -0.17994198 -0.8301369 150 117 131
-0.30671018 -0.17857148 -0.83000273 150 112 129
-0.30779076 -0.17993854 -0.83039504 151 117 131
-0.30937064 -0.1815815 -0.83096409 152 124 134
-0.3093636 -0.18070355 -0.8309505 152 121 133
-0.30678359 -0.17974733 -0.8300432 150 116 131
-0.30901408 -0.17919815 -0.8307997 150 120 132
-0.30960572 -0.18039922 -0.83102721 151 122 133
-0.30945742 -0.17922854 -0.83094925 150 122 133
-0.309185 -0.17901838 -0.83085275 150 121 132
-0.30756536 -0.17775266 -0.83027864 149 114 130
-0.30877641 -0.1778477 -0.83068746 149 120 132
-0.30488953 -0.18035138 -0.82967639 157 134 147
-0.30281511 -0.17929032 -0.82926553 163 144 160
-0.30307469 -0.18113334 -0.82929379 153 126 145
-0.30346218 -0.17953745 -0.82939488 162 141 157
-0.30282757 -0.17963997 -0.82926333 161 140 157
-0.30426136 -0.17846811 -0.82955229 163 142 156
-0.30518487 -0.17800732 -0.82971132 158 129 145
-0.30434117 -0.17792499 -0.82955956 162 139 155
-0.30537695 -0.17850481 -0.82975203 157 128 144
-0.30425701 -0.17811237 -0.82954693 163 141 156
-0.29944211 -0.17837843 -0.82925212 174 155 153
-0.30022842 -0.18092914 -0.82922882 165 151 159
-0.29977831 -0.17881073 -0.82924771 171 152 153
-0.30066428 -0.18145928 -0.82922333 161 147 158
-0.29883847 -0.17965746 -0.82924277 175 166 165
-0.30148071 -0.17967054 -0.8292402 163 141 152
-0.30237415 -0.17826493 -0.82926178 169 154 167
-0.30144489 -0.17897998 -0.82924944 167 148 157
-0.30212381 -0.18010716 -0.82923609 160 136 151
-0.30114713 -0.17878915 -0.82925123 169 150 157
-0.29821354 -0.18144862 -0.8293221 167 164 168
-0.29608959 -0.17937098 -0.82970691 149 134 140
-0.29727089 -0.18026643 -0.82950264 158 149 154
-0.29674733 -0.18140113 -0.8295359 159 150 154
-0.2985321 -0.17941709 -0.82929617 172 162 161
-0.29822028 -0.18072109 -0.82933927 166 161 165
-0.29760185 -0.18031716 -0.82945001 160 153 158
-0.29842448 -0.17783292 -0.82932818 174 157 153
-0.29801124 -0.17846294 -0.82939458 168 154 152
-0.29742801 -0.17794836 -0.82950014 163 146 145
-0.29467997 -0.18142307 -0.82990074 149 134 136
-0.31196082 -0.18264493 -0.83222187 157 131 138
-0.31166351 -0.18256925 -0.83204734 156 130 138
-0.31154576 -0.18345827 -0.8320052 156 132 140
-0.31090289 -0.18513836 -0.83165449 156 133 143
-0.3112506 -0.18473937 -0.83185726 157 133 143
-0.30713004 -0.18426517 -0.83025867 155 130 139
-0.30785373 -0.18492948 -0.8305217 156 132 141
-0.30857569 -0.18390392 -0.83073527 154 128 139
-0.30949226 -0.1845248 -0.83106208 154 130 141
-0.30684382 -0.18528417 -0.83019167 157 134 141
-0.30763128 -0.18419775 -0.83042562 155 130 139
-0.30932572 -0.18322097 -0.83097929 153 127 138
-0.31044108 -0.18514308 -0.8314026 155 132 143
-0.31017867 -0.18229957 -0.8312577 153 126 136
-0.31042278 -0.18427424 -0.83137983 154 130 141
-0.30901563 -0.18202795 -0.83084905 152 125 135
-0.30924532 -0.18251595 -0.83093798 153 126 136
-0.30350924 -0.18394984 -0.82941413 155 132 142
-0.30429029 -0.18408348 -0.8295902 155 131 142
-0.30374649 -0.18547596 -0.82948279 159 139 142
-0.30470988 -0.18548155 -0.82969838 158 137 142
-0.30484557 -0.18490218 -0.82972276 157 134 142
-0.30384365 -0.18305449 -0.82947975 153 127 142
-0.30619755 -0.18376133 -0.82998836 154 129 138
-0.30599988 -0.18224476 -0.82990402 152 124 135
-0.30403826 -0.18276849 -0.82951701 153 125 141
-0.30326015 -0.18215969 -0.82933986 151 123 141
-0.30446216 -0.1828655 -0.82960677 153 126 140
-0.30011237 -0.18486176 -0.82922924 159 138 149
-0.30048472 -0.18364581 -0.82923788 164 154 158
-0.30158868 -0.18472357 -0.82924682 161 146 149
-0.29978144 -0.18408804 -0.82922822 162 146 155
-0.30170119 -0.18543923 -0.82924545 159 138 144
-0.30094811 -0.18352647 -0.82924044 164 153 157
-0.3018558 -0.18317054 -0.82923472 159 140 149
-0.30139863 -0.18270057 -0.8292309 160 143 153
-0.30212253 -0.18250574 -0.82922733 156 133 147
-0.30125451 -0.18203349 -0.82922447 159 142 154
-0.30132392 -0.18266742 -0.82923079 160 144 154
-0.29601747 -0.18350716 -0.82959723 151 131 139
-0.29623252 -0.18376325 -0.82956368 151 131 139
-0.29633489 -0.18523644 -0.82949269 150 129 139
-0.29673317 -0.18516898 -0.82945263 151 129 140
-0.29750118 -0.18512797 -0.82937169 152 128 142
-0.29584324 -0.18210067 -0.82965612 153 138 143
-0.297176 -0.18342614 -0.82945853 155 135 145
-0.29506028 -0.18164936 -0.82977098 151 136 139
-0.29808113 -0.18296248 -0.82932931 161 148 157
-0.29780155 -0.18370317 -0.8293671 157 137 149
-0.31181306 -0.18872042 -0.83225209 164 142 150
-0.31123903 -0.18723667 -0.83188653 160 138 147
-0.31183431 -0.18716271 -0.83224565 161 139 148
-0.31170225 -0.18900034 -0.83219367 164 143 150
-0.31141016 -0.18825717 -0.83200783 162 140 149
-0.31069753 -0.18779072 -0.83158469 160 138 148
-0.30773196 -0.18808395 -0.8305102 161 138 147
-0.30711502 -0.18799916 -0.83028364 161 138 147
-0.30843949 -0.18833618 -0.83076859 162 139 148
-0.30842522 -0.18771721 -0.83076888 161 138 146
-0.31026539 -0.18930858 -0.83143258 163 141 150
-0.30733114 -0.18654603 -0.83037633 159 136 144
-0.30890208 -0.18662506 -0.83091706 159 136 145
-0.30705935 -0.1856586 -0.83027446 158 135 142
-0.30933058 -0.18573947 -0.83104146 157 134 143
-0.3101145 -0.18812898 -0.83135945 161 139 148
-0.30834278 -0.18629088 -0.83072108 158 135 144
-0.3105112 -0.18924272 -0.83151817 163 141 150
-0.30415732 -0.18828975 -0.82954508 163 141 146
-0.30524921 -0.18807502 -0.82979697 161 140 147
-0.30402553 -0.18868071 -0.82950985 164 142 147
-0.30436176 -0.18856618 -0.829588 164 141 147
-0.30485842 -0.18918325 -0.82969308 164 141 148
-0.30627969 -0.18868695 -0.83002204 162 139 148
-0.30321631 -0.1855582 -0.82936484 159 140 142
-0.30490449 -0.18717873 -0.82972795 160 139 145
-0.30558142 -0.18723592 -0.82987887 160 138 145
-0.30646238 -0.18682367 -0.83007956 159 136 144
-0.3051762 -0.18763833 -0.82978463 161 139 146
-0.30049297 -0.18842921 -0.82916725 164 138 144
-0.30190054 -0.18912837 -0.82918906 167 142 146
-0.30071908 -0.18772161 -0.82919884 162 135 145
-0.29923701 -0.1891737 -0.82910091 167 141 141
-0.29917294 -0.18845436 -0.8291235 165 138 142
-0.30011538 -0.18757623 -0.82918423 161 134 144
-0.30222845 -0.18759315 -0.82922393 163 140 145
-0.30089357 -0.18605945 -0.829229 158 134 144
-0.30198446 -0.18639189 -0.82923716 160 138 144
-0.30159393 -0.18759589 -0.82921654 162 138 145
-0.29950196 -0.18578611 -0.8292166 156 128 144
-0.29748625 -0.18887751 -0.82925242 160 132 136
-0.29659083 -0.18778808 -0.82938343 155 131 135
-0.29847553 -0.18804327 -0.82916427 163 136 141
-0.29618582 -0.18563624 -0.82949305 149 129 138
-0.29701027 -0.1869259 -0.82936013 156 133 139
-0.29797971 -0.18821691 -0.82921159 162 138 140
-0.29816997 -0.18733691 -0.82922137 160 134 141
-0.29830986 -0.18874075 -0.82915819 165 139 140
-0.31197596 -0.18948609 -0.83236331 165 144 152
-0.31181514 -0.19127314 -0.83232266 167 148 156
-0.31083623 -0.18985762 -0.83171433 164 143 152
-0.31109911 -0.19234526 -0.83195335 167 150 158
-0.31076196 -0.19091853 -0.83171153 165 146 154
-0.30734426 -0.19049442 -0.83038414 164 142 152
-0.30910346 -0.19318295 -0.83110505 167 148 157
-0.30667308 -0.19124006 -0.83011317 164 141 152
-0.30849198 -0.19280341 -0.83085579 166 147 156
-0.30727574 -0.19135322 -0.83035827 164 143 153
-0.30764109 -0.19105835 -0.83050603 164 143 153
-0.30878046 -0.19096506 -0.83094496 165 144 154
-0.30884159 -0.1914781 -0.83098811 165 146 155
-0.30818105 -0.1899505 -0.83068335 163 142 151
-0.30863664 -0.19053578 -0.83087468 164 143 153
-0.31041571 -0.19065684 -0.83153498 165 145 153
-0.30969888 -0.19212341 -0.83132988 166 148 156
-0.30330509 -0.19079642 -0.82934266 169 147 152
-0.3036454 -0.19213393 -0.82942897 171 153 158
-0.30416039 -0.19316527 -0.8295517 171 155 162
-0.3038924 -0.19152397 -0.8294791 169 148 154
-0.30336729 -0.19145738 -0.82936174 170 151 156
-0.30493739 -0.1932217 -0.82972497 170 152 160
-0.30365327 -0.1901968 -0.82941633 167 143 148
-0.30599162 -0.19044974 -0.82995021 164 141 150
-0.30575824 -0.18994613 -0.82989579 164 141 149
-0.30575418 -0.19108453 -0.82989752 165 142 151
-0.30510306 -0.19047724 -0.82974762 165 142 150
-0.30610633 -0.19194448 -0.82997984 165 143 152
-0.29885677 -0.18955177 -0.8290776 169 142 141
-0.30066797 -0.192241 -0.82913059 173 160 160
-0.30118108 -0.19271146 -0.82915229 174 163 163
-0.30054182 -0.19179821 -0.82913274 173 157 157
-0.29910192 -0.18994693 -0.82908404 169 145 144
-0.30262542 -0.19065274 -0.82921094 170 150 153
-0.3008008 -0.19067656 -0.82915181 171 149 150
-0.30215922 -0.1915331 -0.82920277 172 154 157
-0.30271178 -0.19096212 -0.82921624 171 151 155
-0.30150762 -0.18988959 -0.82916856 169 145 147
-0.2977649 -0.19333319 -0.82904297 171 166 155
-0.2968705 -0.19180335 -0.8292321 159 143 143
-0.29689869 -0.19332029 -0.82908702 167 158 146
-0.29751715 -0.18997362 -0.82922477 160 133 137
-0.29728779 -0.18975577 -0.82925755 158 129 134
-0.29795828 -0.19204032 -0.82912374 167 155 152
-0.29874387 -0.19183131 -0.82903337 172 161 155
-0.29837954 -0.19280328 -0.82905507 171 166 160
-0.29204983 -0.19330825 -0.82996863 139 108 113
-0.29463491 -0.19283827 -0.82931107 155 137 124
-0.31118318 -0.19353935 -0.83203858 168 152 160
-0.31165519 -0.19340785 -0.83229804 168 153 160
-0.31122386 -0.19608265 -0.83202374 171 153 160
-0.31153765 -0.19641903 -0.83220267 171 153 161
-0.30731577 -0.19709654 -0.83028948 167 144 153
-0.30943972 -0.19641943 -0.83116007 171 151 158
-0.30808845 -0.19676986 -0.83060807 168 147 155
-0.30885407 -0.19573076 -0.83094043 170 149 157
-0.30733511 -0.19593097 -0.83032447 167 145 154
-0.30728173 -0.19573979 -0.83030736 167 145 154
-0.31043133 -0.19421406 -0.83162177 169 152 159
-0.30717596 -0.1936463 -0.83031458 166 145 155
-0.30928823 -0.19455057 -0.83114827 169 150 158
-0.31048635 -0.19616076 -0.83159131 172 153 159
-0.30927607 -0.19424559 -0.83115155 168 149 158
-0.30859128 -0.19431393 -0.83087146 168 148 157
-0.30535227 -0.19624023 -0.82975113 168 148 156
-0.30495352 -0.19570667 -0.82967496 169 151 158
-0.30342904 -0.19471408 -0.82935888 172 155 163
-0.30349788 -0.19689895 -0.82932276 166 140 157
-0.30451682 -0.19646613 -0.8295598 167 145 157
-0.30488288 -0.1934367 -0.82971209 170 152 161
-0.30497888 -0.19335978 -0.82973528 170 152 160
-0.3054646 -0.19352335 -0.82983953 169 149 159
-0.30601108 -0.19643292 -0.82989329 167 146 154
-0.3059513 -0.19520134 -0.82990867 167 147 156
-0.30099308 -0.196823 -0.82899767 166 144 160
-0.30021229 -0.19588327 -0.82897592 168 153 162
-0.30054361 -0.19684559 -0.82895184 166 145 161
-0.30022198 -0.19725515 -0.82889575 165 142 161
-0.29890335 -0.19566628 -0.82885903 169 158 164
-0.30136985 -0.19440365 -0.82912481 173 160 164
-0.30234241 -0.19382468 -0.82920015 174 161 167
-0.30258641 -0.19635092 -0.82915616 167 143 159
-0.30234319 -0.19383867 -0.82919985 174 161 167
-0.30271506 -0.19410884 -0.82921708 173 158 166
-0.29507601 -0.19705626 -0.82894391 161 142 147
-0.29720151 -0.19605538 -0.82890767 162 144 150
-0.29530931 -0.19385026 -0.8291325 159 142 130
-0.29726306 -0.19592959 -0.82891268 162 144 150
-0.29646948 -0.19576459 -0.8289597 162 143 145
-0.29718998 -0.19671436 -0.82886726 163 144 154
-0.29861611 -0.19513679 -0.82889336 170 160 162
-0.29851201 -0.19428523 -0.82894892 172 166 162
-0.29822588 -0.19406466 -0.82897604 171 165 159
-0.29814443 -0.19404352 -0.82898134 171 164 158
-0.29712313 -0.1942509 -0.82901949 166 154 148
-0.29664764 -0.19338377 -0.82909429 166 156 143
-0.29232693 -0.19510561 -0.82974911 144 115 125
-0.29164696 -0.19629137 -0.82973111 148 126 131
-0.29171252 -0.19596954 -0.82976019 147 123 129
-0.29210269 -0.19641614 -0.82962221 150 128 133
-0.29107031 -0.19722474 -0.82972538 151 134 135
-0.29491854 -0.19688736 -0.8289625 161 141 145
-0.29350421 -0.19381711 -0.8295387 149 125 122
-0.29254466 -0.19347924 -0.82982111 143 114 116
-0.29475421 -0.19527198 -0.82910776 159 140 136
-0.29393074 -0.19619153 -0.82927489 154 130 137
-0.28870121 -0.19683036 -0.83065563 137 111 113
-0.28863209 -0.1958569 -0.83085382 132 106 108
-0.28855032 -0.19705999 -0.83067006 137 110 113
-0.28970778 -0.19673845 -0.83030349 142 120 122
-0.29089838 -0.19651407 -0.82987839 147 127 130
-0.29077512 -0.19583927 -0.83001798 143 119 124
-0.31117472 -0.19856137 -0.83193201 174 154 161
-0.31116423 -0.19822417 -0.83193356 174 154 161
-0.31084013 -0.19976935 -0.83173674 174 156 161
-0.31089446 -0.19874135 -0.83177114 174 155 161
-0.30823705 -0.20011404 -0.83062345 171 152 157
-0.30881715 -0.20019054 -0.83086479 171 153 158
-0.30890283 -0.20045263 -0.83089525 172 154 158
-0.30822134 -0.19991486 -0.83062094 171 151 156
-0.30754647 -0.19997019 -0.83033717 170 151 155
-0.3072817 -0.20015264 -0.83022249 170 151 154
-0.31032199 -0.19912757 -0.83148736 174 155 160
-0.30889788 -0.19869652 -0.83091605 170 150 157
-0.3099789 -0.20015921 -0.83134478 173 155 161
-0.3101871 -0.20033708 -0.83142781 174 156 161
-0.3094973 -0.20007519 -0.83115131 172 153 160
-0.30736694 -0.19753136 -0.83030504 167 145 153
-0.30386445 -0.19939502 -0.82930064 167 145 155
-0.30299389 -0.19787209 -0.82917166 165 139 156
-0.30384269 -0.19880143 -0.82933724 167 143 155
-0.30342433 -0.19996379 -0.82913947 167 147 154
-0.30465168 -0.19986142 -0.82948261 168 147 154
-0.30648628 -0.1997831 -0.82992733 169 149 153
-0.30602244 -0.19805077 -0.82985997 166 144 153
-0.30573109 -0.19856715 -0.82978439 167 144 153
-0.30344731 -0.19752562 -0.82929748 165 138 156
-0.30619931 -0.19811594 -0.82989806 166 144 153
-0.30401629 -0.19727787 -0.82942927 165 138 155
-0.30191556 -0.20055199 -0.82882899 167 149 154
-0.30035272 -0.19922997 -0.82877082 165 147 157
-0.29940364 -0.19971162 -0.82865399 164 143 153
-0.30149743 -0.20069872 -0.8287816 166 148 152
-0.30161452 -0.20030938 -0.82881701 167 149 154
-0.30164203 -0.19871388 -0.82893199 166 144 157
-0.30039099 -0.19778648 -0.82887453 165 144 160
-0.30244488 -0.19901451 -0.82898998 166 143 155
-0.30087408 -0.19914703 -0.82882488 166 148 158
-0.30122325 -0.19861121 -0.82889789 166 145 158
-0.30249175 -0.19777961 -0.8290832 165 139 156
-0.29785883 -0.19988269 -0.82863164 162 138 150
-0.29598179 -0.2007011 -0.82865912 158 133 145
-0.29800731 -0.1990208 -0.82868016 162 140 154
-0.29664212 -0.20030341 -0.82865644 160 135 147
-0.29814225 -0.19958009 -0.82863885 162 140 152
-0.29666954 -0.19839375 -0.82878077 161 140 153
-0.2954675 -0.19972882 -0.82874626 159 134 147
-0.29510194 -0.19981697 -0.82875729 158 134 145
-0.29765961 -0.19827254 -0.8287431 162 141 157
-0.29569393 -0.20001662 -0.82871634 159 134 147
-0.29168057 -0.19985779 -0.8293612 151 129 135
-0.291565 -0.19944131 -0.82942212 151 130 135
-0.29159018 -0.19981812 -0.82938069 151 129 135
-0.29177687 -0.19953509 -0.82937646 152 130 135
-0.29228655 -0.19998625 -0.82924432 152 130 136
-0.29421103 -0.1989437 -0.82896894 158 135 143
-0.29349107 -0.19873925 -0.82912892 156 134 141
-0.29303688 -0.19925411 -0.82918632 154 132 139
-0.29463938 -0.19976585 -0.82882643 158 133 143
-0.29339811 -0.19908862 -0.82912415 155 133 140
-0.29388303 -0.19745159 -0.82913637 159 139 144
-0.2878094 -0.19943999 -0.83069682 138 110 114
-0.29020476 -0.2003843 -0.82972068 146 120 125
-0.28857917 -0.19914594 -0.83043939 139 110 114
-0.29084843 -0.20116432 -0.82940876 149 125 131
-0.28711337 -0.19986096 -0.83091491 138 111 114
-0.28862518 -0.19914094 -0.83042282 139 110 114
-0.2880916 -0.19814374 -0.83071488 135 105 108
-0.29095519 -0.19802152 -0.82967877 151 132 134
-0.2884388 -0.19774261 -0.83062732 137 109 112
-0.28883618 -0.19807343 -0.83044928 139 112 115
-0.29053342 -0.19739828 -0.82989454 149 130 131
-0.29066023 -0.19746339 -0.82984173 149 131 132
-0.2850607 -0.20090249 -0.83187997 140 115 105
-0.28511 -0.20082822 -0.83186424 139 114 105
-0.28610429 -0.20114377 -0.83131278 141 118 114
-0.28694654 -0.2005613 -0.830944 139 113 116
-0.31224304 -0.20346841 -0.83237129 175 156 163
-0.31174418 -0.20352298 -0.83209306 175 156 163
-0.31068635 -0.20263851 -0.83155644 176 159 163
-0.31119978 -0.20421033 -0.83174646 177 159 164
-0.3106277 -0.20136422 -0.83160228 175 157 163
-0.3087166 -0.20352295 -0.83065683 175 158 161
-0.30718613 -0.20449759 -0.82995111 179 161 163
-0.3083913 -0.20466536 -0.83044744 179 161 164
-0.30837232 -0.20355009 -0.83051026 176 158 161
-0.30758464 -0.20459959 -0.83011228 179 161 163
-0.30923203 -0.20254822 -0.83093333 175 157 161
-0.30973843 -0.20363988 -0.83107805 176 159 163
-0.30873388 -0.20290695 -0.83070254 174 157 160
-0.31040564 -0.20445007 -0.83130753 178 161 165
-0.3101117 -0.2025232 -0.8313033 175 158 163
-0.30910513 -0.20210071 -0.83090776 174 157 160
-0.30474654 -0.20377582 -0.82925111 177 160 160
-0.30433139 -0.20280449 -0.82919747 173 156 158
-0.30394351 -0.20437276 -0.82899785 182 164 162
-0.30453941 -0.20334525 -0.82922107 175 158 159
-0.30443671 -0.20492485 -0.82909787 184 166 164
-0.3040677 -0.2038158 -0.82906502 179 161 161
-0.30308756 -0.20151152 -0.8289392 169 152 154
-0.30611715 -0.20352747 -0.82964009 176 158 160
-0.30437946 -0.20257446 -0.82922512 172 155 157
-0.30598783 -0.20397443 -0.82957631 177 159 161
-0.30435455 -0.20203511 -0.82925254 171 154 155
-0.30189523 -0.20390518 -0.82863241 181 161 159
-0.30272847 -0.20126344 -0.82885802 168 151 153
-0.30083174 -0.20425512 -0.82851791 181 160 158
-0.30057082 -0.20142946 -0.82865286 166 145 149
-0.30099428 -0.20135185 -0.82869571 166 146 149
-0.30105847 -0.20419285 -0.82854199 181 160 158
-0.30079022 -0.20385842 -0.82853639 179 158 157
-0.29584697 -0.20126632 -0.82862699 158 132 143
-0.29504538 -0.20117347 -0.82866865 157 130 143
-0.29321885 -0.20446241 -0.82865012 162 142 142
-0.29223767 -0.20447043 -0.82879537 163 141 138
-0.29412955 -0.20208922 -0.82871455 158 133 141
-0.29409957 -0.20331314 -0.82861853 160 138 143
-0.29147154 -0.2022354 -0.82915276 154 131 134
-0.29297999 -0.20239568 -0.8288759 158 133 138
-0.29119113 -0.20137954 -0.82929343 151 127 132
-0.29471406 -0.20132935 -0.82869279 157 130 142
-0.29110146 -0.20184229 -0.82925892 152 129 132
-0.29146931 -0.20343132 -0.8290239 159 136 135
-0.28860843 -0.20401852 -0.82983458 151 126 129
-0.28805238 -0.20475224 -0.82986975 148 122 129
-0.28720188 -0.20455855 -0.83015913 143 116 128
-0.28982297 -0.20446721 -0.82939059 158 135 131
-0.28747675 -0.20302738 -0.83035082 144 119 125
-0.28733352 -0.20433927 -0.83015895 144 117 127
-0.28863704 -0.20247845 -0.83008593 150 127 126
-0.28788394 -0.20175247 -0.83044326 145 122 123
-0.29098681 -0.20215261 -0.82925087 153 130 132
-0.28900954 -0.2017248 -0.83002943 148 124 126
-0.28999543 -0.20312344 -0.82951313 155 132 130
-0.28899303 -0.20223892 -0.82997996 149 127 127
-0.28344819 -0.20335391 -0.83226115 147 129 120
-0.28378293 -0.20418543 -0.83193338 148 134 131
-0.28380659 -0.20278034 -0.83218622 145 126 116
-0.28607979 -0.20139097 -0.83128041 142 119 116
-0.28684112 -0.20139015 -0.83088952 142 120 121
-0.28407669 -0.20386872 -0.83184224 148 132 129
-0.28526157 -0.20483129 -0.83106947 146 126 132
-0.28610948 -0.20388296 -0.83081168 144 122 128
-0.28620315 -0.20346414 -0.83083946 144 122 127
-0.28708082 -0.20396899 -0.83030665 142 116 126
-0.2848371 -0.20412971 -0.83140898 147 129 131
-0.28708133 -0.20484787 -0.83014911 142 115 128
-0.31247044 -0.20727457 -0.83235079 176 156 163
-0.31147286 -0.20531945 -0.8318398 177 159 164
-0.31232312 -0.20752162 -0.83226252 176 157 164
-0.31181297 -0.20818475 -0.83195275 177 159 165
-0.31147757 -0.20836906 -0.83175188 178 160 165
-0.3106786 -0.20691842 -0.83133972 179 162 166
-0.30704916 -0.20555878 -0.82983983 181 163 165
-0.30748257 -0.20680034 -0.82997942 182 164 168
-0.30717841 -0.20678496 -0.82985234 182 164 169
-0.30675784 -0.20657979 -0.82968283 182 164 170
-0.30732423 -0.20796016 -0.82987356 183 165 173
-0.30805099 -0.20659716 -0.83022487 181 163 166
-0.30748776 -0.20577437 -0.83001667 180 163 165
-0.30907664 -0.205644 -0.83068967 180 162 165
-0.30990544 -0.20800284 -0.83095556 180 163 167
-0.30784494 -0.20620508 -0.83015186 180 163 165
-0.31006405 -0.20702431 -0.83105659 180 163 166
-0.30893084 -0.20546274 -0.83063465 180 162 165
-0.30434546 -0.20838314 -0.82891661 190 177 182
-0.30310997 -0.20752858 -0.82860363 192 180 180
-0.30404502 -0.20811614 -0.82884371 191 178 181
-0.30320612 -0.20596798 -0.82871681 189 171 169
-0.30443618 -0.20761548 -0.82898492 189 173 176
-0.30445123 -0.20555216 -0.82907647 186 167 166
-0.30598316 -0.20511054 -0.82950592 182 164 165
-0.30645815 -0.20600928 -0.82960379 182 164 168
-0.30607349 -0.20589614 -0.8295036 183 165 167
-0.30483845 -0.20635478 -0.82915384 186 167 169
-0.30506054 -0.20728169 -0.82918239 187 168 172
-0.30245468 -0.20586972 -0.82856023 189 173 169
-0.29212981 -0.20650424 -0.8286261 176 159 154
-0.29255581 -0.20585386 -0.82862294 170 152 148
-0.29200113 -0.20521979 -0.82876432 165 145 140
-0.29283518 -0.20580353 -0.8285861 169 152 149
-0.28873229 -0.20795843 -0.82928264 175 155 153
-0.28833199 -0.20724747 -0.82948279 167 145 147
-0.29022747 -0.20888986 -0.82877475 192 178 169
-0.28758875 -0.20677808 -0.82973623 159 134 139
-0.28897056 -0.20826694 -0.82917941 179 160 156
-0.28832805 -0.20519872 -0.8297177 150 125 132
-0.29053456 -0.2079507 -0.82880193 186 171 165
-0.28873053 -0.20622441 -0.82950217 161 139 143
-0.28987145 -0.20707314 -0.82908183 175 157 154
-0.28914386 -0.20604491 -0.82939506 162 140 142
-0.28870428 -0.20569091 -0.82955945 157 133 138
-0.28320646 -0.20689347 -0.83160198 151 134 135
-0.28403333 -0.20880893 -0.83079457 157 133 135
-0.28357515 -0.20713449 -0.83139724 153 135 135
-0.28411269 -0.20799021 -0.83097094 157 135 136
-0.28362995 -0.20671782 -0.83148134 154 136 136
-0.28572059 -0.20614307 -0.83064586 154 132 135
-0.28636193 -0.20534115 -0.83043402 146 121 131
-0.28490222 -0.20547947 -0.83115065 150 131 135
-0.28465718 -0.20558007 -0.8312602 151 134 135
-0.28523907 -0.20696898 -0.83077371 161 142 140
-0.28579524 -0.20728768 -0.83044904 162 141 140
-0.28289807 -0.20739365 -0.83165324 151 131 133
-0.28210911 -0.2077914 -0.83203781 151 130 132
-0.28145549 -0.20852388 -0.83225691 151 128 131
-0.28318331 -0.20629947 -0.831765 151 135 135
-0.31253856 -0.21025427 -0.83229381 174 156 163
-0.31210202 -0.20963468 -0.83206594 176 158 164
-0.31188703 -0.20991752 -0.83192986 176 158 164
-0.31239152 -0.20901793 -0.83225864 176 157 164
-0.31187531 -0.21242304 -0.83184516 173 156 165
-0.3122305 -0.21205433 -0.83204842 172 156 162
-0.31144011 -0.21155752 -0.8316251 175 159 166
-0.31069088 -0.2112557 -0.83122003 178 161 170
-0.31035116 -0.21285868 -0.83102417 177 161 173
-0.30673712 -0.21059102 -0.82956272 188 171 179
-0.30822271 -0.21145874 -0.83016467 183 167 176
-0.30916908 -0.2125203 -0.83053881 181 165 175
-0.30902338 -0.21283764 -0.83047247 183 167 175
-0.31025463 -0.21215875 -0.83099842 178 161 172
-0.31005189 -0.20919514 -0.83097857 181 164 169
-0.31000876 -0.21215445 -0.83089536 178 162 173
-0.30690393 -0.20904881 -0.82966089 185 167 178
-0.30999672 -0.21085529 -0.83091897 179 163 171
-0.30851614 -0.20992802 -0.83031803 182 165 174
-0.30638617 -0.21120369 -0.8294391 191 174 180
-0.30567887 -0.21032238 -0.82925361 193 177 184
-0.305933 -0.21238625 -0.82928854 196 180 183
-0.30628511 -0.21177258 -0.82939994 192 176 181
-0.30597049 -0.21233401 -0.82930017 195 180 183
-0.30336162 -0.21022317 -0.82858163 199 190 192
-0.30559859 -0.20898858 -0.82924849 188 173 182
-0.30562091 -0.2093014 -0.82925099 189 174 183
-0.30432698 -0.20954438 -0.82887125 194 182 187
-0.28890118 -0.21241847 -0.82858735 203 196 198
-0.28903756 -0.21265408 -0.82853061 202 195 199
-0.29059914 -0.20967805 -0.82856596 199 188 181
-0.28849372 -0.21092381 -0.82887828 199 191 183
-0.28827122 -0.2110436 -0.8289147 199 190 183
-0.28725585 -0.21062316 -0.82924151 189 174 169
-0.28879729 -0.20953661 -0.82903183 188 173 166
-0.28791726 -0.20929302 -0.82929504 181 160 155
-0.28598186 -0.21252936 -0.82940114 198 190 186
-0.28507388 -0.2109039 -0.83002561 180 166 165
-0.28431493 -0.21154386 -0.8302145 179 162 161
-0.28502059 -0.21272743 -0.82974249 193 180 177
-0.28377241 -0.21071425 -0.83056396 169 149 150
-0.28511527 -0.21082418 -0.83002269 179 166 165
-0.28557059 -0.20942435 -0.83007771 169 147 146
-0.2844255 -0.20941491 -0.83052576 163 141 142
-0.28626063 -0.21035002 -0.82965481 181 164 161
-0.28667974 -0.21117769 -0.82935399 191 179 174
-0.28580779 -0.21125185 -0.82968163 187 175 173
-0.28213003 -0.21273597 -0.83102351 184 161 159
-0.28201422 -0.21227738 -0.83118266 180 157 155
-0.28128886 -0.21094655 -0.83185035 170 146 146
-0.28159389 -0.21029283 -0.83182853 162 138 140
-0.28132957 -0.21081236 -0.83185744 168 144 145
-0.28168836 -0.21153925 -0.83151257 174 151 150
-0.28221813 -0.20953332 -0.83158511 156 132 135
-0.28291848 -0.21060285 -0.83097839 164 141 143
-0.28236184 -0.21072219 -0.83129913 165 141 143
-0.31298935 -0.21447225 -0.83237535 180 163 168
-0.31161052 -0.21400358 -0.83163893 181 165 173
-0.31235984 -0.21316615 -0.83208859 173 156 164
-0.31254089 -0.21496294 -0.83210665 184 168 174
-0.3112295 -0.21553592 -0.831361 191 173 181
-0.31129462 -0.21651798 -0.83135277 197 177 185
-0.31116012 -0.21479297 -0.83135623 187 169 178
-0.31157884 -0.21595189 -0.83153403 193 175 182
-0.30699193 -0.21354826 -0.82959908 195 179 183
-0.30767801 -0.21408719 -0.82985944 196 178 183
-0.30813065 -0.21548064 -0.82999027 203 186 192
-0.30700746 -0.21389224 -0.82959193 197 182 186
-0.31024021 -0.21310778 -0.83096772 179 163 174
-0.30985332 -0.21299241 -0.83081204 180 164 174
-0.31009895 -0.21580327 -0.83078825 196 176 184
-0.3101216 -0.21447229 -0.83085728 188 170 179
-0.30725211 -0.21305604 -0.82972765 191 175 179
-0.3088789 -0.21449032 -0.83033979 193 175 182
-0.28722984 -0.21397251 -0.82867843 198 194 196
-0.28580475 -0.21651067 -0.82870382 175 170 185
-0.28403521 -0.21663044 -0.82932621 172 170 180
-0.28638464 -0.21394067 -0.82897133 198 196 195
-0.28614628 -0.21387464 -0.82906967 199 197 195
-0.28497294 -0.21577784 -0.82914478 181 178 185
-0.28565937 -0.21317698 -0.82940608 198 189 186
-0.28412637 -0.213387 -0.82995868 186 171 171
-0.28413543 -0.21314166 -0.83000696 187 171 170
-0.28428036 -0.21531802 -0.8294909 182 179 182
-0.28323451 -0.21522033 -0.8299188 175 165 170
-0.28386021 -0.21557839 -0.82959944 178 174 179
-0.279495 -0.21486843 -0.83198059 172 145 153
-0.28108621 -0.21343425 -0.83143169 183 159 159
-0.27997321 -0.21440889 -0.83182144 176 150 155
-0.28053224 -0.21454714 -0.83149761 172 145 153
-0.28152889 -0.21393926 -0.8310945 175 150 155
-0.28001988 -0.21430947 -0.83181703 177 151 155
-0.28205991 -0.21583815 -0.83041334 167 152 162
-0.28284624 -0.21406236 -0.83036685 176 157 161
-0.28251493 -0.21361654 -0.83063859 176 151 156
-0.2800779 -0.21619768 -0.83139998 156 126 146
-0.28162616 -0.21550569 -0.83071607 166 145 157
-0.28206566 -0.2158695 -0.83040363 167 152 163
-0.2817412 -0.21617424 -0.83051324 165 148 161
-0.27900854 -0.21532823 -0.83218282 167 138 148
-0.27878633 -0.21665293 -0.83205914 150 118 140
-0.31331524 -0.21907096 -0.83239347 196 176 189
-0.31183338 -0.21837549 -0.83159733 199 177 190
-0.31318292 -0.21770769 -0.83235419 195 178 184
-0.31197169 -0.21743242 -0.83169621 198 178 186
-0.3117933 -0.21896832 -0.83155739 201 181 193
-0.31094497 -0.21823375 -0.8311069 204 185 193
-0.31208482 -0.21890427 -0.83172208 199 177 192
-0.28342712 -0.21768761 -0.82939023 166 160 173
-0.28549749 -0.21762371 -0.82864451 168 159 178
-0.28391555 -0.2189229 -0.82903725 161 147 167
-0.28350726 -0.21839301 -0.82926112 163 153 169
-0.28508118 -0.21686396 -0.82890385 171 168 182
-0.28387237 -0.21985142 -0.82892179 156 138 161
-0.28566709 -0.21781954 -0.82855797 167 157 176
-0.28186035 -0.21988711 -0.82985073 153 130 150
-0.28143364 -0.2204432 -0.82994574 158 139 149
-0.28100589 -0.21921627 -0.83039349 154 130 147
-0.28062043 -0.21986905 -0.83044952 158 139 146
-0.28237933 -0.22068888 -0.82944316 155 135 152
-0.2800903 -0.21919647 -0.83083695 158 136 144
-0.28179887 -0.21775499 -0.8302151 159 141 159
-0.28159374 -0.21768737 -0.83033466 158 139 157
-0.2827636 -0.21887824 -0.82953894 158 142 161
-0.28055465 -0.21764372 -0.83089787 153 126 148
-0.2827996 -0.21840781 -0.82958621 161 148 164
-0.28233522 -0.2186106 -0.82980645 157 139 159
-0.27892482 -0.21977787 -0.83134514 161 144 139
-0.27863142 -0.21957029 -0.83157212 158 138 136
-0.27882189 -0.21994267 -0.83137548 161 143 138
-0.27887362 -0.22055107 -0.83121687 163 148 138
-0.27874762 -0.21722628 -0.83197045 150 120 139
-0.27853611 -0.21724792 -0.83210599 150 119 137
-0.31330705 -0.22398467 -0.83220428 188 179 190
-0.31350988 -0.22218166 -0.83239639 192 175 192
-0.31341121 -0.22330119 -0.83229232 190 177 190
-0.28371504 -0.22105496 -0.82880801 155 132 151
-0.28348452 -0.2221368 -0.82871723 164 143 149
-0.28100383 -0.22304748 -0.82972229 151 122 143
-0.2829197 -0.22190486 -0.82898897 159 137 150
-0.28310546 -0.22103041 -0.82903945 153 131 153
-0.28271797 -0.22284593 -0.8289355 165 143 147
-0.28179538 -0.22186649 -0.82953274 152 126 148
-0.28162581 -0.22091648 -0.82976764 157 138 149
-0.28199121 -0.22107211 -0.82956707 155 134 150
-0.28075013 -0.22295626 -0.82985848 151 122 143
-0.28055781 -0.22109899 -0.8302508 160 143 145
-0.27759805 -0.22228295 -0.83172035 145 118 124
-0.2776311 -0.22183038 -0.83178222 145 118 124
-0.27812886 -0.2221974 -0.83141088 149 122 128
-0.27925056 -0.22163729 -0.83079815 162 145 140
-0.27912629 -0.22114159 -0.8309561 164 148 139
-0.31213579 -0.28841302 -0.83206213 162 143 140
-0.31237781 -0.28881666 -0.83216196 161 142 138
-0.31274375 -0.28938997 -0.83231688 160 141 134
-0.31142944 -0.29063237 -0.83153886 159 141 138
-0.31252509 -0.29100436 -0.83207387 158 139 132
-0.31242314 -0.29015127 -0.8320635 159 140 134
-0.31284747 -0.29319197 -0.83214295 153 135 129
-0.31243232 -0.29321119 -0.8319326 154 136 131
-0.31222543 -0.29296717 -0.83183867 154 136 132
-0.3131735 -0.29434127 -0.83225834 151 133 127
-0.31130007 -0.29400292 -0.83134228 154 136 133
-0.31141353 -0.29367331 -0.83141005 155 136 133
-0.31070891 -0.29216149 -0.83111471 158 140 138
-0.31134659 -0.2931079 -0.83139694 155 137 134
-0.31001002 -0.29467741 -0.83063978 156 138 136
-0.31007144 -0.29337698 -0.83071089 157 139 138
-0.31024298 -0.29267567 -0.83083689 158 140 139
-0.31027979 -0.29154894 -0.83089846 159 141 141
-0.31242022 -0.29533461 -0.83186853 151 133 128
-0.31302413 -0.29607132 -0.83217514 149 131 126
-0.31211248 -0.29509762 -0.8317138 152 133 129
-0.31160328 -0.29530269 -0.83146381 152 134 130
-0.31054991 -0.295297 -0.83094615 154 135 133
-0.31167737 -0.29678988 -0.83151954 150 131 130
-0.30974528 -0.29546025 -0.83050531 157 138 138
-0.30941603 -0.29590821 -0.83033264 158 138 139
-0.30972993 -0.29547879 -0.83049721 157 138 138
-0.31433836 -0.30925226 -0.83241439 87 60 82
-0.31358537 -0.30953956 -0.83198327 89 61 87
-0.31390905 -0.30995238 -0.83206904 86 59 85
-0.31293514 -0.30962023 -0.83176821 89 62 87
-0.31546703 -0.31235194 -0.83235264 65 40 57
-0.31587398 -0.312668 -0.83241767 59 36 50
-0.31489554 -0.31397513 -0.83211559 78 46 56
-0.31507561 -0.31216165 -0.83227855 72 45 63
-0.31479844 -0.31318092 -0.8321439 79 48 62
-0.31404662 -0.31063747 -0.83210933 83 55 81
-0.31291863 -0.31096122 -0.8317641 84 57 80
-0.31402493 -0.31187093 -0.83202231 84 54 74
-0.31353185 -0.31299925 -0.83180672 86 55 68
-0.31192791 -0.31087354 -0.83148521 84 59 80
-0.3134858 -0.31138864 -0.83189899 84 56 77
-0.31578544 -0.31573716 -0.83234811 59 30 43
-0.31470102 -0.31501651 -0.83205688 82 47 57
-0.31567407 -0.31645006 -0.83234644 60 30 46
-0.31545961 -0.31797713 -0.83232963 61 30 53
-0.31304917 -0.31551915 -0.83160496 90 63 73
-0.31376627 -0.31532985 -0.83178931 87 56 67
-0.31418341 -0.31456155 -0.83190614 88 54 62
-0.31927264 -0.16778187 -0.8361004 167 149 156
-0.31963325 -0.16726659 -0.83632565 166 150 157
-0.31877148 -0.16902381 -0.83584118 167 149 156
-0.31630242 -0.16911042 -0.83419573 167 151 157
-0.31488264 -0.16953123 -0.83326691 164 149 156
-0.31547722 -0.16921932 -0.83364654 166 150 157
-0.31361377 -0.16933998 -0.83253437 163 148 155
-0.31381887 -0.16930813 -0.83263713 163 148 155
-0.31929606 -0.170415 -0.83626848 164 146 151
-0.31844559 -0.17280936 -0.83580756 156 139 142
-0.31599888 -0.17325747 -0.83421969 155 138 140
-0.31540906 -0.17190735 -0.83375096 158 142 146
-0.31507558 -0.17355423 -0.83363712 155 138 139
-0.3148981 -0.17359519 -0.83352417 155 138 139
-0.31590343 -0.17285848 -0.83413249 156 139 142
-0.31479275 -0.17194681 -0.83335221 158 142 146
-0.31460014 -0.17111835 -0.83317482 160 144 150
-0.31793118 -0.17066135 -0.83537936 164 147 152
-0.31719565 -0.17093037 -0.8348937 162 145 151
-0.31489515 -0.17020042 -0.83331317 162 147 153
-0.31770581 -0.17136139 -0.83525473 161 144 149
-0.31764418 -0.17209184 -0.83524179 158 141 145
-0.3170875 -0.17210829 -0.83486688 157 141 145
-0.31363398 -0.1730058 -0.83278543 155 138 142
-0.31437731 -0.17078902 -0.83302027 161 145 151
-0.31407812 -0.17057434 -0.83285546 161 145 152
-0.31914398 -0.1739009 -0.83629793 153 134 136
-0.31839031 -0.17584383 -0.83588201 155 134 137
-0.31760469 -0.17734608 -0.83542669 156 135 139
-0.31536508 -0.17741185 -0.83401978 155 135 139
-0.31456906 -0.17604581 -0.83344358 155 136 139
-0.31582239 -0.17542876 -0.83419919 155 136 139
-0.31476292 -0.17711061 -0.83362406 155 135 139
-0.31549394 -0.17657396 -0.83405507 155 135 139
-0.31658328 -0.17571437 -0.83469921 155 136 138
-0.3171705 -0.17641324 -0.83510494 156 135 138
-0.31830686 -0.17767605 -0.83588713 156 135 138
-0.31646246 -0.17422111 -0.83457041 154 136 138
-0.3163012 -0.17419502 -0.83446461 154 136 138
-0.31785414 -0.17474285 -0.83549398 154 135 137
-0.31515169 -0.17424546 -0.83371788 155 137 138
