ply
format ascii 1.0
comment PCL generated
element vertex 620
property float x
property float y
property float z
property uchar red
property uchar green
property uchar blue
element camera 1
property float view_px
property float view_py
property float view_pz
property float x_axisx
property float x_axisy
property float x_axisz
property float y_axisx
property float y_axisy
property float y_axisz
property float z_axisx
property float z_axisy
property float z_axisz
property float focal
property float scalex
property float scaley
property float centerx
property float centery
property int viewportx
property int viewporty
property float k1
property float k2
end_header
-0.18930164 -0.52119344 -0.75812924 143 116 151
-0.18717457 -0.52043778 -0.75781667 167 145 166
-0.1876498 -0.52116102 -0.75761127 161 139 165
-0.19088201 -0.52526748 -0.75711775 158 135 155
-0.19137758 -0.52372259 -0.75795281 153 129 153
-0.1917558 -0.52510214 -0.75755149 159 137 155
-0.19090022 -0.52334964 -0.75790399 151 126 152
-0.19020395 -0.52471882 -0.75705594 155 131 154
-0.19182356 -0.5240159 -0.75802094 155 132 154
-0.18689524 -0.52453929 -0.75593472 159 133 162
-0.18690179 -0.52359003 -0.75634551 168 146 169
-0.18860056 -0.52493387 -0.75636482 159 134 158
-0.18813691 -0.52475524 -0.75627857 160 135 160
-0.18751025 -0.52450758 -0.75616467 161 136 162
-0.18570545 -0.52391195 -0.75578612 163 137 167
-0.18905091 -0.52403682 -0.75688601 156 131 156
-0.18796021 -0.52343988 -0.75677127 165 143 165
-0.18723029 -0.52237064 -0.75696629 169 149 170
-0.18762718 -0.52284479 -0.75690377 166 145 167
-0.18732238 -0.52261335 -0.75689793 169 149 170
-0.18390134 -0.5249542 -0.75462061 165 141 166
-0.18470876 -0.52399957 -0.75543946 165 141 168
-0.18514156 -0.52440637 -0.75539517 160 133 164
-0.1849307 -0.52298182 -0.75594437 173 153 175
-0.1963463 -0.52879137 -0.75799972 166 153 167
-0.19344173 -0.52874327 -0.75681448 158 142 162
-0.19523305 -0.5279361 -0.75787669 164 149 164
-0.19409417 -0.52735764 -0.75763339 162 145 161
-0.19415185 -0.5291937 -0.75693059 159 145 164
-0.19439737 -0.52642989 -0.75812638 164 147 160
-0.19068991 -0.52687848 -0.75640529 156 135 157
-0.1896397 -0.52633506 -0.756194 156 134 155
-0.18979402 -0.52684385 -0.7560674 156 136 155
-0.19080107 -0.52754426 -0.75620407 156 137 157
-0.19147192 -0.52923018 -0.75584686 156 142 159
-0.18968534 -0.52867091 -0.75535315 155 141 156
-0.19150175 -0.52724034 -0.75659567 157 137 158
-0.1926804 -0.52746195 -0.75700253 158 140 159
-0.19326003 -0.527529 -0.7572192 159 142 160
-0.19116808 -0.52550888 -0.75714099 159 137 156
-0.19117841 -0.52709824 -0.75651628 157 136 158
-0.1926102 -0.52817166 -0.75669217 157 140 160
-0.18650718 -0.52704561 -0.75473928 151 127 155
-0.18715455 -0.52846837 -0.75434482 152 135 153
-0.18775499 -0.52839577 -0.75467068 153 136 155
-0.18773393 -0.52789927 -0.75490272 153 133 155
-0.18852907 -0.52861667 -0.75492793 153 138 155
-0.18872692 -0.5262118 -0.75591081 155 131 155
-0.18837108 -0.52657545 -0.75565195 154 131 155
-0.18898481 -0.52613688 -0.75602913 155 132 155
-0.18864943 -0.52783191 -0.75528795 154 135 156
-0.18796271 -0.52741116 -0.7552011 153 132 156
-0.18875919 -0.52835047 -0.75513595 154 137 156
-0.18493447 -0.52643603 -0.75429732 154 129 156
-0.18484682 -0.52580011 -0.7545805 155 128 159
-0.19346744 -0.53177363 -0.75587451 139 100 148
-0.19343632 -0.53186488 -0.75583237 138 98 147
-0.1933946 -0.53313249 -0.75543422 128 74 138
-0.19377179 -0.5298152 -0.75660527 158 140 163
-0.1944335 -0.53026682 -0.75678229 162 143 165
-0.1899531 -0.53078854 -0.75467598 145 127 150
-0.19144833 -0.53209615 -0.75489038 135 101 144
-0.19108966 -0.5324356 -0.75457251 133 103 143
-0.19254345 -0.53282261 -0.75514269 130 84 140
-0.191504 -0.53263927 -0.75469697 132 97 142
-0.19071892 -0.52993482 -0.7553373 150 131 154
-0.19125994 -0.53040224 -0.75540966 147 123 152
-0.19311546 -0.52972347 -0.75633842 153 134 159
-0.19219767 -0.53101659 -0.75559348 143 111 149
-0.19265611 -0.53167933 -0.7555753 138 100 146
-0.19330716 -0.53111875 -0.75599736 142 109 151
-0.18867131 -0.53001159 -0.75437504 149 137 153
-0.19385131 -0.53675789 -0.75481647 159 129 153
-0.19340731 -0.53374463 -0.75529498 131 81 139
-0.19375525 -0.53430885 -0.75533134 140 95 145
-0.19588767 -0.53406608 -0.75641119 165 131 165
-0.19465996 -0.53420246 -0.75578779 150 109 155
-0.19318809 -0.53617203 -0.75461942 148 112 144
-0.19162905 -0.53368312 -0.754417 131 98 141
-0.19280775 -0.53416306 -0.75489432 134 91 140
-0.1931597 -0.53407872 -0.75509036 133 86 139
-0.19380468 -0.53821737 -0.75442189 166 141 158
-0.19496045 -0.54002112 -0.75451863 184 167 177
-0.1947277 -0.53959852 -0.75451607 180 161 173
-0.19478042 -0.54025829 -0.75435758 185 169 178
-0.19488072 -0.5405134 -0.75433809 187 173 180
-0.19426906 -0.53787488 -0.7547552 166 141 160
-0.19402957 -0.53771466 -0.75467885 163 137 157
-0.20737214 -0.50175083 -0.77034873 164 143 157
-0.2096187 -0.50499827 -0.77039272 160 127 156
-0.21027735 -0.50559443 -0.77053428 161 129 156
-0.21123183 -0.50556105 -0.77096874 159 131 154
-0.21120924 -0.50583494 -0.77088869 160 131 155
-0.21074225 -0.50503755 -0.7708841 158 129 153
-0.20925078 -0.50351787 -0.77060694 155 124 151
-0.20758557 -0.50326341 -0.77003121 168 142 161
-0.20844017 -0.50358254 -0.77026826 161 131 156
-0.20876718 -0.50435317 -0.7701931 161 128 157
-0.20932917 -0.50586301 -0.77004266 164 128 160
-0.21099347 -0.50634044 -0.77068436 161 133 157
-0.21046238 -0.5069285 -0.77032298 163 135 160
-0.21062985 -0.50673449 -0.77043873 163 134 159
-0.21583973 -0.52139539 -0.77009135 178 165 179
-0.18591622 -0.52766311 -0.75413662 150 127 151
-0.18749437 -0.52909738 -0.75420105 153 139 153
-0.1856394 -0.52780122 -0.75393564 149 128 151
-0.18419977 -0.52634972 -0.75400716 159 137 160
-0.18533927 -0.52716732 -0.75410807 150 126 152
-0.18460497 -0.5274455 -0.75364929 157 138 156
-0.18479574 -0.52825332 -0.75334013 156 140 154
-0.18405992 -0.5291993 -0.75247777 152 139 152
-0.1845815 -0.5287143 -0.75299996 155 141 153
-0.18346763 -0.52921945 -0.75217283 152 139 153
-0.17932317 -0.52830213 -0.75056767 153 142 152
-0.17952292 -0.52751756 -0.75106931 155 144 154
-0.17844242 -0.52615267 -0.75122446 157 146 154
-0.18114965 -0.52912033 -0.75106716 152 141 155
-0.17766206 -0.52681571 -0.75048542 158 146 151
-0.18969896 -0.53294581 -0.7536931 129 113 143
-0.18657245 -0.52933359 -0.75364333 152 138 151
-0.18624596 -0.52950168 -0.75341606 150 136 149
-0.18589443 -0.52964056 -0.75319207 148 134 148
-0.18932343 -0.53209102 -0.753851 135 122 146
-0.18708239 -0.53002983 -0.75360203 147 134 149
-0.18715979 -0.53176445 -0.75294244 139 125 144
-0.18645759 -0.53073388 -0.75302058 144 130 146
-0.18839808 -0.53259158 -0.7532084 133 118 143
-0.18725237 -0.53227574 -0.75277901 137 123 143
-0.18894 -0.53285414 -0.75336528 130 115 143
-0.18606079 -0.53117102 -0.75264901 144 130 145
-0.18165481 -0.52944189 -0.75117195 151 140 156
-0.18183106 -0.53035557 -0.75088936 148 135 151
-0.18341655 -0.5320617 -0.75098634 143 129 144
-0.1852006 -0.53286171 -0.75153726 141 129 141
-0.18223113 -0.53046614 -0.75104511 148 135 151
-0.18288383 -0.5320192 -0.75074351 143 128 143
-0.18340343 -0.5308252 -0.75147563 147 135 149
-0.18406317 -0.52956408 -0.75231743 150 137 151
-0.18322186 -0.52997494 -0.75173223 149 137 152
-0.18540375 -0.53030056 -0.75268257 148 134 146
-0.18484375 -0.52990144 -0.75256735 149 136 149
-0.18486187 -0.53214896 -0.75165975 143 131 143
-0.18352175 -0.52986741 -0.75192499 150 137 151
-0.18050519 -0.52949125 -0.7505731 151 140 152
-0.18153021 -0.52960682 -0.75104189 151 139 155
-0.19080473 -0.53421336 -0.75389552 135 112 143
-0.19072959 -0.53424627 -0.75385189 135 113 143
-0.19016288 -0.53696406 -0.75270379 137 107 129
-0.19047847 -0.53561461 -0.75330937 137 112 137
-0.19042753 -0.53589439 -0.75319219 137 111 136
-0.19079471 -0.53646821 -0.75322449 140 112 135
-0.18963744 -0.53587604 -0.75274128 132 106 131
-0.19113789 -0.53549767 -0.7537272 141 117 142
-0.18682083 -0.53614533 -0.75121212 133 109 130
-0.18569019 -0.53352928 -0.7515313 140 125 138
-0.18588948 -0.53514594 -0.75107408 135 115 133
-0.18692599 -0.53582472 -0.75137812 134 111 130
-0.18850075 -0.5364061 -0.75199616 134 106 127
-0.18594272 -0.53628027 -0.75070816 132 109 130
-0.18930328 -0.53473282 -0.75292027 130 109 135
-0.18781124 -0.53503346 -0.75209904 135 114 133
-0.18766332 -0.53440773 -0.75222325 135 116 136
-0.18867849 -0.53576279 -0.75229281 133 108 130
-0.18791497 -0.53354919 -0.75261509 133 117 140
-0.18735781 -0.53440565 -0.75207502 136 117 135
-0.18738101 -0.53381014 -0.75227314 135 119 138
-0.18343039 -0.53340596 -0.75046664 139 122 137
-0.18537578 -0.53367931 -0.75132012 139 124 138
-0.1855081 -0.53395587 -0.75128812 138 123 137
-0.18419102 -0.53391796 -0.75065887 138 120 136
-0.19418445 -0.53953582 -0.75424916 177 158 169
-0.1939436 -0.53937137 -0.7541728 175 156 166
-0.19302388 -0.53719002 -0.75428808 155 126 146
-0.19333214 -0.53890854 -0.75398904 170 148 160
-0.19211873 -0.5382461 -0.75347108 157 132 148
-0.19222596 -0.5386855 -0.75341487 161 138 152
-0.19072805 -0.53743863 -0.75289041 143 114 134
-0.19302602 -0.53892499 -0.75380915 168 146 158
-0.19018529 -0.5384292 -0.75232542 149 124 139
-0.19008748 -0.53928298 -0.75205904 157 136 147
-0.18963808 -0.54048234 -0.75151211 168 152 156
-0.19072928 -0.53891826 -0.75250512 156 133 146
-0.19005525 -0.53976619 -0.75192112 162 143 151
-0.18910806 -0.54095304 -0.7511307 170 156 158
-0.18942986 -0.53868061 -0.75184655 148 125 139
-0.18763682 -0.54099011 -0.75043064 161 145 149
-0.18864743 -0.53716785 -0.75181544 132 103 126
-0.18914612 -0.53729749 -0.75204605 134 104 126
-0.18744822 -0.54064757 -0.75041217 158 141 146
-0.18684924 -0.53779882 -0.75073808 136 110 131
-0.18864612 -0.53763425 -0.75171036 136 108 128
-0.18824869 -0.53747731 -0.75153857 134 106 128
-0.18857054 -0.54103547 -0.75085884 167 153 155
-0.20516719 -0.50187379 -0.76948375 186 173 175
-0.20309849 -0.49897119 -0.76982081 178 162 163
-0.20238106 -0.49917582 -0.7695685 179 160 161
-0.20416814 -0.50096339 -0.76949018 184 170 170
-0.20252188 -0.50009918 -0.76930183 179 159 161
-0.20143214 -0.50187367 -0.76838672 171 141 154
-0.20265774 -0.50035757 -0.76925468 179 159 162
-0.20371693 -0.50114679 -0.76929903 182 165 168
-0.20243953 -0.50010711 -0.76927507 178 158 161
-0.1995946 -0.50151432 -0.76802623 159 130 142
-0.20048444 -0.50168812 -0.76819724 165 135 148
-0.20092694 -0.50171435 -0.76830328 168 137 151
-0.20769326 -0.50404823 -0.76987004 170 142 163
-0.20596634 -0.50258571 -0.76959723 181 163 171
-0.20645112 -0.50331497 -0.76959187 180 158 170
-0.20548524 -0.50335735 -0.76920837 186 170 176
-0.20556401 -0.50382638 -0.7691136 186 169 177
-0.20562583 -0.50481546 -0.76887357 186 168 179
-0.20720316 -0.5056259 -0.76926553 177 149 171
-0.20599343 -0.50309795 -0.76947349 183 163 173
-0.2063687 -0.50429797 -0.76929808 181 159 173
-0.2020001 -0.50525594 -0.76773113 175 155 163
-0.20264593 -0.5044924 -0.76807457 178 156 167
-0.20280631 -0.50372642 -0.76829356 178 154 167
-0.20231993 -0.50315517 -0.76830083 176 149 162
-0.20184188 -0.50359577 -0.76807553 173 148 160
-0.20194606 -0.50494701 -0.76778889 174 154 162
-0.2018905 -0.50247943 -0.76835358 173 145 158
-0.20449032 -0.50234032 -0.76915085 185 169 173
-0.20340228 -0.50381249 -0.76844001 181 159 170
-0.20307079 -0.50222117 -0.7687676 178 156 164
-0.20226428 -0.50213075 -0.76855594 175 149 159
-0.20462915 -0.50348854 -0.76888514 187 170 177
-0.20038886 -0.50331634 -0.76776409 165 140 150
-0.20019509 -0.50255167 -0.76789105 163 136 148
-0.20077503 -0.50296581 -0.76794583 167 140 152
-0.20106402 -0.50244892 -0.76814091 169 140 153
-0.20095228 -0.50369316 -0.76782322 169 144 154
-0.21008262 -0.50975722 -0.76955211 172 152 169
-0.20979387 -0.50805986 -0.76978457 168 140 165
-0.20898975 -0.50721461 -0.76960319 170 138 165
-0.20513499 -0.50785154 -0.767941 189 173 184
-0.20642519 -0.50722897 -0.76861048 186 169 182
-0.20648071 -0.50946254 -0.76811057 184 168 180
-0.20699245 -0.50813282 -0.76862943 184 166 180
-0.20540068 -0.50883824 -0.76781803 187 172 183
-0.20746884 -0.50665689 -0.76913548 178 152 173
-0.20767725 -0.5075382 -0.76902771 179 157 175
-0.20696495 -0.50688308 -0.76889294 182 160 177
-0.20778248 -0.50610828 -0.76937354 174 144 169
-0.20701234 -0.50725448 -0.76883197 182 162 178
-0.20894647 -0.508834 -0.7692405 175 152 171
-0.20161976 -0.5088771 -0.76648915 169 155 161
-0.20126988 -0.50916904 -0.76625621 167 153 159
-0.2014906 -0.50765634 -0.76686805 170 154 160
-0.20144461 -0.50972331 -0.76612759 167 154 160
-0.20141432 -0.50867277 -0.7664839 168 154 160
-0.20339698 -0.50898045 -0.76711684 179 164 172
-0.20470841 -0.5071997 -0.76797515 188 172 182
-0.20357023 -0.5065974 -0.76782292 182 166 175
-0.2026782 -0.50589812 -0.76775676 178 161 169
-0.20475948 -0.50722504 -0.76798236 188 172 182
-0.204108 -0.50873041 -0.76746243 183 168 177
-0.20975561 -0.51155871 -0.76898003 175 155 173
-0.21097536 -0.51265931 -0.76928198 167 145 165
-0.21073905 -0.51265305 -0.76917303 169 147 167
-0.20913313 -0.51079285 -0.76887566 179 160 176
-0.20704876 -0.5129776 -0.76740342 188 170 183
-0.20724699 -0.51347882 -0.7673412 189 169 182
-0.20511794 -0.5114454 -0.76696527 189 170 181
-0.206324 -0.51252657 -0.76720023 189 169 182
-0.20574163 -0.51262456 -0.76689345 190 168 181
-0.20872405 -0.51356471 -0.76801509 187 171 184
-0.20644741 -0.51102728 -0.76771897 187 172 183
-0.20695314 -0.51029617 -0.76810229 184 168 180
-0.20879945 -0.51188064 -0.76846623 183 166 180
-0.20802116 -0.5123601 -0.76803344 186 171 183
-0.20651659 -0.51113993 -0.76771963 187 172 183
-0.20828702 -0.51184958 -0.76826566 184 168 181
-0.20478238 -0.51180738 -0.76671439 188 167 179
-0.20258841 -0.51035374 -0.76635408 174 159 167
-0.20310092 -0.50979084 -0.76672351 176 162 170
-0.20449851 -0.5105654 -0.76700073 185 168 178
-0.20433865 -0.51322585 -0.76609981 187 163 175
-0.20338173 -0.51055849 -0.76658571 179 162 171
-0.2040372 -0.51002181 -0.76700026 182 167 176
-0.21295282 -0.51655149 -0.7694093 160 137 163
-0.21111839 -0.51496452 -0.76885307 171 152 172
-0.21129106 -0.51494473 -0.76893753 170 150 171
-0.21197256 -0.51561946 -0.769126 166 144 168
-0.20958273 -0.51420462 -0.76828212 183 167 182
-0.21043223 -0.51494819 -0.76853573 177 160 178
-0.21147315 -0.51453727 -0.76910096 167 146 167
-0.21059626 -0.51745921 -0.76805604 179 161 183
-0.20950389 -0.51427072 -0.76822984 183 168 183
-0.20977323 -0.51562065 -0.76805955 183 167 184
-0.21200998 -0.51717359 -0.76882833 168 149 173
-0.21034393 -0.51653814 -0.76813793 180 163 182
-0.21241821 -0.5171442 -0.76903939 165 145 171
-0.20550711 -0.51551026 -0.76602286 191 164 180
-0.20735633 -0.51669425 -0.76664525 191 170 187
-0.20670956 -0.51576048 -0.76655114 191 169 185
-0.20547749 -0.51407182 -0.7663511 191 167 181
-0.20564964 -0.51433569 -0.76637256 191 167 181
-0.20666003 -0.5148086 -0.76674551 191 169 184
-0.20712297 -0.51444769 -0.76704675 190 169 184
-0.20728876 -0.51425487 -0.767169 189 169 184
-0.20774376 -0.51588386 -0.76701659 190 172 188
-0.2088829 -0.5159291 -0.76754677 189 174 190
-0.20881292 -0.51469475 -0.76779258 188 172 187
-0.21463312 -0.5200938 -0.76967263 173 157 176
-0.21465822 -0.52030694 -0.76964545 175 158 177
-0.21444774 -0.52041686 -0.76950383 176 159 178
-0.21402349 -0.52048516 -0.7692486 177 159 179
-0.21307631 -0.51939285 -0.76892483 173 153 176
-0.21292262 -0.52094942 -0.76852965 182 162 182
-0.20979197 -0.52140117 -0.76661998 194 177 195
-0.20948665 -0.52038151 -0.7667281 193 177 195
-0.20932674 -0.5206815 -0.76655048 194 177 196
-0.20932613 -0.52016169 -0.76669616 194 177 196
-0.21042618 -0.51913637 -0.76762629 189 172 190
-0.21144073 -0.52096075 -0.76770622 189 170 189
-0.21010076 -0.51979953 -0.76725006 191 174 192
-0.21092771 -0.51908302 -0.76789761 185 168 187
-0.21204184 -0.51988655 -0.7682966 182 163 183
-0.21040806 -0.5188061 -0.76769221 188 171 189
-0.21100208 -0.51942313 -0.76786762 187 169 188
-0.21185739 -0.51775855 -0.76862484 171 152 176
-0.21227413 -0.51772535 -0.76884001 168 148 173
-0.20889002 -0.52035952 -0.76639551 195 179 197
-0.20820643 -0.51874733 -0.76651996 192 174 192
-0.20846766 -0.52024561 -0.7662245 195 177 195
-0.20854858 -0.51935327 -0.76651406 193 176 194
-0.20832261 -0.51832104 -0.76669556 192 174 192
-0.21494694 -0.52159601 -0.7695567 181 164 181
-0.2147526 -0.52201593 -0.76936865 180 159 181
-0.21391457 -0.52185088 -0.76892161 182 161 182
-0.21020424 -0.52187926 -0.7667588 194 174 195
-0.20984215 -0.52206808 -0.76650983 195 175 197
-0.21018299 -0.52235031 -0.76665276 195 173 197
-0.21002974 -0.52155083 -0.76672226 194 176 195
-0.21158263 -0.52167559 -0.76760405 190 170 190
-0.17323197 -0.52902102 -0.74641782 160 141 153
-0.17456718 -0.53102797 -0.74644136 162 143 157
-0.17580345 -0.53299522 -0.74625999 156 135 155
-0.17544971 -0.53228778 -0.74638444 157 137 155
-0.17411651 -0.53090757 -0.74620807 166 148 160
-0.17283133 -0.53224641 -0.74448842 176 157 167
-0.17225641 -0.53213876 -0.74411821 176 158 166
-0.17131914 -0.53256398 -0.74331021 178 164 167
-0.17158812 -0.53207958 -0.74366546 176 160 165
-0.17225109 -0.5329482 -0.74383885 178 164 169
-0.17316902 -0.53107584 -0.74535453 170 152 162
-0.17294894 -0.53142625 -0.74499071 172 153 163
-0.17380704 -0.53104961 -0.7459293 169 152 162
-0.17706279 -0.53487164 -0.74640262 135 100 136
-0.17652632 -0.53502107 -0.74600148 140 105 140
-0.17615215 -0.53453946 -0.74592328 146 116 145
-0.17552689 -0.534531 -0.74551904 153 124 150
-0.17719464 -0.53637445 -0.74597406 126 83 126
-0.17408828 -0.53374505 -0.74485117 171 153 166
-0.17609505 -0.53572506 -0.74548 140 106 139
-0.17811936 -0.53750455 -0.74618381 119 74 119
-0.18029658 -0.54096007 -0.74645984 144 117 129
-0.17984535 -0.54059005 -0.74631494 141 111 128
-0.17867219 -0.53986239 -0.74587965 134 97 126
-0.17792237 -0.53819376 -0.74590212 123 79 121
-0.17677319 -0.53765255 -0.74531025 128 91 130
-0.17671721 -0.53734076 -0.74535155 127 89 130
-0.1775216 -0.53793257 -0.74572945 123 79 122
-0.17667225 -0.53732175 -0.74532688 127 90 131
-0.17872335 -0.54109633 -0.74560666 141 108 130
-0.17910536 -0.54112858 -0.74580288 142 111 130
-0.18039548 -0.54123837 -0.74646538 146 119 131
-0.17816705 -0.54216725 -0.74512553 148 115 138
-0.19390437 -0.5157752 -0.7614994 142 124 136
-0.19381014 -0.51413959 -0.76203972 157 142 142
-0.19395176 -0.51629341 -0.7613343 137 118 134
-0.19513936 -0.51746464 -0.76133871 124 104 130
-0.19480482 -0.51664996 -0.76150739 132 113 133
-0.19473398 -0.51517218 -0.76200056 146 129 138
-0.19289982 -0.51716572 -0.76071376 129 108 131
-0.19033381 -0.51625448 -0.76042336 147 126 143
-0.19123863 -0.51679307 -0.76044846 141 121 140
-0.18985401 -0.51550174 -0.76057649 150 127 144
-0.19056612 -0.5154615 -0.76076144 145 120 139
-0.19181283 -0.51396906 -0.76158005 155 134 141
-0.19263461 -0.51398396 -0.76176715 158 139 142
-0.19189738 -0.51512218 -0.76119572 145 122 137
-0.1913729 -0.51557446 -0.7609145 139 114 135
-0.19116654 -0.51528108 -0.76096898 141 116 136
-0.18911186 -0.51751637 -0.75968176 156 142 153
-0.18727817 -0.51740474 -0.75925827 169 152 158
-0.18805256 -0.51751792 -0.75940549 164 148 156
-0.18772119 -0.51675373 -0.75968534 161 145 153
-0.18809257 -0.51613295 -0.76006895 155 138 148
-0.18892063 -0.51637757 -0.76009542 154 137 149
-0.18851803 -0.51578325 -0.76025182 154 135 147
-0.18918103 -0.51608962 -0.7602337 153 134 148
-0.18855852 -0.51649714 -0.76000315 154 138 149
-0.19780698 -0.51811182 -0.7620942 126 104 132
-0.20011756 -0.52138752 -0.76200223 159 135 144
-0.19728807 -0.52134496 -0.76079303 140 121 138
-0.19829065 -0.52137685 -0.76121587 147 126 140
-0.19834968 -0.51939982 -0.76190186 136 115 136
-0.19802909 -0.52130926 -0.76112533 145 124 140
-0.19432807 -0.51939154 -0.76040578 132 110 130
-0.19499056 -0.52062678 -0.7602219 136 114 131
-0.19609855 -0.52134883 -0.76036954 139 118 134
-0.19516823 -0.52134401 -0.76004189 137 115 131
-0.19372362 -0.51961857 -0.76011485 132 109 128
-0.19450358 -0.52051079 -0.76008874 135 112 129
-0.19704834 -0.51935059 -0.76137376 129 109 134
-0.19399637 -0.51771307 -0.76085454 126 105 130
-0.19428493 -0.518103 -0.7608251 128 107 131
-0.19533867 -0.5189898 -0.76089692 131 110 133
-0.19662903 -0.52044094 -0.76086295 136 116 136
-0.19509225 -0.51854092 -0.76096088 129 108 132
-0.18946277 -0.51864076 -0.75928509 150 132 152
-0.18977545 -0.51906168 -0.75920886 149 130 149
-0.19114746 -0.51967722 -0.75939876 145 124 140
-0.1911041 -0.51936948 -0.75951695 145 126 140
-0.19021767 -0.52083313 -0.75859243 143 117 145
-0.18987651 -0.52034998 -0.75868738 145 121 147
-0.19014792 -0.51973683 -0.75904155 146 125 146
-0.19168212 -0.51932037 -0.75968504 142 122 137
-0.19052587 -0.51836872 -0.75973028 148 132 145
-0.1932158 -0.51782167 -0.76056015 128 107 130
-0.19121125 -0.51795781 -0.76003367 142 125 142
-0.19048634 -0.5178045 -0.75991189 147 131 146
-0.19128191 -0.51782024 -0.76009721 141 124 141
-0.18850164 -0.52021742 -0.75835294 152 126 153
-0.18708657 -0.51785731 -0.75900477 171 152 159
-0.18943831 -0.51952159 -0.7588973 147 126 151
-0.18920653 -0.51924717 -0.75895554 150 129 152
-0.1989435 -0.52172738 -0.7613892 153 131 143
-0.19922704 -0.52295536 -0.76114649 159 139 150
-0.19902448 -0.52259463 -0.76116616 156 136 148
-0.19976749 -0.52246809 -0.76152414 161 138 148
-0.19792086 -0.52444422 -0.76008821 154 133 148
-0.19936679 -0.52376705 -0.76096183 163 143 155
-0.19829477 -0.52466649 -0.76018715 157 136 150
-0.19743957 -0.52414662 -0.75996464 149 128 144
-0.19820146 -0.52265286 -0.76078844 151 131 146
-0.19854192 -0.52337247 -0.7607131 155 135 149
-0.19337238 -0.52283686 -0.75892746 145 121 135
-0.1943828 -0.52340609 -0.7591033 146 123 137
-0.19447222 -0.52343553 -0.75912547 146 122 137
-0.19457835 -0.5248825 -0.75870252 155 135 149
-0.1941994 -0.52505893 -0.75851285 158 138 151
-0.19427629 -0.52360547 -0.75900239 147 125 139
-0.19507538 -0.52414209 -0.75911331 149 126 141
-0.19709469 -0.52331954 -0.76008952 145 125 141
-0.19528632 -0.52289706 -0.75958449 142 118 133
-0.19631378 -0.52249873 -0.76007557 142 121 137
-0.19619206 -0.52315581 -0.75982237 144 122 137
-0.19687693 -0.5225414 -0.76026124 143 122 139
-0.19685483 -0.52186352 -0.76047009 141 121 138
-0.19311199 -0.52454203 -0.75829679 157 137 151
-0.19205458 -0.52186584 -0.75879955 140 114 135
-0.19104148 -0.52243131 -0.75828314 146 120 147
-0.19304563 -0.52442259 -0.75831288 156 136 150
-0.1923774 -0.52347362 -0.75839394 151 128 147
-0.1972803 -0.52825809 -0.75853491 164 149 163
-0.19738708 -0.52579701 -0.7594136 154 134 149
-0.19728263 -0.52655298 -0.75910741 157 138 153
-0.19752893 -0.52920371 -0.75834507 170 159 171
-0.19802326 -0.52901018 -0.75866121 175 164 174
-0.19852379 -0.52582616 -0.75993735 164 144 157
-0.19925186 -0.52551824 -0.7603547 167 147 158
-0.19765478 -0.52554142 -0.7596224 155 134 149
-0.20040272 -0.52583975 -0.76078743 178 160 168
-0.1963118 -0.527969 -0.75828791 165 150 164
-0.1956092 -0.52679873 -0.75843245 162 145 158
-0.19542885 -0.52707672 -0.75827569 164 147 161
-0.1968662 -0.52592301 -0.7591688 155 135 150
-0.19705261 -0.52566844 -0.75931978 153 132 148
-0.19633055 -0.52785575 -0.75833249 164 150 163
-0.17518948 -0.5252474 -0.74962157 152 134 144
-0.17520191 -0.52507788 -0.74972588 153 134 146
-0.17804649 -0.52747214 -0.75035846 156 145 150
-0.17832775 -0.52819061 -0.75014359 155 143 149
-0.17782894 -0.52819163 -0.74990767 155 143 148
-0.17639086 -0.52583265 -0.75011802 155 141 148
-0.17493372 -0.52571559 -0.7492153 151 133 142
-0.1749526 -0.52624804 -0.74897039 149 132 140
-0.17765369 -0.52740371 -0.75019109 156 145 149
-0.17657742 -0.52794027 -0.74922228 151 137 143
-0.17763346 -0.52918458 -0.74931616 151 139 144
-0.17449716 -0.52758181 -0.74804395 154 136 146
-0.17562123 -0.52748889 -0.74881446 151 134 142
-0.17498884 -0.52814674 -0.74809551 155 138 147
-0.17415603 -0.52726066 -0.74797481 154 135 145
-0.17401223 -0.52778429 -0.74763507 156 138 148
-0.17485149 -0.52843994 -0.7478686 156 139 149
-0.17542523 -0.52838981 -0.74826312 155 139 147
-0.1735864 -0.52818394 -0.74712098 158 139 150
-0.17369153 -0.52576977 -0.7483446 148 128 139
-0.18220098 -0.53250229 -0.75021112 142 125 141
-0.18022823 -0.5302856 -0.75012732 149 135 147
-0.17922959 -0.52988607 -0.74980873 150 137 146
-0.17847191 -0.52993613 -0.74943006 150 136 144
-0.18047987 -0.5313279 -0.74984318 145 130 143
-0.1801527 -0.53081751 -0.74988639 147 133 144
-0.17885028 -0.53096884 -0.74915105 147 131 142
-0.17780341 -0.53258091 -0.74775386 142 119 144
-0.17867079 -0.53276557 -0.74816418 141 119 143
-0.17890581 -0.53055036 -0.74938887 148 133 142
-0.17790121 -0.53274798 -0.74772823 142 118 144
-0.1784956 -0.53295767 -0.74796855 141 117 143
-0.17962627 -0.53250694 -0.74884325 142 122 141
-0.1745947 -0.53087103 -0.74653411 161 142 156
-0.17614911 -0.5325036 -0.74672627 151 129 151
-0.17735814 -0.53283578 -0.74734551 143 117 146
-0.175585 -0.53052086 -0.74733722 154 134 151
-0.17564844 -0.53102154 -0.74713212 153 131 150
-0.17529538 -0.52953082 -0.74763662 158 141 151
-0.17760623 -0.52984786 -0.74897462 150 136 145
-0.17559412 -0.53016019 -0.74752039 155 137 151
-0.17597434 -0.53016597 -0.74776334 154 136 149
-0.17724277 -0.53019536 -0.74856883 150 134 146
-0.18356495 -0.5346781 -0.75008816 136 115 134
-0.18209466 -0.53358048 -0.74975449 138 119 136
-0.18522878 -0.53658313 -0.75024289 131 107 130
-0.18194042 -0.53484553 -0.74927896 131 111 127
-0.18392371 -0.53599364 -0.7498284 131 108 128
-0.18282859 -0.53679442 -0.74906689 123 101 117
-0.18347465 -0.53557885 -0.74975342 132 110 129
-0.18201222 -0.53432447 -0.7494784 134 115 131
-0.18245433 -0.53654534 -0.74897355 123 102 117
-0.17801081 -0.53552949 -0.74677265 126 88 129
-0.17809927 -0.53365046 -0.74747384 138 112 141
-0.17814325 -0.53395557 -0.74739462 136 109 139
-0.18037371 -0.53611094 -0.74799711 123 100 119
-0.1800511 -0.53672481 -0.74758887 119 90 116
-0.17947245 -0.53639156 -0.74735415 121 90 120
-0.17885324 -0.53687245 -0.74681258 118 79 119
-0.18163684 -0.53624296 -0.7486921 122 103 115
-0.17912792 -0.53392279 -0.74798346 136 112 137
-0.18148756 -0.5357163 -0.74877399 125 105 119
-0.1808608 -0.53480959 -0.74870139 131 110 127
-0.18103525 -0.53370267 -0.74915558 137 117 134
-0.17879701 -0.53359455 -0.74789703 138 114 140
-0.17765556 -0.53449219 -0.74691665 133 99 136
-0.18690009 -0.53957605 -0.7503677 149 130 141
-0.18651283 -0.54012871 -0.75004458 149 131 140
-0.1861648 -0.53997886 -0.7498979 146 127 138
-0.18573479 -0.5405969 -0.74953634 146 128 137
-0.18742438 -0.54097837 -0.7503261 159 143 148
-0.18284748 -0.53900576 -0.74848539 132 113 121
-0.1819485 -0.53917468 -0.74793297 134 114 121
-0.18221931 -0.53834826 -0.74834555 127 108 117
-0.1826167 -0.53914791 -0.74831223 133 114 122
-0.18233246 -0.5398193 -0.74794143 139 120 125
-0.18352817 -0.53916776 -0.74881154 133 114 123
-0.18494625 -0.53963226 -0.74937814 139 120 131
-0.18548833 -0.53895462 -0.7497806 137 116 132
-0.18487544 -0.53766555 -0.74978691 130 107 126
-0.18225786 -0.5373373 -0.74865162 120 100 113
-0.1851709 -0.53963411 -0.7494815 139 120 132
-0.18480326 -0.53711635 -0.74987692 127 103 125
-0.18130887 -0.53862822 -0.74775463 129 107 117
-0.18151879 -0.54099256 -0.74711877 148 128 129
-0.18054886 -0.53867573 -0.74729007 128 101 119
-0.18036114 -0.53973955 -0.74685949 136 108 124
-0.18079127 -0.53860092 -0.74745911 128 102 118
-0.18073821 -0.53965551 -0.74711281 135 110 123
-0.17988241 -0.5395112 -0.74663776 134 102 125
-0.18175437 -0.54203951 -0.74708188 155 136 138
-0.18241972 -0.54219407 -0.74740475 156 137 140
-0.18292272 -0.5416013 -0.74778032 152 133 137
-0.18508612 -0.54152107 -0.74899542 150 133 140
-0.18321444 -0.54138589 -0.7479822 150 132 135
-0.18305025 -0.54144573 -0.74787992 151 132 136
-0.18390372 -0.54132259 -0.74837637 149 132 136
-0.18058456 -0.54139757 -0.74654371 148 122 133
-0.20190877 -0.51289779 -0.76530099 171 152 161
-0.20163032 -0.51195735 -0.76549268 169 152 160
-0.20227304 -0.51124614 -0.76595402 173 156 164
-0.20239668 -0.51185155 -0.76581001 174 156 164
-0.20222527 -0.5126819 -0.765486 173 154 163
-0.20073946 -0.51333392 -0.76473397 164 146 154
-0.20072569 -0.51159024 -0.76527572 163 148 155
-0.20093401 -0.51085043 -0.76558346 164 150 156
-0.20009305 -0.50991076 -0.76557261 159 145 152
-0.20094389 -0.51209342 -0.76519722 165 149 155
-0.19357353 -0.51199853 -0.76280457 145 122 127
-0.19408198 -0.51343095 -0.76239145 159 142 142
-0.19295724 -0.51270062 -0.76234806 153 134 135
-0.19293457 -0.51262665 -0.76237309 152 133 134
-0.20574428 -0.51606411 -0.76601022 191 164 181
-0.20540754 -0.51731646 -0.76555836 192 164 181
-0.20264049 -0.5140304 -0.76524836 176 154 165
-0.20375337 -0.51452971 -0.76554716 183 158 171
-0.20411913 -0.51527935 -0.76551056 186 160 174
-0.20435452 -0.51547468 -0.76555318 187 161 175
-0.20343792 -0.51560479 -0.76518244 181 158 170
-0.20237356 -0.51733857 -0.76424575 157 128 150
-0.2027656 -0.51645792 -0.76466751 169 143 159
-0.20242546 -0.51702332 -0.76435882 160 132 152
-0.20422973 -0.51684141 -0.76518571 186 160 174
-0.203474 -0.51635301 -0.76500183 179 154 168
-0.20126945 -0.51391077 -0.76475811 166 147 155
-0.20112242 -0.51552796 -0.76423299 153 129 145
-0.20088872 -0.51493537 -0.76431882 156 134 148
-0.20070328 -0.51640862 -0.76382774 145 118 140
-0.1943091 -0.51430798 -0.76215351 155 139 142
-0.1947912 -0.51384091 -0.76247543 158 142 146
-0.1955384 -0.51549721 -0.76216489 141 124 138
-0.19446905 -0.51394254 -0.7623319 158 142 144
-0.19478261 -0.51477408 -0.76215518 150 133 140
-0.20617184 -0.51802754 -0.76574183 192 166 184
-0.20669307 -0.51899588 -0.76571983 194 170 187
-0.20716819 -0.51943392 -0.76582623 194 172 190
-0.20721632 -0.52095068 -0.76543063 198 183 196
-0.20726827 -0.52080035 -0.76549637 197 182 196
-0.20658718 -0.51982075 -0.765441 196 177 191
-0.20211269 -0.51910788 -0.76362199 158 134 152
-0.20252629 -0.51788247 -0.76415926 158 130 152
-0.20168735 -0.51770949 -0.76384634 146 116 141
-0.20080625 -0.51981854 -0.76279455 152 125 140
-0.19933465 -0.51959801 -0.76225305 143 120 138
-0.20012081 -0.52022594 -0.76237881 151 127 141
-0.20029671 -0.51915246 -0.76279473 145 118 138
-0.20042956 -0.51840514 -0.76308864 141 113 136
-0.19972105 -0.51856089 -0.76274478 138 112 136
-0.20066352 -0.51963562 -0.76279265 150 123 140
0 0 0 1 0 0 0 1 0 0 0 1 0 0 0 0 0 620 1 0 0
