ply
format ascii 1.0
comment PCL generated
element vertex 1008
property float x
property float y
property float z
property uchar red
property uchar green
property uchar blue
element camera 0
property float view_px
property float view_py
property float view_pz
property float x_axisx
property float x_axisy
property float x_axisz
property float y_axisx
property float y_axisy
property float y_axisz
property float z_axisx
property float z_axisy
property float z_axisz
property float focal
property float scalex
property float scaley
property float centerx
property float centery
property int viewportx
property int viewporty
property float k1
property float k2
end_header
-0.25328177 -0.12289956 -0.90270984 121 105 118
-0.25254399 -0.12066091 -0.90248436 109 96 117
-0.25361493 -0.12301014 -0.90271837 121 105 119
-0.25299534 -0.12222558 -0.90264255 118 102 118
-0.25324577 -0.11941393 -0.90240252 102 92 116
-0.25249341 -0.11962596 -0.90238041 103 92 116
-0.2558358 -0.12187079 -0.90264106 113 99 120
-0.25526118 -0.12078397 -0.90256053 109 96 119
-0.25268331 -0.11946002 -0.90238023 102 92 116
-0.25185704 -0.12289819 -0.90271372 125 107 117
-0.24989402 -0.12191176 -0.90244484 127 108 125
-0.25100404 -0.12293477 -0.90264511 129 109 120
-0.24867927 -0.12260292 -0.90241349 136 114 131
-0.25140935 -0.12149677 -0.90253031 118 102 118
-0.25027713 -0.12179507 -0.90246522 124 106 123
-0.24955732 -0.11965682 -0.90216464 108 96 118
-0.24815796 -0.12040919 -0.90211797 116 101 121
-0.25100303 -0.11919874 -0.90224904 102 92 116
-0.24994153 -0.11945149 -0.90217763 106 94 117
-0.2500633 -0.1205939 -0.90231836 116 101 122
-0.24894314 -0.12003134 -0.90214914 112 98 120
-0.24512528 -0.12050769 -0.9021244 127 109 126
-0.24448979 -0.12053365 -0.90210903 130 112 129
-0.24515232 -0.12178297 -0.90222639 140 119 135
-0.24658765 -0.12244301 -0.90231806 141 118 135
-0.24425191 -0.11954219 -0.90202385 121 105 122
-0.24709859 -0.12081833 -0.90215987 124 106 124
-0.24794419 -0.1212338 -0.90220147 125 107 125
-0.24794045 -0.12141349 -0.9022218 126 108 126
-0.24640864 -0.12042923 -0.90212029 122 105 123
-0.2465056 -0.1207549 -0.90215647 125 107 125
-0.24759129 -0.11981291 -0.90204298 112 99 119
-0.24131273 -0.12278941 -0.90231079 155 134 145
-0.24094824 -0.12028449 -0.90247434 151 138 147
-0.24148716 -0.12198656 -0.90236378 154 135 146
-0.24170952 -0.12222095 -0.90234876 154 135 146
-0.24282713 -0.12174845 -0.90238178 154 135 148
-0.24172792 -0.12297347 -0.90229952 155 134 145
-0.24293394 -0.12158609 -0.90235579 152 133 146
-0.24315585 -0.11959682 -0.90216607 130 116 130
-0.2428043 -0.12169167 -0.90238267 154 135 148
-0.24360678 -0.12246441 -0.90232915 155 133 148
-0.2433268 -0.12185297 -0.90232074 151 131 145
-0.23927838 -0.12276629 -0.9025051 138 117 121
-0.23850243 -0.12224174 -0.90270334 123 103 103
-0.23929438 -0.12055591 -0.90269029 129 116 119
-0.23988736 -0.11969911 -0.90262842 138 128 133
-0.28346816 -0.12583478 -0.90119475 123 113 137
-0.28364575 -0.12548505 -0.90077448 126 117 141
-0.28339288 -0.12454125 -0.90207744 130 120 144
-0.28338653 -0.12446032 -0.90213811 131 120 144
-0.28393191 -0.12424284 -0.90027565 140 129 156
-0.28376219 -0.12340995 -0.90126693 143 132 158
-0.28381786 -0.12477673 -0.90048468 133 124 148
-0.28385419 -0.12376281 -0.9007709 142 131 158
-0.28417915 -0.1238832 -0.89948934 147 136 165
-0.28306022 -0.12392039 -0.90262938 134 123 147
-0.28125614 -0.12679985 -0.90184516 110 101 125
-0.28139517 -0.12627023 -0.90201509 113 105 129
-0.28231889 -0.12630446 -0.90187973 116 106 131
-0.28285879 -0.12485108 -0.90232497 127 117 141
-0.28170365 -0.12408285 -0.90261912 129 117 142
-0.2796348 -0.12500393 -0.90242004 116 105 132
-0.28018788 -0.12341765 -0.90272319 128 114 141
-0.27943498 -0.12540016 -0.90234345 113 102 129
-0.27929986 -0.12354591 -0.90268761 125 109 138
-0.27822417 -0.12394651 -0.90229291 118 105 131
-0.27840623 -0.1236352 -0.90240526 121 106 133
-0.27772519 -0.12397594 -0.90213865 116 103 128
-0.27739471 -0.12503283 -0.90184295 107 98 121
-0.27928841 -0.12512144 -0.90239108 114 103 130
-0.2770533 -0.12387536 -0.90195709 114 101 125
-0.27600041 -0.12609561 -0.90145415 107 96 121
-0.27682257 -0.12558793 -0.90167129 107 97 121
-0.27621496 -0.12431726 -0.90166593 110 98 121
-0.27605379 -0.12473985 -0.90159291 109 98 121
-0.27847558 -0.12654576 -0.90192127 104 96 121
-0.27243847 -0.12507406 -0.90140539 106 96 122
-0.27195603 -0.12527888 -0.90142655 107 97 122
-0.27331761 -0.12507941 -0.90136349 106 95 121
-0.27394995 -0.12686677 -0.90131736 107 97 123
-0.27239308 -0.12540907 -0.90140456 107 97 122
-0.2738651 -0.12328985 -0.90153569 109 97 121
-0.27393353 -0.12461162 -0.90141374 107 96 121
-0.27297086 -0.12306716 -0.90152305 108 96 120
-0.27311444 -0.12321904 -0.90151417 108 96 120
-0.2750065 -0.12648968 -0.90127718 106 95 121
-0.2718125 -0.12317933 -0.90146887 106 95 120
-0.27120861 -0.12682149 -0.90147114 109 100 126
-0.27103305 -0.12692586 -0.90149361 110 100 126
-0.26861319 -0.12537539 -0.90182263 112 100 125
-0.26896909 -0.12658229 -0.90176797 115 103 128
-0.268235 -0.12414078 -0.90188038 110 98 122
-0.26870355 -0.12456736 -0.90181589 110 98 123
-0.27120563 -0.12374138 -0.90149879 106 96 121
-0.27113941 -0.12551008 -0.90149146 108 98 123
-0.2703793 -0.12446804 -0.90159905 107 97 122
-0.27089977 -0.12633188 -0.90151513 108 99 125
-0.27134213 -0.12315942 -0.90148634 106 95 120
-0.2651082 -0.12482529 -0.90212548 117 105 127
-0.26427263 -0.12621586 -0.90212303 130 114 138
-0.26466885 -0.12443714 -0.90215707 116 104 126
-0.26630142 -0.12570192 -0.90204465 117 104 128
-0.26438564 -0.12656592 -0.90210748 132 115 140
-0.26595119 -0.12556863 -0.90206474 118 105 128
-0.26613462 -0.12345964 -0.90207112 111 99 122
-0.26624948 -0.1241833 -0.90205854 113 101 124
-0.26553553 -0.12335931 -0.9021132 111 100 122
-0.26626921 -0.12406054 -0.90205795 112 101 123
-0.26379111 -0.12309393 -0.90223545 111 101 122
-0.26493043 -0.12349307 -0.90215415 111 101 122
-0.2601954 -0.12692265 -0.90259171 156 137 153
-0.26013175 -0.12580416 -0.90259469 144 128 144
-0.26091939 -0.12442372 -0.90248311 124 112 130
-0.26031086 -0.12477211 -0.90256584 131 118 135
-0.26019779 -0.12633304 -0.90258849 149 132 148
-0.26285106 -0.12580292 -0.90224397 131 115 138
-0.26098379 -0.12395564 -0.90248293 120 108 127
-0.26188958 -0.12382463 -0.90239722 118 107 126
-0.26335779 -0.12563448 -0.90219885 129 114 137
-0.26146847 -0.12325099 -0.90245575 114 105 123
-0.2576746 -0.12692444 -0.90272218 164 144 159
-0.2577225 -0.12577409 -0.90269482 149 130 146
-0.25669822 -0.12397394 -0.90269244 128 111 130
-0.25678483 -0.12446225 -0.90269959 134 117 134
-0.25894117 -0.12465914 -0.90265304 133 119 135
-0.25913846 -0.12536076 -0.9026528 141 125 141
-0.25644809 -0.12344494 -0.90269303 122 106 125
-0.25931096 -0.12332891 -0.90263975 118 108 124
-0.25953379 -0.1244081 -0.90264088 130 117 133
-0.2545355 -0.1236184 -0.90272588 128 111 126
-0.25553393 -0.1233725 -0.90271169 123 107 124
-0.24965066 -0.12341288 -0.90258545 140 119 131
-0.24944241 -0.12367661 -0.9025991 145 124 135
-0.24875933 -0.12355893 -0.90252715 146 124 137
-0.24639212 -0.12515184 -0.90258807 176 155 166
-0.24799751 -0.12537985 -0.90268087 176 156 162
-0.24730967 -0.12565844 -0.90268576 182 162 169
-0.24545163 -0.12580664 -0.90262741 188 167 178
-0.24452591 -0.12525252 -0.90254158 184 163 175
-0.24593225 -0.12347901 -0.90239352 155 132 147
-0.24482882 -0.12509926 -0.90253383 181 159 172
-0.24478546 -0.12464707 -0.90248501 175 153 166
-0.24566795 -0.12490983 -0.90253687 175 153 166
-0.2409285 -0.12574759 -0.9026767 187 170 174
-0.24147221 -0.12476108 -0.90249819 177 158 166
-0.2415653 -0.12581553 -0.90265685 189 172 177
-0.2418052 -0.12589954 -0.9026584 191 173 179
-0.24158609 -0.12417433 -0.90241307 170 150 159
-0.24349277 -0.12507643 -0.90251142 183 162 173
-0.24174306 -0.12407845 -0.90240324 169 149 158
-0.24253623 -0.12497013 -0.90249848 181 161 171
-0.24314138 -0.12554371 -0.90255994 189 169 179
-0.23939183 -0.1268958 -0.90268821 178 162 156
-0.23808205 -0.1263859 -0.9024412 148 130 119
-0.23926058 -0.12682956 -0.90266955 175 158 152
-0.23777951 -0.12597673 -0.90250242 138 119 107
-0.23994514 -0.12321455 -0.9023751 152 131 139
-0.24022859 -0.12404004 -0.90244669 166 147 154
-0.23350029 -0.12681229 -0.90043014 105 80 56
-0.2361441 -0.12463735 -0.90246302 96 72 55
-0.23624457 -0.12543204 -0.90218413 105 83 66
-0.23616804 -0.12545104 -0.90214312 104 82 65
-0.2358095 -0.12550239 -0.90196633 103 80 63
-0.23398487 -0.12516251 -0.9016605 97 71 49
-0.2336681 -0.12575996 -0.90108782 98 71 48
-0.23436166 -0.12432941 -0.90245473 96 70 49
-0.23281114 -0.12608296 -0.90073317 100 73 48
-0.23265056 -0.12409546 -0.90255833 100 72 48
-0.28357786 -0.12859578 -0.90046912 110 101 125
-0.28327307 -0.13016281 -0.90166098 103 92 116
-0.28335541 -0.12998094 -0.90136635 104 94 117
-0.28337198 -0.12936258 -0.90124118 107 96 120
-0.28336805 -0.13065498 -0.90154207 102 90 114
-0.28393432 -0.12962899 -0.89994824 107 99 122
-0.28422576 -0.13064449 -0.89967287 103 95 119
-0.28422046 -0.1306434 -0.89968401 103 95 119
-0.28376904 -0.12947755 -0.90025425 107 99 122
-0.28076169 -0.12867783 -0.90199238 102 93 118
-0.28076705 -0.12937757 -0.90191227 102 93 118
-0.27989659 -0.12836102 -0.90194672 103 95 119
-0.28314641 -0.13085443 -0.90196818 101 89 113
-0.28004593 -0.12915148 -0.90186983 103 95 119
-0.28301519 -0.13074386 -0.90196848 101 89 113
-0.28223071 -0.1292007 -0.90191507 103 93 117
-0.28148505 -0.12747765 -0.90181953 107 98 123
-0.28185531 -0.12810345 -0.90184093 106 97 121
-0.2815614 -0.12886459 -0.90196627 103 93 117
-0.28070688 -0.12765951 -0.90194392 104 96 120
-0.28286839 -0.13038315 -0.90196383 101 90 114
-0.27745366 -0.12981622 -0.90145117 109 98 124
-0.27593577 -0.12817182 -0.90131098 108 98 124
-0.27620894 -0.13073501 -0.90138209 117 105 132
-0.27630296 -0.12892655 -0.90135211 110 99 125
-0.27776992 -0.13015236 -0.9014802 109 99 124
-0.27866128 -0.12887654 -0.90169954 104 96 121
-0.27875274 -0.13027222 -0.90155756 105 96 121
-0.27788192 -0.12829915 -0.90160561 105 96 121
-0.2784934 -0.1296732 -0.90157324 105 96 121
-0.27854282 -0.12913594 -0.9016453 105 96 121
-0.27851781 -0.12807305 -0.90176255 104 96 121
-0.27210468 -0.13076055 -0.90167648 142 133 146
-0.27287486 -0.13003378 -0.90153354 130 119 139
-0.27248031 -0.12929273 -0.90151614 125 115 136
-0.27159074 -0.13014829 -0.9016825 140 131 144
-0.27238983 -0.13005508 -0.90158802 133 123 141
-0.27469972 -0.12853754 -0.90131301 112 101 128
-0.27463087 -0.12854901 -0.90131646 112 101 128
-0.27415031 -0.12733763 -0.90131485 108 98 124
-0.27232018 -0.12745832 -0.90140444 110 100 126
-0.274813 -0.12945035 -0.90132606 116 104 131
-0.2753368 -0.12823711 -0.90127653 110 100 126
-0.26903597 -0.12964094 -0.90191734 146 132 148
-0.26770836 -0.12904595 -0.90200925 147 129 148
-0.2676748 -0.12801713 -0.90197706 134 117 139
-0.27023956 -0.13030005 -0.90183812 148 136 149
-0.2683574 -0.13055968 -0.90200597 162 145 158
-0.27085605 -0.12825662 -0.90162289 123 113 134
-0.27028322 -0.12820131 -0.90169394 125 114 134
-0.26830927 -0.12748826 -0.90189612 124 110 133
-0.26956943 -0.12711839 -0.9016999 116 104 129
-0.26976195 -0.1275184 -0.90170705 119 108 131
-0.27028081 -0.12955043 -0.90180409 138 127 142
-0.26462111 -0.12887152 -0.90219998 159 140 159
-0.26426521 -0.13063128 -0.90238404 183 165 177
-0.26560515 -0.13047566 -0.90224081 175 156 169
-0.26406816 -0.12876648 -0.90224469 160 142 160
-0.26536709 -0.1298099 -0.90220737 167 148 164
-0.26638564 -0.12723026 -0.90201342 130 113 137
-0.26551759 -0.12870058 -0.90210348 152 133 153
-0.26586872 -0.1289441 -0.90209556 154 135 153
-0.26668686 -0.12723768 -0.90199977 128 112 136
-0.26675829 -0.12804715 -0.90202403 138 121 143
-0.26095685 -0.12926738 -0.90260005 179 162 175
-0.26204994 -0.12935586 -0.90253997 177 160 172
-0.26047391 -0.12824336 -0.90261924 170 152 166
-0.26032308 -0.12874262 -0.90263134 176 158 171
-0.25998619 -0.13076313 -0.90266508 198 181 193
-0.26044622 -0.12744473 -0.90260023 161 143 158
-0.2610932 -0.12706655 -0.90248191 153 134 152
-0.26173735 -0.12731044 -0.90241694 153 134 153
-0.26362166 -0.1293693 -0.90234107 170 152 168
-0.26176605 -0.12719023 -0.90240288 151 132 152
-0.2592909 -0.13059747 -0.90271789 199 181 193
-0.25904474 -0.12807441 -0.90268278 172 153 167
-0.25965887 -0.12830441 -0.90266275 173 155 169
-0.25880933 -0.12813734 -0.9026916 174 155 169
-0.2367602 -0.12839206 -0.9026373 145 128 122
-0.23780803 -0.12745115 -0.90242219 155 137 129
-0.23521911 -0.13060689 -0.90154952 160 144 151
-0.23527764 -0.13030756 -0.9015075 154 137 141
-0.23585087 -0.1293976 -0.902134 145 128 126
-0.23314619 -0.1288195 -0.8994928 116 92 76
-0.23437145 -0.12916447 -0.90052295 128 106 96
-0.23433624 -0.12843524 -0.9009347 124 102 89
-0.23396192 -0.12776533 -0.90096641 117 94 77
-0.23577872 -0.12918864 -0.90193444 139 121 116
-0.2326258 -0.1274849 -0.89978421 105 79 56
-0.23353226 -0.12822594 -0.90024829 116 92 75
-0.23453268 -0.12762551 -0.90123546 119 97 81
-0.23600639 -0.12715009 -0.90158427 122 102 87
-0.23469126 -0.12705404 -0.90095317 114 92 72
-0.23318446 -0.1292972 -0.89924771 119 95 81
-0.23307329 -0.12996006 -0.89888573 116 92 79
-0.28392741 -0.13276255 -0.90040916 102 94 118
-0.28342828 -0.13093582 -0.90148354 101 90 114
-0.28363743 -0.13087356 -0.90102828 101 91 115
-0.28322944 -0.1325343 -0.9019258 101 90 114
-0.28326932 -0.13382839 -0.90184706 101 92 115
-0.28410771 -0.13349773 -0.90048021 99 91 114
-0.28432745 -0.13333975 -0.90017116 98 90 113
-0.28486744 -0.13174279 -0.89893317 99 92 115
-0.2844004 -0.13355845 -0.90017599 97 89 111
-0.27952701 -0.13193738 -0.90168762 110 100 124
-0.28220275 -0.13417883 -0.90192622 104 95 119
-0.27933949 -0.13401127 -0.90183479 124 108 133
-0.28033486 -0.13315661 -0.9017995 112 100 125
-0.28029379 -0.13289161 -0.90177888 110 99 124
-0.28213155 -0.13143283 -0.90187478 102 91 115
-0.28115633 -0.13107973 -0.90178001 103 93 117
-0.28278834 -0.13206898 -0.90194106 101 91 114
-0.28059006 -0.13122946 -0.90172714 104 94 119
-0.28234094 -0.13220805 -0.9018994 102 92 116
-0.27621964 -0.1329411 -0.90164542 133 118 143
-0.278577 -0.13455489 -0.90186632 131 115 139
-0.27687737 -0.13406569 -0.90181428 138 122 146
-0.27662995 -0.13292912 -0.90163732 130 115 141
-0.27619022 -0.1317995 -0.90146446 123 109 137
-0.27801496 -0.13266917 -0.90164471 121 107 133
-0.27776936 -0.13210703 -0.90158612 119 106 132
-0.27890262 -0.13391839 -0.90179902 125 109 135
-0.2775659 -0.13295043 -0.90163374 124 109 136
-0.27905411 -0.13304299 -0.90174538 119 106 131
-0.27198923 -0.13201199 -0.9018178 153 142 155
-0.27217844 -0.13466458 -0.90198117 171 156 175
-0.27242583 -0.13328525 -0.90189195 160 147 163
-0.27406341 -0.13374385 -0.90190047 154 140 158
-0.27299201 -0.13469186 -0.90197283 166 151 171
-0.27336803 -0.13212496 -0.9017483 145 133 150
-0.27524292 -0.13433002 -0.90189475 151 135 156
-0.27367046 -0.13186714 -0.90167439 141 129 147
-0.27229542 -0.13109982 -0.90170199 144 134 147
-0.27506557 -0.13427427 -0.90190524 152 136 157
-0.27359027 -0.13150473 -0.90162551 138 127 145
-0.26809576 -0.13414933 -0.9022544 185 169 185
-0.26962134 -0.13461524 -0.90215051 182 166 184
-0.26760954 -0.13089645 -0.90208173 171 151 164
-0.26824522 -0.13299443 -0.90216464 179 161 176
-0.26803333 -0.13373849 -0.90223265 183 167 182
-0.27011135 -0.13127355 -0.90189385 159 145 157
-0.27036008 -0.13321628 -0.90199417 171 155 172
-0.26924619 -0.13224244 -0.90202749 171 153 168
-0.26984915 -0.1319754 -0.90195984 165 150 164
-0.27072996 -0.13319504 -0.90196162 169 154 170
-0.27078784 -0.13333769 -0.90196562 169 155 171
-0.2652652 -0.13300188 -0.90244478 190 174 188
-0.26494506 -0.13224539 -0.90242863 189 173 186
-0.26608869 -0.13365725 -0.90240949 191 174 189
-0.26415277 -0.13459435 -0.90264028 195 180 198
-0.26491621 -0.13329574 -0.90249389 192 176 190
-0.26704106 -0.13383622 -0.90233147 188 172 187
-0.26602393 -0.13245003 -0.90233827 186 169 182
-0.26504385 -0.13212946 -0.90241212 189 172 185
-0.26562959 -0.13233744 -0.90236908 187 170 183
-0.26665077 -0.13188455 -0.90223998 180 162 175
-0.2661466 -0.13294558 -0.90235925 188 171 185
-0.26329499 -0.13466406 -0.90270668 197 182 200
-0.2611576 -0.13238287 -0.90269065 199 182 197
-0.26253626 -0.13239004 -0.90261537 195 179 193
-0.26224002 -0.13130315 -0.90256703 193 177 189
-0.26250547 -0.13140374 -0.90255827 193 176 188
-0.26136312 -0.13189153 -0.90265083 197 181 194
-0.26249987 -0.13193113 -0.9025901 194 178 191
-0.23523046 -0.1316739 -0.90175474 169 154 165
-0.28360578 -0.13500762 -0.90170258 99 90 113
-0.28398356 -0.13574097 -0.90165192 97 89 110
-0.28360695 -0.13529891 -0.90182161 99 91 113
-0.28228024 -0.13809206 -0.90236479 104 93 117
-0.27954641 -0.13592283 -0.90206581 127 108 137
-0.28180403 -0.13856487 -0.90244538 109 94 122
-0.27970645 -0.13770241 -0.90234095 126 105 139
-0.28055689 -0.136674 -0.90216845 119 103 129
-0.2827591 -0.13555636 -0.90207481 103 94 117
-0.2815136 -0.13504674 -0.90198231 112 100 124
-0.28255108 -0.13717191 -0.90225309 103 93 116
-0.28319749 -0.1359227 -0.90212864 99 91 114
-0.28117394 -0.13560484 -0.90203649 114 102 125
-0.28301042 -0.13589616 -0.90212047 101 92 115
-0.27752414 -0.13729948 -0.90228468 141 120 151
-0.27764463 -0.13845938 -0.90239584 139 119 151
-0.27651307 -0.13824636 -0.90231979 146 129 155
-0.27718911 -0.13835065 -0.90236312 142 123 153
-0.27602017 -0.13750772 -0.90222806 149 133 157
-0.27686626 -0.13548325 -0.9020375 144 126 152
-0.27921474 -0.13704331 -0.90224534 130 108 142
-0.27815163 -0.13624156 -0.90213639 137 116 146
-0.2787841 -0.13503344 -0.90193844 132 114 140
-0.27876005 -0.13490896 -0.90191936 132 115 140
-0.27717969 -0.13565736 -0.90205997 143 124 150
-0.27441883 -0.13779967 -0.90223312 157 145 165
-0.27219808 -0.13565043 -0.90206444 171 157 176
-0.27165645 -0.13578685 -0.90207148 174 159 179
-0.27170262 -0.1372837 -0.90218091 174 159 179
-0.27405763 -0.13828096 -0.90226632 160 146 167
-0.27498761 -0.13866813 -0.90229958 154 142 162
-0.27424192 -0.13577308 -0.90205336 159 145 165
-0.27381492 -0.13520065 -0.90200675 162 147 167
-0.27412966 -0.13510752 -0.90199447 160 145 165
-0.27358976 -0.13575539 -0.90205979 163 149 168
-0.27402663 -0.13522422 -0.90200627 161 146 166
-0.26891521 -0.13684523 -0.90236682 185 169 187
-0.26972321 -0.13764811 -0.90235406 182 166 185
-0.26775348 -0.13661027 -0.90244257 189 173 189
-0.26987383 -0.13502473 -0.90215713 182 166 184
-0.27026397 -0.13507311 -0.90212619 180 165 183
-0.26941603 -0.13600872 -0.9022693 183 168 186
-0.26989558 -0.13594025 -0.90222204 182 166 184
-0.27094591 -0.13748364 -0.90224183 178 162 182
-0.26440477 -0.13615398 -0.90272182 195 181 198
-0.26430088 -0.13548896 -0.90268326 195 180 198
-0.26677033 -0.13699599 -0.90255326 191 174 191
-0.26622167 -0.1351407 -0.90248698 192 177 193
-0.26734602 -0.13737524 -0.90252501 190 173 190
-0.26681727 -0.13688764 -0.90254229 191 174 191
-0.26496831 -0.13505857 -0.9025951 194 179 196
-0.28301969 -0.14046754 -0.9025948 96 87 111
-0.27993309 -0.14194506 -0.90262145 117 103 132
-0.28267369 -0.13952634 -0.90249938 99 90 114
-0.28263131 -0.13976349 -0.90251869 100 90 114
-0.27961019 -0.14219536 -0.90263605 119 104 135
-0.28091264 -0.13987811 -0.90252364 113 98 128
-0.27981639 -0.14064057 -0.90257019 121 103 136
-0.2793566 -0.13869053 -0.90249789 130 104 144
-0.28013122 -0.14003481 -0.90254116 120 101 134
-0.27562377 -0.140451 -0.90241927 147 137 159
-0.27620173 -0.13982899 -0.90239704 145 132 155
-0.27629769 -0.1397346 -0.90239388 144 132 154
-0.27543575 -0.13976488 -0.90237123 150 139 160
-0.27772349 -0.13930055 -0.90244454 137 119 149
-0.27807197 -0.14003058 -0.90249151 134 116 146
-0.27823478 -0.14144699 -0.90255696 129 115 143
-0.27706233 -0.13919002 -0.90240681 141 125 152
-0.27857396 -0.14182292 -0.9025892 126 112 141
-0.27288705 -0.13993287 -0.902367 165 152 173
-0.27341023 -0.13985211 -0.90236479 162 149 170
-0.27415243 -0.13923986 -0.9023307 158 146 166
-0.27350807 -0.13871966 -0.90229481 163 149 170
-0.27071771 -0.13927051 -0.90240467 177 162 182
-0.19360776 -0.12223077 -0.79098392 59 51 65
-0.19417007 -0.12253448 -0.79100382 54 46 64
-0.19400056 -0.12244976 -0.79032993 55 48 65
-0.19482428 -0.12288319 -0.7915563 48 39 61
-0.19431981 -0.12260627 -0.79193473 53 44 62
-0.19420488 -0.12253731 -0.79262596 54 44 61
-0.19228618 -0.12301075 -0.79300201 80 61 80
-0.19153719 -0.12273873 -0.79035664 75 60 81
-0.19184944 -0.12257647 -0.78988934 72 58 79
-0.1928297 -0.12258185 -0.79135454 71 58 74
-0.19218513 -0.12278544 -0.79157084 75 60 79
-0.19323744 -0.12222276 -0.79056883 63 54 69
-0.19302098 -0.12241392 -0.79314882 69 55 69
-0.21046704 -0.12330527 -0.79315591 191 179 202
-0.20973107 -0.1234032 -0.79243666 188 176 200
-0.20839919 -0.12310702 -0.78987288 197 187 208
-0.20872501 -0.123904 -0.79244137 172 160 185
-0.20753963 -0.12366226 -0.79012048 178 166 189
-0.20750071 -0.12422357 -0.79160053 161 149 173
-0.20871653 -0.12397394 -0.7926206 170 158 183
-0.20889442 -0.12343961 -0.7914089 187 175 199
-0.20677111 -0.12499566 -0.79251581 137 134 149
-0.20518589 -0.12590124 -0.79256445 107 115 120
-0.2056766 -0.12592743 -0.79329306 106 117 120
-0.20601743 -0.12483772 -0.79111129 141 133 152
-0.20704618 -0.1243935 -0.79142779 156 143 167
-0.20511654 -0.12521875 -0.7908147 128 124 139
-0.2013173 -0.12612294 -0.79105997 57 51 75
-0.20267051 -0.12628581 -0.79118669 64 68 81
-0.20118016 -0.1262835 -0.78984439 46 42 65
-0.20332682 -0.12622166 -0.79222059 76 82 92
-0.20164035 -0.1261749 -0.79100144 58 55 76
-0.20442933 -0.12628596 -0.79278851 87 98 101
-0.20338939 -0.12617674 -0.79134458 76 81 92
-0.20318736 -0.1258873 -0.79043394 83 81 98
-0.20397942 -0.1262406 -0.79210818 82 91 97
-0.20489489 -0.12498167 -0.78999841 133 124 144
-0.20461895 -0.12531602 -0.7905249 119 115 131
-0.20387286 -0.12530009 -0.78971654 110 102 123
-0.19897415 -0.12469783 -0.79295087 54 45 76
-0.19979993 -0.12514977 -0.79284453 65 55 85
-0.19890676 -0.12486639 -0.79191333 66 56 85
-0.19753201 -0.12402368 -0.79255021 42 33 66
-0.19926086 -0.12506227 -0.79185718 71 61 89
-0.19772944 -0.12447011 -0.79080158 65 56 85
-0.19966143 -0.12527937 -0.79180574 75 65 93
-0.199433 -0.1253957 -0.79028177 64 57 82
-0.20008728 -0.12558804 -0.79107672 65 57 83
-0.20007147 -0.1254355 -0.79206222 74 64 91
-0.20060058 -0.12591694 -0.7904914 56 50 74
-0.19943357 -0.12543367 -0.79002565 62 55 80
-0.19603544 -0.1233331 -0.79272598 39 29 58
-0.19544427 -0.1231506 -0.79133886 43 35 60
-0.19586861 -0.1232779 -0.79297471 40 30 57
-0.19672525 -0.12378302 -0.7912395 47 39 69
-0.19665639 -0.12374232 -0.79121387 46 38 68
-0.19715047 -0.12437042 -0.7896865 71 62 90
-0.19009134 -0.12434943 -0.79073745 94 73 98
-0.19030666 -0.12434406 -0.79103225 93 72 97
-0.18985038 -0.12308612 -0.78966552 84 64 91
-0.19027552 -0.12359184 -0.79056877 87 67 92
-0.19117281 -0.12350662 -0.79183453 86 66 88
-0.19088167 -0.12479834 -0.79212618 96 75 97
-0.19128221 -0.12376391 -0.79213762 87 67 89
-0.18943372 -0.12524782 -0.7904191 103 87 109
-0.18939221 -0.12385017 -0.7896474 91 72 99
-0.1892042 -0.12418532 -0.78955686 94 76 101
-0.21322757 -0.12456279 -0.80307341 136 126 148
-0.21366367 -0.12468736 -0.80496007 137 128 149
-0.21381991 -0.12454829 -0.80405211 141 132 153
-0.21305273 -0.12446683 -0.80192029 136 125 149
-0.21347475 -0.12458774 -0.80374908 137 128 150
-0.214872 -0.12405532 -0.80183703 164 154 175
-0.21390715 -0.12427808 -0.8019011 148 138 161
-0.21521665 -0.12395274 -0.80162662 170 161 181
-0.21014154 -0.12537399 -0.80383682 123 112 130
-0.21138716 -0.12510636 -0.8047536 124 114 133
-0.20901205 -0.12557006 -0.8034358 121 110 126
-0.20950066 -0.12546103 -0.80383283 121 110 127
-0.20955715 -0.12549271 -0.80346972 122 112 128
-0.21163799 -0.12511235 -0.80330247 127 118 138
-0.21219921 -0.12487976 -0.80303591 129 120 141
-0.21213573 -0.12479667 -0.80212271 131 121 143
-0.21071789 -0.12520072 -0.80121338 130 121 139
-0.21149682 -0.12520021 -0.8036226 126 118 136
-0.21238489 -0.12461136 -0.80129701 134 123 147
-0.20667598 -0.12625201 -0.80194175 98 86 99
-0.20528723 -0.12580824 -0.80409515 55 39 60
-0.20719223 -0.12608454 -0.80193913 102 90 104
-0.20627582 -0.12584214 -0.80323905 75 61 80
-0.2051419 -0.12580919 -0.80420679 52 36 57
-0.20865194 -0.12578471 -0.80154437 118 109 124
-0.20621121 -0.12553522 -0.80425781 62 48 70
-0.20830867 -0.12566662 -0.80269247 109 98 115
-0.20595708 -0.12548313 -0.80478162 56 41 64
-0.20880654 -0.12554371 -0.80374378 117 105 122
-0.20505933 -0.12576497 -0.8043201 49 34 55
-0.20245372 -0.12492552 -0.80163151 43 33 48
-0.20447282 -0.12567215 -0.80347556 52 37 56
-0.20461617 -0.12532634 -0.80458254 37 22 46
-0.20499346 -0.1255478 -0.8047266 41 26 49
-0.2049543 -0.12550084 -0.80477029 40 24 48
-0.20383151 -0.12599571 -0.80151755 71 58 69
-0.20486583 -0.12652035 -0.80211425 80 66 77
-0.20171043 -0.12577315 -0.80439204 36 27 44
-0.20329258 -0.12526754 -0.80403686 35 22 43
-0.20156471 -0.12548433 -0.80379683 34 26 42
-0.20427965 -0.12561923 -0.80506456 38 23 46
-0.20144401 -0.1246144 -0.80212271 29 21 38
-0.20327286 -0.1252898 -0.80407125 35 23 43
-0.20185068 -0.12485746 -0.8027299 31 22 40
-0.19865628 -0.12679705 -0.80329949 46 38 50
-0.19772267 -0.1264119 -0.80212802 48 41 53
-0.20084779 -0.12631419 -0.80482233 40 32 46
-0.19992584 -0.12643605 -0.80404705 43 36 49
-0.19983438 -0.12602627 -0.80356944 42 34 48
-0.1980032 -0.12574303 -0.80153972 46 40 53
-0.19863246 -0.12543996 -0.80148751 42 36 49
-0.19776218 -0.12585856 -0.80155873 48 42 54
-0.19931675 -0.12544236 -0.80205226 40 33 47
-0.19926062 -0.12579741 -0.80267107 42 35 49
-0.1989174 -0.12576011 -0.8023203 43 36 50
-0.19729751 -0.1294177 -0.80489701 52 31 56
-0.1980328 -0.12733975 -0.80336022 48 37 51
-0.19851859 -0.12739317 -0.80380815 47 36 51
-0.19746125 -0.12710659 -0.80265856 48 39 52
-0.19739582 -0.1280099 -0.8035323 50 36 53
-0.19709413 -0.1289598 -0.80389917 54 35 58
-0.1970824 -0.12732509 -0.80236572 51 39 54
-0.19693662 -0.12796606 -0.80269009 53 39 57
-0.1956553 -0.1300166 -0.80154532 69 48 64
-0.19579747 -0.13021792 -0.80205572 68 46 65
-0.19664766 -0.12888421 -0.80298454 57 38 61
-0.19663969 -0.1281659 -0.80236423 55 39 59
-0.19680426 -0.13085668 -0.80501175 60 33 66
-0.19590196 -0.13076267 -0.80276293 68 44 66
-0.19662377 -0.13155021 -0.80451912 72 44 74
-0.19653995 -0.13180646 -0.80429703 77 49 77
-0.19561517 -0.13445969 -0.80187625 124 94 111
-0.19664243 -0.13182257 -0.80451256 77 50 78
-0.19572729 -0.13388473 -0.80221277 114 83 103
-0.19539259 -0.13260709 -0.80150867 98 70 87
-0.19615686 -0.13105176 -0.8034445 69 43 68
-0.19570689 -0.13096866 -0.80236751 72 47 68
-0.19614001 -0.13152125 -0.80337447 76 49 74
-0.19595735 -0.13107513 -0.8029632 71 45 69
-0.19568859 -0.13098474 -0.80232245 73 47 68
-0.19549239 -0.13583596 -0.80132163 136 95 121
-0.19538715 -0.13487995 -0.8013128 130 98 115
-0.21801537 -0.11138029 -0.82122797 186 180 203
-0.21901363 -0.11138308 -0.82106519 185 176 206
-0.22144285 -0.12157311 -0.82360053 96 84 109
-0.22158752 -0.12204508 -0.82315993 95 80 108
-0.22201449 -0.12152356 -0.82425082 106 97 118
-0.22363368 -0.1230194 -0.82404917 122 109 135
-0.22137569 -0.1220861 -0.82289064 92 75 105
-0.22269811 -0.12202204 -0.82433188 114 104 126
-0.22068399 -0.12262362 -0.82151085 77 53 91
-0.2171679 -0.11963337 -0.82078809 122 120 136
-0.22002612 -0.12195894 -0.82159692 84 65 96
-0.21902707 -0.11984536 -0.82287294 108 105 120
-0.21970747 -0.12004659 -0.8234877 101 98 113
-0.21826397 -0.11989757 -0.82185036 113 109 126
-0.22003749 -0.12251054 -0.82095021 80 56 92
-0.22043057 -0.12175285 -0.82235271 83 66 95
-0.21958299 -0.12180035 -0.82122952 89 70 101
-0.21719767 -0.11978967 -0.82293147 92 77 77
-0.21888927 -0.12006246 -0.82419282 85 72 76
-0.21979934 -0.12005339 -0.82413805 94 87 99
-0.21754801 -0.11985874 -0.8232519 89 75 75
-0.21689528 -0.1198101 -0.82303166 87 70 67
-0.21692085 -0.11980645 -0.82301414 88 71 68
-0.21310537 -0.12296377 -0.82212538 79 79 81
-0.21361428 -0.12219463 -0.82216632 72 66 67
-0.21446207 -0.12210211 -0.8235454 74 62 59
-0.21375567 -0.12250105 -0.82291335 76 70 70
-0.21421181 -0.12234405 -0.82348305 76 66 64
-0.21618578 -0.12067327 -0.8243562 63 38 25
-0.21386164 -0.12210103 -0.82246178 72 64 64
-0.2146779 -0.1210217 -0.82163709 78 71 73
-0.2155429 -0.12076056 -0.82330537 62 42 33
-0.21631102 -0.1203238 -0.82382274 65 41 30
-0.2157177 -0.12011135 -0.82083565 109 108 118
-0.21621446 -0.12004603 -0.82219213 92 81 82
-0.21497276 -0.12068698 -0.82104951 93 91 98
-0.21650578 -0.1197781 -0.82190698 102 93 97
-0.22870991 -0.12522855 -0.82225215 164 153 176
-0.23096041 -0.12577145 -0.82351702 168 157 181
-0.2305575 -0.12539816 -0.82443905 165 154 176
-0.22967458 -0.12526993 -0.82359022 164 153 176
-0.23098743 -0.12553455 -0.82454473 166 155 178
-0.23113072 -0.12572494 -0.82397705 168 157 180
-0.22685698 -0.12427188 -0.8236779 149 139 161
-0.22507364 -0.12371121 -0.82368696 138 128 150
-0.22633158 -0.12420138 -0.82324547 147 138 158
-0.22774301 -0.12440632 -0.82433563 153 143 165
-0.22578625 -0.12399352 -0.82341558 143 134 155
-0.22546278 -0.12412465 -0.82234728 143 135 155
-0.2272508 -0.12472502 -0.82227451 155 145 167
-0.22720122 -0.12453884 -0.82297969 153 144 164
-0.22823201 -0.12542681 -0.82072687 166 154 178
-0.22809623 -0.12473059 -0.82343322 158 147 169
-0.22814757 -0.12457626 -0.82414699 156 146 167
-0.2260872 -0.12435823 -0.8221736 148 140 159
-0.22307853 -0.12308323 -0.82339656 113 96 126
-0.22190419 -0.12320948 -0.8220312 93 70 107
-0.22324111 -0.12336519 -0.82312596 113 96 126
-0.22207473 -0.12341782 -0.82162035 96 74 110
-0.22259837 -0.12357254 -0.82147676 105 87 119
-0.22113518 -0.12337202 -0.82081282 82 55 96
-0.22148405 -0.12339925 -0.82106566 87 62 102
-0.21332355 -0.12367504 -0.82430553 75 72 70
-0.21323989 -0.12375154 -0.82432121 74 71 69
-0.21237671 -0.12418938 -0.82300901 77 73 78
-0.21279441 -0.12356976 -0.82278198 76 76 78
-0.21227548 -0.12387342 -0.82214379 77 73 80
-0.21178098 -0.12406819 -0.82143331 76 69 77
-0.21193178 -0.12368403 -0.82085699 77 73 79
-0.21130988 -0.12547453 -0.82143778 100 85 89
-0.21136929 -0.12528817 -0.82151592 96 82 87
-0.20868993 -0.13609917 -0.82108277 211 193 190
-0.20879577 -0.1364255 -0.82158935 213 197 190
-0.20879081 -0.13647993 -0.82163006 213 197 189
-0.20894444 -0.13521339 -0.82075703 217 199 200
-0.23323344 -0.11206041 -0.83431476 212 203 217
-0.23327366 -0.11164882 -0.83423597 216 208 219
-0.234383 -0.11338607 -0.83627003 204 196 212
-0.23375805 -0.11215585 -0.83504325 213 205 218
-0.23326959 -0.11140551 -0.83415234 218 210 221
-0.23343773 -0.11371775 -0.83511931 197 187 206
-0.23253611 -0.11281048 -0.83370441 205 195 212
-0.23249026 -0.11324138 -0.83381671 202 192 210
-0.23282507 -0.11341061 -0.83427382 200 190 208
-0.22894679 -0.11457604 -0.83246976 165 154 180
-0.22880125 -0.11484421 -0.8326149 161 149 176
-0.23024178 -0.11441459 -0.83320224 175 164 188
-0.22991939 -0.11418631 -0.83296847 174 163 186
-0.23181951 -0.11493915 -0.83411795 185 174 197
-0.23135054 -0.11397146 -0.83353317 187 177 198
-0.23108174 -0.11398089 -0.83341515 185 175 196
-0.23005521 -0.11481533 -0.8332721 171 159 184
-0.22541562 -0.11178766 -0.83566046 133 128 136
-0.22556341 -0.11200681 -0.83629924 110 105 114
-0.22463566 -0.11184528 -0.83417374 187 181 189
-0.22434272 -0.11311153 -0.83537555 132 124 129
-0.22441703 -0.11228836 -0.83429593 173 166 172
-0.22450702 -0.11317756 -0.83591586 122 116 122
-0.22439565 -0.11132949 -0.83288109 217 211 220
-0.22413349 -0.11210489 -0.83340728 185 178 184
-0.22420724 -0.11395256 -0.83261716 135 133 142
-0.2236537 -0.11452116 -0.83532822 88 75 75
-0.22379534 -0.11497905 -0.83471686 80 71 73
-0.22406599 -0.11404022 -0.83330119 125 120 127
-0.22401415 -0.11296777 -0.8334015 157 150 156
-0.23250853 -0.11581609 -0.83497053 184 173 196
-0.23252548 -0.11679506 -0.83560467 177 167 189
-0.23344192 -0.11547776 -0.83585101 185 174 197
-0.23228312 -0.11791971 -0.83613586 169 158 179
-0.2321243 -0.11676522 -0.83535045 175 164 186
-0.23077601 -0.11749604 -0.8350687 160 151 172
-0.23144518 -0.11692435 -0.83510369 168 159 180
-0.23010281 -0.11789589 -0.83490014 154 145 166
-0.23125908 -0.11753186 -0.83543503 162 153 174
-0.22925776 -0.11669497 -0.83381891 154 144 168
-0.23067577 -0.11694196 -0.83458662 164 156 177
-0.22885995 -0.11746012 -0.83402991 147 138 160
-0.22889298 -0.11565416 -0.83312219 156 144 171
-0.22875315 -0.11687024 -0.83368021 149 139 163
-0.22906086 -0.11715345 -0.83396411 150 141 163
-0.22809142 -0.11810607 -0.83366781 135 126 147
-0.22727175 -0.11888575 -0.83303052 120 112 129
-0.22777346 -0.11880953 -0.83362544 127 119 138
-0.22785112 -0.11787574 -0.83324653 133 124 144
-0.22726813 -0.11694087 -0.83250481 129 120 141
-0.22756033 -0.11553489 -0.83254111 139 130 153
-0.22187498 -0.11685307 -0.83443475 65 52 49
-0.22099233 -0.11775114 -0.83302635 73 62 59
-0.22087705 -0.11786907 -0.83302283 73 62 59
-0.22087918 -0.11787222 -0.83451003 69 49 46
-0.22173479 -0.11699457 -0.8338933 68 56 53
-0.22199273 -0.11673411 -0.83485931 64 49 45
-0.22402208 -0.1152598 -0.8335166 85 82 88
-0.22256923 -0.11646909 -0.83309728 80 74 76
-0.22342204 -0.11575507 -0.83336866 83 78 82
-0.22350615 -0.11533147 -0.8355366 62 50 49
-0.22408268 -0.11524714 -0.833305 88 85 92
-0.22369872 -0.11530817 -0.83476162 71 62 64
-0.21961014 -0.1189977 -0.83296025 71 63 57
-0.21970089 -0.11894056 -0.83320296 71 63 58
-0.22022817 -0.11858974 -0.83446419 76 61 59
-0.22028078 -0.11853166 -0.83487171 74 56 54
-0.23276421 -0.12166771 -0.8359077 151 139 162
-0.23299651 -0.12292882 -0.83487874 149 137 161
-0.23291148 -0.12203366 -0.83571374 150 138 162
-0.22959009 -0.12064623 -0.83374125 138 130 150
-0.23028283 -0.12187531 -0.83272266 140 130 152
-0.23005015 -0.12189475 -0.83243048 138 129 150
-0.22948284 -0.12019698 -0.83437645 139 130 151
-0.23193133 -0.12296059 -0.83329755 146 134 158
-0.22896381 -0.11960249 -0.8346222 137 129 149
-0.23053537 -0.12102918 -0.83447123 142 132 154
-0.2309074 -0.12136141 -0.83443689 144 133 156
-0.23206466 -0.12264086 -0.83411139 147 135 159
-0.23078598 -0.11999133 -0.83557034 145 135 156
-0.23207794 -0.12246779 -0.83427465 148 135 160
-0.23139969 -0.1203776 -0.83569545 148 137 158
-0.23150724 -0.12007883 -0.83612996 148 137 159
-0.22716759 -0.11944016 -0.83259034 117 109 125
-0.22781554 -0.11973788 -0.83297211 125 117 135
-0.21697056 -0.12115889 -0.83581674 55 55 53
-0.21857376 -0.1200005 -0.83606404 68 56 56
-0.21821335 -0.12036983 -0.83524054 72 60 63
-0.21727473 -0.12106012 -0.83501065 65 60 62
-0.21769665 -0.12093113 -0.83383554 79 67 75
-0.21872212 -0.1199303 -0.83366251 76 64 66
-0.21899225 -0.11963941 -0.83347094 74 64 62
-0.2179897 -0.12067033 -0.83365595 80 67 74
-0.21912447 -0.11960535 -0.83454615 76 61 62
-0.21839221 -0.12025411 -0.83355677 77 66 69
-0.21589266 -0.12282021 -0.83275902 61 46 61
-0.21573798 -0.1226309 -0.83435565 38 32 39
-0.21556146 -0.12289539 -0.83418059 37 28 37
-0.21673723 -0.12176214 -0.83285975 78 69 81
-0.21597381 -0.12214498 -0.8357656 31 31 31
-0.2155983 -0.12263359 -0.83507764 26 23 27
-0.21627255 -0.12196802 -0.83481991 47 45 48
-0.23718391 -0.12642813 -0.83367312 163 152 176
-0.23716889 -0.12644948 -0.83357733 164 153 176
-0.23739482 -0.12649645 -0.8337822 163 152 176
-0.23795481 -0.12689199 -0.8333171 170 159 182
-0.23840688 -0.12691316 -0.83452815 164 154 176
-0.23768376 -0.1263482 -0.83541709 154 143 167
-0.23400377 -0.12389457 -0.83508128 146 133 159
-0.23383377 -0.12321685 -0.83565199 149 137 161
-0.23486312 -0.12433188 -0.83569533 144 132 158
-0.23305239 -0.12427542 -0.83322418 146 136 159
-0.23310512 -0.12347759 -0.83438933 147 134 159
-0.23367804 -0.12393808 -0.83457929 145 133 158
-0.23437516 -0.1244601 -0.83486277 144 132 157
-0.23604567 -0.12612022 -0.83319503 162 152 175
-0.23544404 -0.12578264 -0.83313727 159 149 172
-0.23566698 -0.12524514 -0.83558661 141 130 156
-0.23622203 -0.12629709 -0.83292651 165 156 177
-0.23577084 -0.12548439 -0.8349334 147 136 161
-0.23605075 -0.12540619 -0.83582228 142 130 156
-0.23210509 -0.12321121 -0.83321255 147 135 159
-0.21491075 -0.1254569 -0.83559412 22 21 26
-0.21406071 -0.12614143 -0.83354038 4 3 4
-0.21464047 -0.12456606 -0.83515358 4 4 5
-0.21486801 -0.12470433 -0.83564174 12 12 15
-0.21508759 -0.12422315 -0.83623058 14 13 16
-0.21513043 -0.12306678 -0.83575052 8 6 8
-0.21479404 -0.12389938 -0.83512127 5 4 5
-0.21477666 -0.12484264 -0.8325038 32 23 32
-0.21453156 -0.12465823 -0.83431667 6 4 6
-0.21534498 -0.12357165 -0.83317763 42 30 42
-0.21554989 -0.12307904 -0.83351922 44 31 44
-0.24053434 -0.12752509 -0.83419937 175 164 187
-0.24027453 -0.12746333 -0.83405596 174 163 186
-0.24026114 -0.12746479 -0.83392876 174 164 187
-0.23929901 -0.12710476 -0.83569872 161 152 174
-0.23996331 -0.12742294 -0.83323562 177 166 189
-0.23894393 -0.12718427 -0.83340895 173 163 185
-0.2389005 -0.12714489 -0.83417201 169 160 182
-0.23584886 -0.10789362 -0.84886348 204 199 207
-0.23628186 -0.1090545 -0.84811455 229 224 232
-0.22890465 -0.11107261 -0.85100228 136 133 139
-0.2286997 -0.11108323 -0.85078663 136 133 139
-0.24504764 -0.11464624 -0.85153419 220 215 224
-0.24449959 -0.11462839 -0.85018086 219 214 226
-0.24436504 -0.11490941 -0.84916067 219 214 228
-0.24294788 -0.11260872 -0.85119021 222 215 226
-0.24222417 -0.11206325 -0.85075665 224 217 227
-0.24259056 -0.11242893 -0.85168892 222 215 226
-0.24283211 -0.11237295 -0.84993827 224 217 227
-0.24176754 -0.11179602 -0.85109562 224 217 228
-0.24408035 -0.11478598 -0.84864354 219 214 228
-0.24279989 -0.11286534 -0.84858447 224 218 230
-0.24231166 -0.11222398 -0.84834117 226 219 230
-0.24386922 -0.11357974 -0.85079193 220 214 225
-0.24379194 -0.11349629 -0.85070962 221 214 225
-0.24262913 -0.11272312 -0.84830016 225 218 230
-0.24246909 -0.11222707 -0.84891385 225 219 229
-0.22886151 -0.11208805 -0.85130692 126 123 129
-0.22877261 -0.11263274 -0.85165018 119 117 122
-0.24476171 -0.1157576 -0.85014057 213 208 221
-0.24473552 -0.11652293 -0.85111398 204 197 212
-0.24525721 -0.11564977 -0.8512367 215 210 220
-0.24458113 -0.1166795 -0.85093945 202 195 210
-0.24496011 -0.11571956 -0.85058641 214 208 221
-0.24043728 -0.11885875 -0.84836811 150 138 159
-0.24235924 -0.11897709 -0.85081106 155 144 167
-0.24185832 -0.11879191 -0.84996343 157 146 168
-0.24313724 -0.1171484 -0.84926897 189 181 199
-0.24381556 -0.11569449 -0.84810823 210 205 222
-0.24196205 -0.11786648 -0.84883505 172 163 182
-0.24234046 -0.11734352 -0.84857869 181 172 191
-0.24349065 -0.11684644 -0.84928274 195 187 205
-0.24144965 -0.11863272 -0.84926099 160 149 169
-0.24227074 -0.11813175 -0.84956521 171 161 181
-0.24250701 -0.11805402 -0.84974295 174 164 184
-0.24036159 -0.1196444 -0.8485086 150 138 162
-0.24256629 -0.12078068 -0.85020304 147 136 161
-0.24098745 -0.11921295 -0.8494966 152 140 164
-0.24187472 -0.12193431 -0.84864038 142 130 155
-0.24276073 -0.12005581 -0.85091513 150 139 164
-0.24121621 -0.1192422 -0.84973377 152 140 164
-0.24134941 -0.12115047 -0.84858388 144 133 158
-0.24216318 -0.1221914 -0.84878945 141 129 155
-0.24326757 -0.12289095 -0.85093653 130 126 142
-0.24273935 -0.12279768 -0.84976858 134 126 147
-0.24289477 -0.12132952 -0.85064238 142 133 155
-0.24306341 -0.11974097 -0.8515889 150 141 164
-0.24333191 -0.12101059 -0.85174936 141 134 153
-0.24288771 -0.12068656 -0.85085428 146 136 159
-0.24491459 -0.12637196 -0.84812015 126 115 136
-0.24458234 -0.12616846 -0.8481276 125 113 135
-0.24611953 -0.1265403 -0.8496145 128 121 140
-0.24538994 -0.12567112 -0.85019636 126 121 137
-0.2442921 -0.12534106 -0.84922665 124 116 134
-0.24598382 -0.12580791 -0.85078961 127 124 139
-0.24418008 -0.12434546 -0.85070902 125 120 134
-0.24520995 -0.12563224 -0.8500123 126 120 137
-0.24466312 -0.12565339 -0.84922433 124 116 135
-0.24472558 -0.12503073 -0.85033393 125 120 135
-0.24563186 -0.12626034 -0.84956098 126 119 137
-0.24364336 -0.12306554 -0.85170233 127 125 137
-0.24387793 -0.12415191 -0.85038489 126 121 136
-0.24410647 -0.12477469 -0.84987229 124 118 134
-0.24302614 -0.12340984 -0.8496992 132 124 143
-0.24334164 -0.12451559 -0.84858721 129 119 140
-0.24410045 -0.12441912 -0.85044342 125 120 134
-0.25228518 -0.13058871 -0.84879529 176 166 181
-0.25263369 -0.13064279 -0.84909624 175 165 181
-0.25317594 -0.13081236 -0.84840679 181 170 186
-0.25326282 -0.13085307 -0.8483876 181 170 186
-0.24838907 -0.12722945 -0.8516596 135 134 148
-0.24928457 -0.12809397 -0.85144264 142 139 155
-0.24808568 -0.1276253 -0.84953982 145 137 158
-0.24952292 -0.1287383 -0.85004342 151 143 164
-0.25042289 -0.12907623 -0.85151654 149 145 161
-0.24809371 -0.12758839 -0.84968179 145 137 157
-0.24925511 -0.12827301 -0.85078126 146 140 158
-0.25036925 -0.12933542 -0.85052776 154 147 166
-0.24967436 -0.12907268 -0.84846246 162 150 171
-0.25154743 -0.13021794 -0.84932286 170 160 176
-0.24970923 -0.12910134 -0.84837538 163 151 172
-0.25140369 -0.13002478 -0.8507359 159 153 170
-0.2481875 -0.12813748 -0.84814572 154 141 166
-0.25124541 -0.12989056 -0.85118932 155 150 168
-0.25068656 -0.12963752 -0.84968656 161 152 171
-0.24757487 -0.12748028 -0.84914082 143 133 155
-0.24698323 -0.12717278 -0.84918457 137 127 148
-0.24656729 -0.12718295 -0.84848523 136 125 147
-0.25343108 -0.13091889 -0.85065132 169 160 179
-0.26475489 -0.11903862 -0.8725245 194 175 186
-0.26407725 -0.11803602 -0.87392169 153 142 149
-0.26609322 -0.1187597 -0.87485188 179 168 177
-0.26426914 -0.11898243 -0.87203419 193 172 184
-0.26483089 -0.1179406 -0.87509352 147 140 146
-0.26419151 -0.11846869 -0.87309247 171 156 165
-0.26310763 -0.11677085 -0.87486833 132 129 132
-0.26271576 -0.11626411 -0.87519705 123 119 122
-0.26112062 -0.11545185 -0.87293136 189 185 187
-0.26256096 -0.11610994 -0.87519419 123 119 123
-0.2629714 -0.11732537 -0.87323052 169 159 165
-0.26244402 -0.11652538 -0.87371516 164 159 162
-0.26103354 -0.11584873 -0.87168425 220 214 217
-0.26357827 -0.11755564 -0.87424272 142 133 139
-0.26254907 -0.11659434 -0.87382418 160 156 159
-0.26343679 -0.11767321 -0.87361729 157 146 152
-0.26346034 -0.11768363 -0.87365311 156 145 151
-0.26377472 -0.12176586 -0.87216234 180 163 183
-0.26405036 -0.12260536 -0.87278134 172 159 181
-0.26472387 -0.12224344 -0.8733772 176 160 182
-0.26422957 -0.12242107 -0.87290651 174 160 182
-0.26527807 -0.12147864 -0.87367356 182 164 185
-0.26402399 -0.12052888 -0.8719601 190 170 186
-0.26441181 -0.12046372 -0.87234151 190 170 187
-0.26606205 -0.12068525 -0.87440604 185 170 187
-0.26517135 -0.11923313 -0.87284976 197 178 190
-0.26616985 -0.12063123 -0.87452704 185 171 187
-0.26587078 -0.1200934 -0.87398982 190 174 188
-0.26618889 -0.12203626 -0.87496275 176 162 184
-0.26549128 -0.12157685 -0.87394238 181 163 185
-0.26653948 -0.11915468 -0.87456399 194 181 191
-0.26306227 -0.1224793 -0.8718372 174 162 181
-0.2629135 -0.12300456 -0.87191856 170 160 180
-0.26436603 -0.12397661 -0.8734358 164 153 175
-0.26434982 -0.12403725 -0.87342751 163 153 175
-0.26586777 -0.12307207 -0.87493181 169 156 181
-0.26576281 -0.12436833 -0.87501705 162 151 174
-0.26595032 -0.12535082 -0.87537241 157 147 170
-0.26585245 -0.12322896 -0.87493926 168 155 180
-0.26476055 -0.12550807 -0.8740992 156 147 169
-0.26410905 -0.12551789 -0.87338555 156 148 170
-0.26389068 -0.12483912 -0.87304455 160 151 173
-0.26415566 -0.12593897 -0.87349957 154 147 168
-0.26496342 -0.12611049 -0.87441176 153 145 166
-0.2633945 -0.12568377 -0.87256092 156 148 170
-0.26363465 -0.12480143 -0.87274915 160 151 173
-0.26366261 -0.12488391 -0.87279868 160 151 173
-0.26257473 -0.12544672 -0.87161779 157 149 170
-0.2627286 -0.12476208 -0.87175363 161 152 172
-0.26257062 -0.12597328 -0.87160408 155 147 168
-0.26797816 -0.13058746 -0.8752321 113 99 130
-0.26455635 -0.12953638 -0.87174958 130 124 144
-0.26525593 -0.13047849 -0.87159824 121 116 134
-0.26566502 -0.13028608 -0.87236387 120 114 135
-0.26515737 -0.12856919 -0.8734923 133 125 149
-0.26532248 -0.12904102 -0.87321866 129 122 145
-0.26528823 -0.12965868 -0.87250388 126 119 140
-0.26539797 -0.12984313 -0.87246114 124 118 139
-0.26537073 -0.12961933 -0.87266374 125 119 141
-0.26573017 -0.12705591 -0.87530178 147 140 161
-0.26514709 -0.12720938 -0.87454635 146 140 161
-0.26453811 -0.12767354 -0.87352884 142 135 158
-0.26467869 -0.12723398 -0.87401372 146 140 161
-0.26669449 -0.12856871 -0.87533808 132 121 147
-0.26279235 -0.12740946 -0.87156159 147 140 161
-0.27254999 -0.1347288 -0.87523764 113 108 132
-0.26854408 -0.13303523 -0.8722555 116 108 131
-0.2683636 -0.13221903 -0.87325788 114 103 130
-0.26849461 -0.13289803 -0.87240595 116 107 131
-0.26783904 -0.13147166 -0.87383622 110 99 127
-0.268426 -0.13198978 -0.87368846 113 102 129
-0.26868331 -0.13198291 -0.87420046 111 100 128
-0.27073526 -0.13413887 -0.87355137 117 109 132
-0.27061114 -0.13439648 -0.87276018 121 113 135
-0.27124593 -0.13460043 -0.87355036 118 110 133
-0.26781929 -0.13087422 -0.87473899 109 96 127
-0.26891127 -0.13186084 -0.87466055 112 100 129
-0.26911074 -0.13192821 -0.87480563 113 101 130
-0.27141452 -0.13398102 -0.87538713 109 104 127
-0.27131259 -0.13408199 -0.87489152 111 106 128
-0.26864138 -0.13121739 -0.87525713 112 99 130
-0.26620662 -0.13124065 -0.87196881 115 109 129
-0.26756585 -0.13226329 -0.87243479 110 104 127
-0.26631466 -0.1313388 -0.87198162 114 109 129
-0.28357112 -0.13764171 -0.87461567 80 44 81
-0.28339067 -0.13619331 -0.87243176 80 44 80
-0.28375268 -0.13689263 -0.87268853 80 45 77
-0.27955109 -0.13625628 -0.87208962 109 98 133
-0.2807036 -0.13660763 -0.87297374 100 81 118
-0.27958208 -0.13701445 -0.8753565 103 91 123
-0.28036326 -0.13698283 -0.87478727 99 82 116
-0.28298321 -0.13745463 -0.87538111 82 46 87
-0.28003275 -0.13699803 -0.87503594 101 86 119
-0.28310141 -0.1368607 -0.87419045 81 45 85
-0.28054315 -0.13620083 -0.87211329 101 84 120
-0.28205842 -0.13695152 -0.87401634 90 61 100
-0.28043127 -0.13648075 -0.87259966 102 85 122
-0.28118747 -0.13618526 -0.87229663 96 74 111
-0.28167486 -0.13580258 -0.87174201 92 67 103
-0.27661777 -0.13650839 -0.8729952 124 114 143
-0.27807277 -0.13666971 -0.87525642 112 102 132
-0.27550176 -0.13620107 -0.8730585 130 121 149
-0.27698079 -0.13636221 -0.87538487 118 109 138
-0.27659261 -0.13627805 -0.8751843 120 112 140
-0.27564991 -0.13602968 -0.87512785 126 118 145
-0.27761108 -0.13640372 -0.87240517 119 110 141
-0.27771723 -0.13643248 -0.87255901 118 109 140
-0.27869299 -0.13664792 -0.87376052 111 101 133
-0.27791733 -0.13647529 -0.8727994 117 107 138
-0.27899548 -0.13682675 -0.87461829 108 98 129
-0.27246675 -0.13488184 -0.87466061 116 110 134
-0.27340984 -0.13530476 -0.87462789 121 114 139
-0.27188042 -0.13516803 -0.8726564 130 120 141
-0.27166805 -0.13490181 -0.8734026 121 113 135
-0.27296627 -0.13535051 -0.87372661 127 118 142
-0.27406168 -0.13571863 -0.87401849 131 122 147
-0.27209374 -0.1354119 -0.87188262 137 126 147
-0.27345935 -0.13562256 -0.8733862 133 123 147
-0.274214 -0.13599622 -0.87169814 135 124 150
-0.27397612 -0.13591807 -0.87184215 135 124 149
-0.27134803 -0.13486071 -0.87300068 123 114 136
-0.28330755 -0.1216511 -0.89074212 133 122 140
-0.28401932 -0.12012964 -0.890939 90 85 93
-0.28267241 -0.12135408 -0.88994116 132 120 136
-0.28239414 -0.12135782 -0.88958979 136 124 140
-0.28279683 -0.12144031 -0.89013213 132 120 137
-0.28230843 -0.12101217 -0.88934785 129 118 132
-0.28302488 -0.12157222 -0.89047217 131 119 137
-0.28242189 -0.12266838 -0.88962674 143 130 150
-0.28175077 -0.12203344 -0.88807261 116 107 120
-0.28255761 -0.12231115 -0.89005041 151 137 158
-0.2817269 -0.12241551 -0.88792616 113 104 118
-0.28169781 -0.12070291 -0.88823855 121 111 122
-0.28185201 -0.12217353 -0.88829708 120 110 124
-0.27966657 -0.12683111 -0.88949728 157 145 168
-0.28033289 -0.1267416 -0.89026821 146 135 160
-0.28015894 -0.12623736 -0.88927132 134 126 146
-0.28119907 -0.12382143 -0.88772613 107 99 114
-0.28094259 -0.12388628 -0.8873837 105 99 112
-0.28093636 -0.125155 -0.88910216 126 116 136
-0.28044787 -0.12528698 -0.88846153 122 115 132
-0.28143632 -0.12519102 -0.89036381 147 134 159
-0.28178614 -0.12480811 -0.89065641 153 140 166
-0.28117067 -0.12569037 -0.89046401 147 134 159
-0.28155407 -0.12478822 -0.89003885 143 130 154
