ply
format ascii 1.0
comment PCL generated
element vertex 978
property float x
property float y
property float z
property uchar red
property uchar green
property uchar blue
element camera 0
property float view_px
property float view_py
property float view_pz
property float x_axisx
property float x_axisy
property float x_axisz
property float y_axisx
property float y_axisy
property float y_axisz
property float z_axisx
property float z_axisy
property float z_axisz
property float focal
property float scalex
property float scaley
property float centerx
property float centery
property int viewportx
property int viewporty
property float k1
property float k2
end_header
-0.051657774 -0.46255866 -0.68181634 137 101 153
-0.052727968 -0.46037993 -0.68136483 129 88 131
-0.051843107 -0.45905033 -0.68119514 125 87 120
-0.052100409 -0.46119368 -0.68154711 130 89 137
-0.052440524 -0.45960847 -0.68125123 127 87 125
-0.051475707 -0.46059623 -0.68148613 128 89 133
-0.052731588 -0.46052977 -0.68139046 130 88 132
-0.076280728 -0.46385741 -0.68256873 159 151 162
-0.076413222 -0.46530831 -0.68289512 155 143 161
-0.076405972 -0.46576625 -0.68299282 154 141 162
-0.076348104 -0.4639208 -0.68258965 158 150 161
-0.076647848 -0.46349064 -0.68252987 155 147 155
-0.077348612 -0.46342179 -0.68261117 143 129 140
-0.076570764 -0.46289301 -0.68240499 156 147 155
-0.07273531 -0.46639493 -0.68271166 170 153 171
-0.074231818 -0.46632192 -0.68286818 162 146 168
-0.072543889 -0.46412575 -0.68222028 155 136 156
-0.072774641 -0.4665789 -0.68275422 171 154 172
-0.074919716 -0.46606866 -0.68289465 157 140 165
-0.073649831 -0.4636535 -0.6822443 152 135 155
-0.07367789 -0.46397567 -0.6823166 152 134 155
-0.074547634 -0.46368185 -0.68234605 155 142 158
-0.075916663 -0.46401346 -0.68256319 160 151 164
-0.075766243 -0.46385536 -0.68251318 159 150 163
-0.069471925 -0.46425274 -0.68199354 188 175 182
-0.068734869 -0.46564016 -0.68228543 186 182 189
-0.068632133 -0.46631491 -0.68244046 185 183 191
-0.069560841 -0.4650802 -0.68219465 185 175 183
-0.070986331 -0.46647868 -0.68259984 179 167 180
-0.069968224 -0.46672466 -0.68260622 181 174 185
-0.071849622 -0.46291387 -0.6819036 153 133 152
-0.06987635 -0.4640573 -0.68197852 184 170 178
-0.071085356 -0.46366039 -0.68199545 167 150 164
-0.071913928 -0.46501181 -0.68234289 167 149 166
-0.07022953 -0.46399519 -0.68199462 179 164 174
-0.072047986 -0.46402031 -0.68214875 159 139 158
-0.067045085 -0.46558124 -0.68225187 163 152 170
-0.065595202 -0.46448666 -0.68198305 140 118 145
-0.067085035 -0.46658489 -0.68245739 169 164 178
-0.067505471 -0.46602324 -0.68235642 170 164 178
-0.065579034 -0.46582547 -0.68225503 148 133 155
-0.06811785 -0.46586433 -0.68232 182 178 187
-0.067934111 -0.46583605 -0.68231368 178 174 184
-0.067914158 -0.46629155 -0.68242192 177 174 185
-0.066995107 -0.46502393 -0.68212289 162 149 167
-0.067916177 -0.46331868 -0.68171567 184 171 177
-0.063942492 -0.46661931 -0.68238777 143 127 150
-0.064044207 -0.46657753 -0.68237919 142 127 149
-0.063072845 -0.46679026 -0.68242669 150 133 155
-0.061601412 -0.46496961 -0.68209761 145 126 142
-0.060929354 -0.46556401 -0.6822142 153 133 152
-0.062560841 -0.46484053 -0.68206477 138 120 137
-0.064074822 -0.46481729 -0.68202323 131 108 135
-0.063713886 -0.4633829 -0.68174011 124 95 125
-0.06201975 -0.46302947 -0.68170935 130 104 124
-0.062127244 -0.46305498 -0.68171191 129 104 124
-0.057027254 -0.46474904 -0.68211091 173 159 159
-0.059256379 -0.46580818 -0.68227565 165 146 161
-0.058111474 -0.46535957 -0.68221056 170 154 161
-0.057053261 -0.46530813 -0.68222493 179 166 165
-0.059245236 -0.4666017 -0.68243861 174 157 169
-0.060312025 -0.46666843 -0.68242723 165 146 166
-0.058955178 -0.46485072 -0.68209273 158 139 153
-0.057875782 -0.46323672 -0.68179673 152 133 140
-0.058179896 -0.46333018 -0.68181252 151 132 140
-0.060103521 -0.46520442 -0.68215245 155 135 151
-0.058713946 -0.46425059 -0.68198174 155 136 147
-0.059522908 -0.46562186 -0.68223387 161 142 158
-0.05502836 -0.46543527 -0.68229651 173 152 168
-0.055879585 -0.46667665 -0.68255681 189 177 175
-0.053271938 -0.46534514 -0.68238258 152 120 152
-0.053832274 -0.46449783 -0.68213421 155 123 159
-0.053255729 -0.46474177 -0.68223143 149 115 153
-0.053630944 -0.46375474 -0.68196082 149 113 157
-0.05458536 -0.46411759 -0.68202108 158 130 159
-0.054699946 -0.4637391 -0.68194175 154 126 155
-0.055938233 -0.46392328 -0.68196112 163 143 154
-0.056305341 -0.46298182 -0.68176258 155 135 143
-0.054517709 -0.46459818 -0.68212062 163 136 164
-0.051846236 -0.46593136 -0.68262887 153 128 152
-0.049376145 -0.46459183 -0.682491 157 143 162
-0.050943952 -0.46558669 -0.68261749 154 133 154
-0.050861239 -0.4656249 -0.68263525 154 134 154
-0.049442578 -0.46541321 -0.68270636 157 142 156
-0.049458507 -0.46658254 -0.68302017 158 140 147
-0.051002458 -0.4643389 -0.68228847 151 128 159
-0.05210134 -0.46313569 -0.68190491 139 102 154
-0.050437301 -0.46295691 -0.68198121 148 125 165
-0.052297425 -0.46388167 -0.68207866 141 105 152
-0.051029999 -0.463045 -0.68196017 145 117 161
-0.051010851 -0.46299726 -0.68194956 145 117 161
-0.047480609 -0.46633098 -0.68312865 157 142 152
-0.048249692 -0.4666799 -0.68315482 159 144 149
-0.04658775 -0.46676117 -0.68332547 157 150 162
-0.046227127 -0.46447137 -0.68273503 150 125 146
-0.046072297 -0.46631163 -0.68324924 155 146 163
-0.047597088 -0.46668318 -0.68321401 158 146 154
-0.046677891 -0.46379822 -0.68251371 150 127 150
-0.046253584 -0.46403179 -0.68261361 149 123 145
-0.046716269 -0.46449643 -0.68269861 151 126 145
-0.046876986 -0.46406618 -0.68256861 151 128 150
-0.04832593 -0.46617541 -0.68301105 157 140 146
-0.04332865 -0.4662796 -0.68356264 151 143 161
-0.041915044 -0.46505925 -0.68338996 147 133 148
-0.042749222 -0.46569785 -0.6834659 149 139 156
-0.042563915 -0.46489659 -0.6832391 150 139 155
-0.041439403 -0.46416217 -0.68317705 147 130 145
-0.043824155 -0.46464637 -0.68301588 150 136 157
-0.042608503 -0.46421415 -0.68302757 149 136 154
-0.044721764 -0.46543437 -0.68313479 151 141 164
-0.043629356 -0.46438131 -0.68296456 149 134 155
-0.044076726 -0.46466756 -0.68299484 150 135 158
-0.043236107 -0.46400806 -0.68290484 148 131 152
-0.040749092 -0.46545631 -0.68370873 143 124 138
-0.076504707 -0.46770552 -0.68340921 153 135 160
-0.076684028 -0.4694151 -0.68377501 154 133 155
-0.076178446 -0.47054335 -0.68394834 163 141 163
-0.073181912 -0.46846905 -0.6832338 168 147 166
-0.075783327 -0.4705947 -0.68393171 163 140 162
-0.072805569 -0.46950695 -0.68349278 161 135 157
-0.075156644 -0.47040305 -0.68384933 163 139 160
-0.074446104 -0.46967465 -0.68361914 165 142 163
-0.075925887 -0.46887296 -0.68358111 161 142 165
-0.074359745 -0.46768671 -0.68316132 166 149 170
-0.074958533 -0.46691605 -0.68307388 162 146 170
-0.073304407 -0.46770483 -0.6830439 171 154 171
-0.073288769 -0.46715847 -0.68293148 170 154 172
-0.075563319 -0.46811262 -0.68338561 161 144 167
-0.068734132 -0.46924713 -0.68316203 181 168 188
-0.069535449 -0.46908873 -0.68318552 175 160 179
-0.069352247 -0.47065356 -0.68354958 176 153 180
-0.06881021 -0.46822888 -0.68292183 181 172 188
-0.070132554 -0.46787405 -0.68291998 174 163 177
-0.071807332 -0.468043 -0.68305087 169 150 168
-0.072016515 -0.46767429 -0.68296289 170 152 169
-0.069942906 -0.4674041 -0.6827845 177 169 181
-0.070287965 -0.46707177 -0.68271321 178 169 182
-0.065787926 -0.46843854 -0.68284744 156 139 165
-0.065809473 -0.46938244 -0.68305027 157 139 167
-0.066110454 -0.47059289 -0.68332678 162 141 172
-0.066575773 -0.47068778 -0.68337488 166 146 176
-0.065421999 -0.46926907 -0.68300289 153 135 163
-0.065619625 -0.47068942 -0.68331796 157 136 168
-0.067135312 -0.46784163 -0.68275464 171 161 179
-0.066740155 -0.4683497 -0.68286484 166 152 174
-0.068025552 -0.46794325 -0.68280745 181 174 189
-0.065482393 -0.46717313 -0.68254054 153 140 161
-0.065983586 -0.46704167 -0.68252468 158 148 167
-0.063914679 -0.47029766 -0.68317187 148 126 160
-0.062094517 -0.47062689 -0.68330723 150 122 169
-0.060899228 -0.46941534 -0.68305767 156 128 171
-0.060667753 -0.46838549 -0.6828208 159 134 170
-0.061645485 -0.4690097 -0.68293798 156 132 167
-0.063812047 -0.468532 -0.68279254 147 129 156
-0.064019151 -0.4680742 -0.68269318 145 128 154
-0.061522946 -0.46701056 -0.68248588 159 140 163
-0.063875377 -0.46908486 -0.68291008 147 128 157
-0.064060919 -0.46686891 -0.68243545 144 128 151
-0.059300136 -0.47039694 -0.68335271 163 140 178
-0.058980357 -0.46997416 -0.68325758 167 146 179
-0.059190758 -0.4696314 -0.68315852 167 144 178
-0.058330387 -0.47048956 -0.68342227 169 155 180
-0.057563066 -0.46920893 -0.68312478 181 170 181
-0.059006762 -0.46974504 -0.68319672 168 146 178
-0.059340984 -0.46897125 -0.68299186 168 145 176
-0.058746953 -0.46854827 -0.68290555 175 155 177
-0.059297025 -0.46733558 -0.68260509 174 156 173
-0.057654846 -0.46692368 -0.6825462 189 178 178
-0.059811078 -0.46808973 -0.6827718 167 145 172
-0.060209323 -0.47006577 -0.68323088 157 128 175
-0.053518239 -0.46852082 -0.68316442 150 120 150
-0.05472143 -0.46987262 -0.68343908 158 136 161
-0.054002021 -0.46823785 -0.68307531 160 139 158
-0.054943759 -0.46988517 -0.68343252 161 142 164
-0.052978233 -0.46744391 -0.68292767 150 120 146
-0.055372119 -0.4685061 -0.68306357 175 164 171
-0.05354454 -0.46703768 -0.68279445 160 136 153
-0.053854603 -0.46744809 -0.68288207 162 140 156
-0.055115048 -0.46913689 -0.68324375 169 158 169
-0.055028226 -0.46806061 -0.68296891 173 159 168
-0.050938766 -0.47037435 -0.68384194 145 114 150
-0.049592435 -0.4693068 -0.68371236 159 144 157
-0.049628869 -0.46790317 -0.68333673 153 130 145
-0.049774885 -0.46905631 -0.68362534 155 136 153
-0.050181035 -0.46687281 -0.68303102 156 135 145
-0.052698012 -0.47011411 -0.68358612 127 73 134
-0.051416676 -0.46861157 -0.68333912 141 103 139
-0.051649757 -0.46718535 -0.68297374 151 123 144
-0.05142463 -0.4683325 -0.68327099 143 107 140
-0.05221802 -0.46796584 -0.68311077 144 108 141
-0.0472515 -0.46931398 -0.68397295 160 151 163
-0.047930736 -0.46879169 -0.6837607 162 153 160
-0.045922082 -0.46803445 -0.68377924 149 127 150
-0.04848605 -0.46897283 -0.68374807 166 160 162
-0.046331424 -0.46790868 -0.68370134 150 130 149
-0.046702094 -0.46753797 -0.68355662 152 134 150
-0.046318326 -0.46695262 -0.6834079 156 148 162
-0.046969093 -0.46752128 -0.68352753 153 133 148
-0.044267587 -0.46803677 -0.68397099 145 123 150
-0.043503713 -0.46707231 -0.68378538 149 138 157
-0.069777168 -0.47132596 -0.68376082 170 150 170
-0.068939298 -0.47194508 -0.68386185 173 161 175
-0.06918928 -0.47210053 -0.68392265 170 159 171
-0.067599244 -0.47158515 -0.68369484 172 155 180
-0.068326421 -0.47130078 -0.6836437 180 165 186
-0.067536943 -0.47108972 -0.68355548 174 153 183
-0.065757111 -0.47094318 -0.68340349 157 136 168
-0.064506248 -0.47124696 -0.68342268 144 123 156
-0.064443395 -0.47274926 -0.68388486 137 115 149
-0.062747695 -0.47171614 -0.68359756 149 128 162
-0.062278479 -0.47217074 -0.68374741 149 128 162
-0.061784483 -0.47173208 -0.68363053 151 128 166
-0.061027825 -0.47147116 -0.68357944 152 125 170
-0.060673494 -0.47145301 -0.68358541 153 125 172
-0.05906532 -0.47146386 -0.68366301 158 136 174
-0.058814127 -0.47184327 -0.68378389 159 140 172
-0.059580904 -0.47247615 -0.6839292 157 138 169
-0.060098637 -0.4707866 -0.68341917 155 125 176
-0.059076842 -0.47081378 -0.6834749 162 141 178
-0.056168176 -0.47177947 -0.68389237 165 154 171
-0.056417502 -0.47157413 -0.68382025 170 162 175
-0.053048398 -0.47091702 -0.68378198 128 78 137
-0.052452717 -0.47105542 -0.68387365 128 80 137
-0.078642264 -0.415016 -0.67995453 101 76 98
-0.073930934 -0.41479573 -0.67908406 136 113 145
-0.072572418 -0.41577929 -0.67884552 137 119 167
-0.072368465 -0.41581458 -0.67880791 138 122 172
-0.07467217 -0.41519451 -0.67922944 121 92 125
-0.074596345 -0.41551164 -0.67922044 117 88 125
-0.074529208 -0.41272873 -0.67910796 154 140 160
-0.074844643 -0.41324124 -0.67918205 143 125 147
-0.074746035 -0.41300589 -0.67915511 147 131 152
-0.074741356 -0.41346109 -0.67917693 142 123 146
-0.070991307 -0.4153229 -0.67853779 154 136 180
-0.078797631 -0.41808623 -0.68007392 104 75 97
-0.078482561 -0.41727266 -0.67999327 99 69 93
-0.078254081 -0.41697079 -0.67994225 98 66 91
-0.076484174 -0.41775566 -0.67962146 100 66 101
-0.077396162 -0.41956508 -0.67983896 111 82 112
-0.076748081 -0.41937044 -0.67970675 110 81 116
-0.072534278 -0.41720775 -0.67887944 138 119 163
-0.072521858 -0.41791949 -0.67890173 140 121 159
-0.074495122 -0.41939187 -0.67929476 126 103 139
-0.073663816 -0.41937181 -0.67914975 134 112 144
-0.072751492 -0.41944322 -0.67899382 143 121 148
-0.073710278 -0.41729197 -0.67908877 127 106 154
-0.076148763 -0.41767827 -0.67955369 100 66 104
-0.075058408 -0.41649994 -0.67932522 106 74 116
-0.075077318 -0.41815996 -0.67936277 115 89 133
-0.073440909 -0.41642231 -0.67902052 125 102 151
-0.068458594 -0.41724193 -0.67809129 173 156 178
-0.069433421 -0.41873133 -0.67834282 160 141 163
-0.0699559 -0.41839483 -0.67842418 162 144 165
-0.068910018 -0.41663101 -0.67814648 178 162 181
-0.068465829 -0.41891897 -0.67817158 158 139 164
-0.069784485 -0.41660535 -0.67831868 168 152 178
-0.071042009 -0.41815352 -0.67862189 158 139 164
-0.070966177 -0.41687262 -0.67856288 155 138 172
-0.0718228 -0.41887489 -0.67880189 151 131 156
-0.071554698 -0.41789672 -0.67871505 151 132 163
-0.067897327 -0.41947311 -0.67811006 153 134 160
-0.066137962 -0.41799465 -0.67778474 165 148 172
-0.066294394 -0.41874748 -0.67785048 160 141 170
-0.06749288 -0.41963741 -0.67806512 152 132 162
-0.06680993 -0.41929772 -0.67795271 155 135 166
-0.067355327 -0.41777799 -0.67795026 167 150 172
-0.068269961 -0.41955701 -0.67816871 153 133 159
-0.068079881 -0.41871554 -0.67810106 160 141 166
-0.067739904 -0.41900048 -0.67806447 157 138 163
-0.060619339 -0.41938236 -0.67710793 173 169 180
-0.058148548 -0.41794273 -0.67696244 176 173 187
-0.057495601 -0.41725165 -0.67691296 179 176 191
-0.058571868 -0.41813716 -0.67698354 176 174 187
-0.057627127 -0.41890413 -0.67698801 169 159 176
-0.058395032 -0.41975391 -0.67704779 166 155 171
-0.060261775 -0.41887572 -0.67706776 175 171 182
-0.059172418 -0.41845202 -0.67701542 176 174 186
-0.046205536 -0.41857958 -0.67668772 164 154 174
-0.046412181 -0.41871601 -0.67670017 164 154 175
-0.046547629 -0.4191741 -0.67673248 164 156 177
-0.045987651 -0.41784337 -0.6766358 163 151 170
-0.047009766 -0.41988859 -0.67678714 164 159 181
-0.038305853 -0.41789806 -0.67670494 147 130 161
-0.037512697 -0.41966027 -0.67679721 149 132 162
-0.037720557 -0.41937527 -0.67678171 148 131 162
-0.037421796 -0.41901556 -0.67676622 150 133 163
-0.037003294 -0.41978565 -0.67681211 151 134 164
-0.078166798 -0.42140445 -0.68001276 112 84 105
-0.076420709 -0.4200722 -0.67965466 112 86 124
-0.076846227 -0.42030197 -0.67974102 112 86 120
-0.076351434 -0.42044854 -0.67964327 112 85 123
-0.076693021 -0.4225578 -0.67972195 109 79 107
-0.076460034 -0.42162037 -0.67967004 110 81 114
-0.073303759 -0.42345619 -0.67905551 119 96 120
-0.074466541 -0.42328078 -0.67929065 115 88 112
-0.074641533 -0.42343056 -0.67932218 114 86 110
-0.074590072 -0.42240298 -0.67933428 121 93 116
-0.075127095 -0.42307746 -0.67942649 114 84 108
-0.07608036 -0.42279014 -0.67959839 107 76 105
-0.074743442 -0.4205175 -0.67935818 124 99 130
-0.076141015 -0.42209479 -0.67960644 108 78 110
-0.074395508 -0.42169046 -0.67930198 125 98 122
-0.073518574 -0.42094594 -0.67914706 135 110 133
-0.075391889 -0.42126048 -0.67947334 117 89 120
-0.06841898 -0.42091635 -0.67824954 146 129 151
-0.06893459 -0.42291006 -0.67839861 138 126 139
-0.070011564 -0.4237383 -0.67856479 131 119 132
-0.069853157 -0.42189267 -0.67846525 137 119 142
-0.068365201 -0.42279533 -0.67832482 141 130 141
-0.07043539 -0.42187563 -0.67854285 135 116 141
-0.07174059 -0.42136842 -0.67879677 138 119 141
-0.07174664 -0.42286608 -0.6787653 128 109 132
-0.070726767 -0.42076305 -0.67862129 143 123 146
-0.070569202 -0.41994467 -0.67860973 149 128 151
-0.064586371 -0.42346725 -0.67792892 142 116 149
-0.065037958 -0.42319036 -0.67795962 143 119 150
-0.066691153 -0.42332089 -0.67815059 141 125 144
-0.066380963 -0.4236038 -0.67813587 140 123 143
-0.065048374 -0.42306468 -0.67795217 143 119 151
-0.067764953 -0.42283607 -0.67824548 141 130 144
-0.066893935 -0.42069864 -0.67803478 149 130 161
-0.068158627 -0.42244133 -0.67828155 142 130 144
-0.066672005 -0.42103726 -0.67801946 148 130 160
-0.068321422 -0.42258298 -0.67830968 141 130 142
-0.061810769 -0.42254937 -0.67747784 158 143 159
-0.061048437 -0.42181897 -0.67732012 164 154 165
-0.063207343 -0.423159 -0.67771709 150 128 153
-0.062312212 -0.42184079 -0.67750055 157 143 163
-0.062282074 -0.42342174 -0.67760396 154 134 153
-0.064389817 -0.42075372 -0.67771918 151 127 172
-0.063605636 -0.42295921 -0.67775983 148 126 154
-0.062442683 -0.42053503 -0.6774295 160 148 174
-0.061994907 -0.42001605 -0.67733073 164 154 178
-0.063693605 -0.42203325 -0.67770875 150 129 161
-0.057513639 -0.42307818 -0.67723686 147 130 135
-0.057414189 -0.42373502 -0.67727643 142 125 126
-0.056857489 -0.4231948 -0.67722285 142 124 128
-0.059616059 -0.42303315 -0.67730331 161 144 154
-0.05781034 -0.42171741 -0.67715782 157 139 153
-0.060082886 -0.42359024 -0.67735517 161 145 152
-0.059266794 -0.4221057 -0.67723006 162 147 159
-0.057796065 -0.42051813 -0.67707747 162 146 163
-0.059681669 -0.42280406 -0.67729014 162 146 157
-0.059871159 -0.42157814 -0.67721236 165 155 165
-0.058789756 -0.42066142 -0.67711729 164 152 167
-0.057895858 -0.42051619 -0.67708039 162 146 164
-0.055150546 -0.42366225 -0.67719519 132 113 121
-0.053999819 -0.42214003 -0.67704469 140 118 141
-0.053811416 -0.42173207 -0.67700827 143 120 146
-0.055176113 -0.4234001 -0.67717671 135 115 125
-0.053324606 -0.42168659 -0.67698878 142 118 147
-0.055962563 -0.42010653 -0.67698574 157 137 161
-0.054579813 -0.42164716 -0.6770286 146 124 146
-0.054398168 -0.42053533 -0.67694849 152 130 159
-0.055702988 -0.42099184 -0.67703271 152 132 152
-0.055158362 -0.42023596 -0.67696065 155 134 161
-0.054320041 -0.42026117 -0.67692733 154 131 162
-0.04977832 -0.42087856 -0.67689586 153 142 169
-0.048955936 -0.42180002 -0.67694163 152 137 160
-0.049221117 -0.4215703 -0.6769312 152 138 162
-0.049146656 -0.42344028 -0.67704833 142 120 138
-0.049041502 -0.42275169 -0.67700315 146 127 147
-0.050277345 -0.42113793 -0.67691731 150 136 164
-0.050724853 -0.42160311 -0.67695367 145 129 156
-0.049155954 -0.42024931 -0.67684662 159 151 179
-0.050449327 -0.42131692 -0.67693132 148 134 161
-0.048810549 -0.42211846 -0.67695957 151 134 156
-0.048601013 -0.42093468 -0.67688107 157 146 171
-0.04873848 -0.42285082 -0.67700464 147 127 146
-0.048514426 -0.42304966 -0.67701334 146 126 143
-0.048357289 -0.42286322 -0.67699879 147 128 145
-0.042804312 -0.42350459 -0.67709279 139 122 132
-0.037698954 -0.42351356 -0.67721021 128 93 115
-0.037533276 -0.42119023 -0.67694753 143 121 147
-0.037389219 -0.42234275 -0.67708385 135 105 130
-0.040289655 -0.42362854 -0.67715436 136 116 127
-0.037253842 -0.4212316 -0.67695969 142 118 145
-0.038109329 -0.42003322 -0.67681646 145 129 160
-0.037946217 -0.41992411 -0.67680717 146 130 161
-0.035403337 -0.42375755 -0.6773383 126 82 115
-0.035595793 -0.42305833 -0.67727143 130 90 117
-0.036686838 -0.42245144 -0.67713779 133 100 125
-0.035558462 -0.42180192 -0.67715418 137 106 127
-0.035354085 -0.42161399 -0.67714906 138 108 129
-0.035908692 -0.4219653 -0.67714471 136 105 127
-0.030051723 -0.42379493 -0.67781061 127 103 129
-0.032200985 -0.42352161 -0.67752838 127 86 125
-0.078166775 -0.42547849 -0.68006837 113 89 106
-0.077006705 -0.42447335 -0.67980552 108 78 100
-0.078187868 -0.42546198 -0.68007237 113 89 106
-0.076428823 -0.42661047 -0.67971569 117 93 114
-0.076230705 -0.42766523 -0.67968702 122 103 122
-0.072299361 -0.4273386 -0.67888463 130 111 132
-0.072532497 -0.4258298 -0.67891616 126 107 128
-0.072660819 -0.42585689 -0.67894244 125 107 128
-0.073834069 -0.42647311 -0.67918712 124 106 126
-0.074645601 -0.4267208 -0.67935449 123 104 125
-0.07306394 -0.42451856 -0.6790098 120 102 124
-0.075911433 -0.42582452 -0.67959529 115 90 112
-0.074410357 -0.42388287 -0.67926836 112 85 110
-0.073886946 -0.425118 -0.67918229 120 100 122
-0.074297734 -0.42550394 -0.67926961 120 100 122
-0.070649348 -0.42662033 -0.67866212 133 117 132
-0.06876675 -0.42449102 -0.6784187 136 127 134
-0.070178911 -0.42613888 -0.67860049 134 119 133
-0.069907188 -0.42748502 -0.67854041 132 110 128
-0.069864646 -0.42620048 -0.67855358 134 118 132
-0.070996039 -0.42394793 -0.67868882 126 112 129
-0.071748666 -0.42615753 -0.67880291 129 112 131
-0.072110325 -0.42740455 -0.67885971 131 113 132
-0.071934141 -0.42694676 -0.67883366 131 113 132
-0.071806096 -0.42651019 -0.67881358 130 113 131
-0.066382401 -0.42622235 -0.67812097 139 113 138
-0.065607429 -0.427102 -0.67804265 150 125 149
-0.065112017 -0.42471406 -0.67800093 141 114 144
-0.064623162 -0.42771754 -0.67794466 162 137 161
-0.064858645 -0.42678976 -0.67797035 155 129 155
-0.068198249 -0.42579633 -0.67832154 135 117 130
-0.067978621 -0.42469403 -0.67831403 137 123 134
-0.067419365 -0.42669162 -0.6782223 134 108 130
-0.067648739 -0.42486915 -0.67827505 137 121 135
-0.067336097 -0.42599699 -0.67822361 135 112 132
-0.060839485 -0.42419764 -0.67742956 163 146 154
-0.061476879 -0.42654374 -0.67758405 163 143 157
-0.061824366 -0.42645019 -0.67761523 163 143 157
-0.062498432 -0.4270941 -0.67770761 163 141 159
-0.061668027 -0.4256013 -0.67756671 163 144 157
-0.061642494 -0.42762509 -0.67764246 163 141 158
-0.063454069 -0.42492342 -0.67779452 153 129 153
-0.061877597 -0.42425433 -0.6775732 158 138 153
-0.062992103 -0.42562521 -0.6777271 159 137 156
-0.063898176 -0.42674327 -0.67785221 161 137 159
-0.064442143 -0.42545086 -0.67793292 151 124 153
-0.057389464 -0.42693385 -0.67745191 138 123 137
-0.058441989 -0.42696634 -0.67746621 146 129 142
-0.060322877 -0.42758644 -0.67752558 161 141 155
-0.057231445 -0.42550334 -0.67736435 139 122 129
-0.058005083 -0.42681035 -0.67745179 143 127 139
-0.059735499 -0.42688042 -0.67747724 157 138 149
-0.058680821 -0.42503354 -0.67737097 150 132 138
-0.059987489 -0.42684731 -0.67748427 159 140 151
-0.058474846 -0.42469364 -0.67735106 149 131 136
-0.05903805 -0.42505601 -0.67738366 152 135 141
-0.053718071 -0.42613897 -0.67728293 133 110 127
-0.05408204 -0.4266797 -0.67732537 135 113 128
-0.052939557 -0.42477959 -0.67718226 128 103 122
-0.053629074 -0.42762551 -0.67735088 143 118 129
-0.05293433 -0.42645022 -0.6772629 138 112 125
-0.056015182 -0.42687848 -0.67741895 130 115 133
-0.055189915 -0.42530227 -0.67729706 129 111 126
-0.055572599 -0.4241513 -0.67724085 132 114 121
-0.056370866 -0.42384851 -0.67724925 136 118 119
-0.05658133 -0.42474478 -0.67730993 135 119 123
-0.055262316 -0.42561686 -0.67731827 129 111 127
-0.051829427 -0.42769033 -0.67733812 145 118 127
-0.05245956 -0.42758125 -0.67730981 147 118 127
-0.051354062 -0.42651686 -0.67724347 145 118 129
-0.050452996 -0.42768243 -0.67737722 141 116 128
-0.049295425 -0.4258641 -0.67724264 140 116 131
-0.052120361 -0.42573828 -0.67721015 138 111 125
-0.052460887 -0.42428538 -0.677145 127 102 122
-0.050525811 -0.42539138 -0.67716932 143 117 130
-0.04973986 -0.42445636 -0.67711216 141 116 131
-0.051887546 -0.42422223 -0.67713326 129 105 124
-0.045174744 -0.42547297 -0.67726505 139 117 130
-0.047781318 -0.42758608 -0.67743933 135 113 128
-0.045045502 -0.42694339 -0.67743713 136 110 129
-0.046227973 -0.42625359 -0.6773271 138 116 130
-0.0480593 -0.42696634 -0.67736107 137 116 129
-0.046965696 -0.42459333 -0.6771459 141 120 132
-0.047736835 -0.42627117 -0.67729801 138 118 130
-0.04871919 -0.42521241 -0.67719638 139 117 132
-0.046432711 -0.42483097 -0.67716992 141 121 132
-0.045720361 -0.42437971 -0.677131 142 123 132
-0.041473981 -0.42542949 -0.6773628 131 114 125
-0.041523449 -0.42664254 -0.6775313 127 108 123
-0.042793691 -0.42694679 -0.67751658 130 108 125
-0.041525625 -0.42591619 -0.6774289 130 111 125
-0.041237615 -0.42497432 -0.67730933 133 115 126
-0.043858901 -0.42736545 -0.67752725 131 107 126
-0.044878706 -0.42755789 -0.67751163 134 107 128
-0.044147596 -0.42569384 -0.67731184 137 115 129
-0.044782214 -0.42496562 -0.67721617 140 119 131
-0.043533761 -0.42519009 -0.67726588 138 117 129
-0.042750154 -0.42412376 -0.67715859 139 121 129
-0.040644914 -0.42757815 -0.67769182 121 102 119
-0.038123153 -0.42599684 -0.67751789 122 93 111
-0.037938774 -0.42528144 -0.67743242 123 90 110
-0.038651049 -0.42674023 -0.67760438 121 96 113
-0.038480584 -0.42585501 -0.67749816 122 93 112
-0.038264152 -0.42681083 -0.6776157 121 96 111
-0.038925629 -0.42412853 -0.67725593 129 99 116
-0.040630098 -0.42448401 -0.67726064 133 114 124
-0.039669961 -0.42465708 -0.67731059 129 104 119
-0.039492123 -0.42544019 -0.67742556 125 99 117
-0.040149357 -0.42538536 -0.67740035 127 105 120
-0.03482803 -0.42741495 -0.67775583 112 79 104
-0.035016075 -0.42762411 -0.67777157 112 80 103
-0.033556595 -0.42773104 -0.67781389 105 67 99
-0.034052171 -0.42507797 -0.67755032 123 81 117
-0.034250993 -0.42757261 -0.67778355 109 73 102
-0.036982711 -0.42492262 -0.67740095 123 88 108
-0.035778917 -0.42399317 -0.67734605 125 82 113
-0.034591034 -0.42489195 -0.67751229 124 84 118
-0.035986889 -0.42477259 -0.67743069 124 85 112
-0.0354634 -0.42517534 -0.67750472 124 86 114
-0.030934012 -0.4276481 -0.67806351 105 75 95
-0.031543117 -0.42689043 -0.67792892 109 77 104
-0.031206556 -0.42753792 -0.67802376 105 74 97
-0.032557435 -0.42714295 -0.67784011 107 71 103
-0.031719625 -0.42624655 -0.67785203 113 81 111
-0.032931998 -0.42676318 -0.6777609 109 69 105
-0.030946925 -0.4249233 -0.67781538 121 92 121
-0.032524791 -0.42587164 -0.67772311 115 76 112
-0.030852912 -0.42438412 -0.67777485 124 95 124
-0.03148723 -0.42472503 -0.67773396 122 88 121
-0.076660722 -0.42948815 -0.67987734 129 116 136
-0.077285811 -0.42856029 -0.67996687 123 107 126
-0.076676965 -0.43107492 -0.6799708 137 129 151
-0.07462953 -0.4304086 -0.67951268 140 129 151
-0.074852489 -0.4305495 -0.67956734 140 130 152
-0.072994821 -0.429032 -0.67909694 136 120 141
-0.073392086 -0.43037969 -0.67924178 142 128 151
-0.073040269 -0.42967397 -0.67913461 140 124 146
-0.072951242 -0.42992315 -0.67912596 141 126 148
-0.072589263 -0.4280093 -0.6789636 132 114 134
-0.075590253 -0.42914096 -0.67963862 131 117 137
-0.073887005 -0.42775109 -0.67921209 128 109 129
-0.073075324 -0.42779663 -0.67904997 130 111 131
-0.074848622 -0.42869475 -0.67946213 130 115 135
-0.070914194 -0.431227 -0.67882794 151 135 156
-0.070717864 -0.43047792 -0.67877108 146 128 149
-0.069455013 -0.43158177 -0.67861575 155 144 159
-0.070064567 -0.43125367 -0.678698 152 139 156
-0.069414273 -0.43065205 -0.67857641 149 134 151
-0.071403414 -0.4302547 -0.67886472 144 126 148
-0.071097888 -0.42945838 -0.67878556 140 121 142
-0.071853958 -0.428581 -0.67885834 136 117 138
-0.071565911 -0.43084872 -0.67891419 147 130 153
-0.069837585 -0.42911941 -0.67858636 139 116 137
-0.066582464 -0.42992777 -0.67821413 161 145 161
-0.066768236 -0.43076578 -0.6782608 164 152 164
-0.065861076 -0.43104193 -0.6781795 171 162 170
-0.066229463 -0.42953584 -0.67816579 161 143 161
-0.064947464 -0.4313859 -0.67809975 179 172 176
-0.066421784 -0.42984495 -0.67819536 161 145 162
-0.065915518 -0.4283503 -0.67809296 156 133 154
-0.067622058 -0.42959437 -0.67830408 150 132 148
-0.065838769 -0.42806146 -0.67807513 154 130 152
-0.068356864 -0.42876536 -0.67834646 138 117 134
-0.067957878 -0.43063971 -0.67837411 154 141 154
-0.06058142 -0.42906174 -0.67762864 160 139 155
-0.060723398 -0.42840123 -0.67759359 162 142 157
-0.060716867 -0.43017706 -0.67771274 158 137 155
-0.061907396 -0.43052173 -0.67781484 167 150 163
-0.061600246 -0.43006274 -0.67776364 165 148 161
-0.061744176 -0.43116859 -0.67784762 164 146 161
-0.06430494 -0.43131685 -0.67803329 182 175 178
-0.063522816 -0.42968217 -0.6779002 173 159 170
-0.061259601 -0.42784262 -0.67761201 163 143 158
-0.062968239 -0.42944816 -0.67783684 172 158 168
-0.063553929 -0.4282372 -0.67785484 166 145 163
-0.057085052 -0.43156382 -0.67779994 126 108 127
-0.057324685 -0.43094996 -0.67774987 129 112 131
-0.059155747 -0.43113524 -0.67776161 143 123 144
-0.05699046 -0.42957047 -0.67763895 130 114 133
-0.057616077 -0.43101174 -0.67775434 132 113 133
-0.058626603 -0.4297075 -0.67764723 142 124 145
-0.057608195 -0.42856103 -0.67755806 137 121 141
-0.057536919 -0.42804083 -0.67752224 137 122 141
-0.058622163 -0.42776331 -0.67751628 147 130 147
-0.059845056 -0.43028527 -0.67770046 151 130 150
-0.054543212 -0.43118411 -0.67764497 137 119 132
-0.054522641 -0.43012795 -0.67757827 136 115 128
-0.05429592 -0.42985046 -0.67754662 138 115 128
-0.0545008 -0.43139365 -0.67765528 137 120 133
-0.055560827 -0.43112111 -0.67770594 130 111 127
-0.054615371 -0.42945829 -0.67753971 136 113 126
-0.055223797 -0.43018737 -0.67762595 132 110 125
-0.0537646 -0.42796442 -0.6773808 143 118 128
-0.05614141 -0.42829278 -0.67751384 132 116 133
-0.056062143 -0.42852852 -0.67752934 131 115 132
-0.055431176 -0.4284817 -0.67749727 134 116 131
-0.049888659 -0.42915776 -0.67746907 139 119 133
-0.05139685 -0.43033844 -0.67751431 145 127 138
-0.05021042 -0.43051073 -0.67749393 139 120 134
-0.049737353 -0.43048352 -0.67748451 137 118 132
-0.049615517 -0.43087459 -0.67748755 137 117 132
-0.050959866 -0.43025389 -0.67750478 143 125 137
-0.052186292 -0.42995492 -0.67746943 147 126 136
-0.052123427 -0.42935672 -0.67743421 146 124 134
-0.052729946 -0.43063608 -0.6774959 149 130 139
-0.052296013 -0.42974275 -0.6774531 147 126 135
-0.052675392 -0.43092725 -0.67751551 149 131 140
-0.046664927 -0.43008044 -0.67755663 133 111 130
-0.045749731 -0.42934224 -0.67758173 133 110 130
-0.047357392 -0.43065763 -0.67753917 133 111 130
-0.046371132 -0.42974988 -0.67755741 133 110 130
-0.047314357 -0.43123284 -0.67758793 133 113 132
-0.046507459 -0.42778 -0.67749023 134 110 128
-0.047016744 -0.42784882 -0.6774779 134 111 128
-0.048766229 -0.42943761 -0.67745417 134 113 129
-0.048569586 -0.43080088 -0.67747813 133 112 129
-0.047390688 -0.42921242 -0.67748696 134 110 129
-0.046574451 -0.4280383 -0.67749202 134 110 128
-0.041281052 -0.42854893 -0.67777342 121 103 121
-0.041933037 -0.42959929 -0.67783588 122 106 124
-0.043005358 -0.4311721 -0.67792261 125 110 129
-0.042486619 -0.42924336 -0.67776018 125 109 128
-0.04147863 -0.43006819 -0.67791623 120 103 121
-0.044714469 -0.42965886 -0.67769068 133 113 133
-0.043748464 -0.42810732 -0.67761332 130 107 127
-0.042459778 -0.42876425 -0.67772305 125 107 126
-0.044749536 -0.4293437 -0.67766446 133 112 132
-0.042877879 -0.42785087 -0.67763275 127 105 124
-0.04072699 -0.43135384 -0.67808348 116 98 116
-0.037504617 -0.42994758 -0.67799175 115 98 108
-0.039674729 -0.43093345 -0.67805821 116 98 113
-0.03817213 -0.4313525 -0.67814416 113 98 109
-0.037687439 -0.43125391 -0.67814386 113 98 108
-0.040663816 -0.43067124 -0.6780135 117 99 116
-0.04034413 -0.4297359 -0.67791933 118 100 116
-0.038639419 -0.42878255 -0.6778332 119 99 112
-0.039020225 -0.42777631 -0.67772669 120 100 114
-0.040032566 -0.42851815 -0.67779595 119 101 116
-0.034464017 -0.43015245 -0.67808896 104 77 99
-0.03506235 -0.42995763 -0.67804897 107 81 102
-0.035321821 -0.43095484 -0.67816597 106 84 101
-0.034269616 -0.43008456 -0.67808563 104 76 98
-0.035242349 -0.43033287 -0.67809087 107 83 102
-0.036762379 -0.42918921 -0.6779179 115 95 106
-0.036791045 -0.42870402 -0.67785919 116 95 107
-0.035742398 -0.42822093 -0.67782444 113 86 104
-0.035403337 -0.42822421 -0.67783225 112 83 103
-0.034154184 -0.42856655 -0.67790079 106 72 100
-0.035882179 -0.42883718 -0.67789513 112 87 104
-0.030749042 -0.42779621 -0.67809927 104 75 94
-0.030838333 -0.42865261 -0.67819577 103 77 93
-0.076547422 -0.43377927 -0.68003166 131 116 137
-0.073590867 -0.43510041 -0.67950511 137 119 134
-0.072453871 -0.43488559 -0.67928463 144 127 140
-0.075047456 -0.4353269 -0.67978448 129 108 127
-0.073387302 -0.43505579 -0.67946523 138 120 135
-0.072853066 -0.43437076 -0.6793257 143 125 142
-0.074798256 -0.43399158 -0.67966348 134 114 136
-0.074924096 -0.4322775 -0.67964655 142 130 153
-0.072921634 -0.431844 -0.6791991 149 134 157
-0.075818509 -0.43290043 -0.67985761 137 125 147
-0.074775554 -0.43364939 -0.67964971 135 118 139
-0.074416183 -0.43191171 -0.67952645 145 134 157
-0.070630625 -0.43451643 -0.67896873 148 133 147
-0.068471976 -0.43348625 -0.67855984 153 141 161
-0.069697879 -0.43495426 -0.67883611 148 133 154
-0.070346355 -0.43385461 -0.67888862 150 136 149
-0.068434507 -0.43443576 -0.67860103 151 138 162
-0.072134972 -0.43401596 -0.67917675 147 130 146
-0.070659213 -0.43265772 -0.67886585 152 139 154
-0.070994109 -0.43221995 -0.67889059 152 138 156
-0.070946515 -0.4326469 -0.67890948 151 138 154
-0.070636921 -0.43206975 -0.67882633 153 140 157
-0.064576402 -0.43290988 -0.67811936 175 166 170
-0.065533623 -0.43499234 -0.67830396 159 145 158
-0.066474549 -0.4337585 -0.67836529 165 154 170
-0.06623847 -0.43343374 -0.67832667 167 158 172
-0.066072531 -0.43348935 -0.67830992 167 158 171
-0.064884901 -0.43191546 -0.67811579 180 174 178
-0.065805502 -0.43203002 -0.67821348 174 167 173
-0.067930818 -0.43424335 -0.67853618 154 142 164
-0.06799145 -0.4340342 -0.67853177 154 142 164
-0.068021722 -0.43242675 -0.67845452 158 148 162
-0.067407094 -0.43269014 -0.6784063 161 152 165
-0.06119749 -0.43321821 -0.67793715 153 131 151
-0.0627141 -0.43470937 -0.67809129 154 136 149
-0.06289763 -0.4350256 -0.67812026 154 136 149
-0.061575413 -0.43521464 -0.67809868 151 132 148
-0.061951373 -0.4349241 -0.67808688 152 133 149
-0.063212015 -0.43306851 -0.67802894 164 149 160
-0.063432775 -0.43253487 -0.67802411 170 157 166
-0.063041039 -0.43181688 -0.67797178 171 159 168
-0.06430161 -0.43381974 -0.67812872 168 156 162
-0.062811166 -0.43340552 -0.6780147 159 141 155
-0.062347461 -0.4318043 -0.67792535 166 151 164
-0.057372633 -0.43380323 -0.67790323 134 113 133
-0.057395164 -0.43388864 -0.67790681 134 113 133
-0.056721747 -0.43534607 -0.67791969 140 114 136
-0.057391532 -0.43266109 -0.67787045 129 111 129
-0.057720739 -0.43502492 -0.67795473 140 117 138
-0.059053134 -0.43300179 -0.67790574 140 120 139
-0.057812575 -0.4321568 -0.67784393 131 113 131
-0.057960499 -0.43228623 -0.67785352 132 113 132
-0.0603639 -0.43535557 -0.67808181 146 127 145
-0.060272884 -0.4350577 -0.6780594 146 127 145
-0.054862663 -0.43493426 -0.67789024 144 124 142
-0.054350693 -0.43530327 -0.67794383 144 127 144
-0.053141885 -0.43370697 -0.67778659 147 133 146
-0.055527713 -0.43470261 -0.67784917 143 120 139
-0.053578105 -0.43318534 -0.67771715 147 130 143
-0.055294666 -0.43348297 -0.67777544 140 119 137
-0.056132182 -0.43319711 -0.67782038 133 113 131
-0.055341959 -0.43242288 -0.67774719 135 117 133
-0.055440925 -0.43416458 -0.67780483 142 120 138
-0.055699412 -0.43240318 -0.67776942 133 114 131
-0.049115837 -0.43233147 -0.67756593 133 111 130
-0.049328968 -0.43262058 -0.67760289 133 112 130
-0.048920322 -0.43428636 -0.67777646 128 100 121
-0.049666002 -0.43427902 -0.67779356 132 108 128
-0.048967291 -0.43512291 -0.67786968 126 96 118
-0.049717654 -0.43372911 -0.67773432 133 111 130
-0.051567513 -0.4334037 -0.67773825 143 128 142
-0.052089449 -0.43332234 -0.6777389 145 131 144
-0.050197277 -0.43264279 -0.67762446 138 120 136
-0.050051343 -0.43216485 -0.67756671 137 119 135
-0.049457163 -0.43205118 -0.67754227 135 115 132
-0.046434637 -0.43451825 -0.67797238 125 101 122
-0.044957917 -0.43519533 -0.67811143 122 99 118
-0.046396468 -0.43483374 -0.67799926 124 100 120
-0.045324072 -0.43487838 -0.6780653 123 101 120
-0.047040209 -0.43454331 -0.677939 126 100 122
-0.046820112 -0.43415755 -0.67792171 127 103 124
-0.046264451 -0.43288594 -0.67785174 131 111 132
-0.047174621 -0.43230152 -0.67770517 132 112 131
-0.046587821 -0.4327957 -0.67781258 131 110 131
-0.048637699 -0.43530583 -0.67790365 125 94 117
-0.046125241 -0.43278813 -0.67785352 131 111 132
-0.041241039 -0.43331239 -0.67822456 112 91 108
-0.041754719 -0.43408903 -0.67824882 112 90 106
-0.043378778 -0.43487492 -0.67819649 116 93 111
-0.04195847 -0.43338698 -0.67818034 114 94 112
-0.042302988 -0.43479091 -0.67826492 112 89 105
-0.04395359 -0.43265492 -0.67798334 126 109 128
-0.044524956 -0.43295753 -0.67796677 127 110 129
-0.04330558 -0.43378532 -0.67811728 119 99 117
-0.043772727 -0.43320194 -0.67803878 123 105 123
-0.043257426 -0.43346828 -0.67809588 120 100 118
-0.037852749 -0.43484929 -0.67847282 104 86 95
-0.039477937 -0.43480507 -0.67840463 105 84 96
-0.037197053 -0.4345457 -0.67847049 105 88 96
-0.037798129 -0.43452847 -0.67844516 105 87 96
-0.039091017 -0.43274486 -0.67824221 110 92 105
-0.040715501 -0.43461633 -0.67834818 107 83 98
-0.039176539 -0.43270212 -0.67823678 111 93 106
-0.038966011 -0.43203256 -0.67819005 112 96 109
-0.040679559 -0.43190524 -0.67813945 114 97 114
-0.035949573 -0.43479323 -0.67855954 102 83 93
-0.036194004 -0.4349452 -0.67855984 102 84 93
-0.035795622 -0.43231046 -0.67830086 105 87 99
-0.036952514 -0.43404606 -0.67843163 105 89 97
-0.036454547 -0.43420056 -0.67845911 103 85 95
-0.035230026 -0.43221623 -0.678307 103 84 97
-0.075592242 -0.4369438 -0.67994988 122 98 125
-0.074464746 -0.43793997 -0.67978561 129 102 131
-0.075859658 -0.43832844 -0.68004644 114 90 126
-0.074995287 -0.43710491 -0.67984992 127 102 127
-0.073781222 -0.43877509 -0.67969418 131 103 135
-0.075157955 -0.43564078 -0.67982197 128 107 125
-0.074974723 -0.43611413 -0.67980784 129 106 126
-0.074682437 -0.43565702 -0.67973596 130 110 127
-0.073010072 -0.43659312 -0.67946917 139 118 135
-0.07315474 -0.43820101 -0.67956102 138 110 136
-0.070318282 -0.43819204 -0.67907804 150 129 155
-0.070562713 -0.43931511 -0.67916667 155 136 158
-0.070978925 -0.43838075 -0.67919379 146 121 150
-0.069436349 -0.43762255 -0.67890966 153 137 162
-0.068609908 -0.4383626 -0.67880738 164 156 173
-0.072169282 -0.43780667 -0.67936695 143 118 140
-0.071181715 -0.43771556 -0.6791997 144 120 147
-0.072260715 -0.43736631 -0.6793642 143 120 139
-0.0697698 -0.43655056 -0.67891848 146 127 155
-0.072050519 -0.43626127 -0.67928439 144 124 140
-0.065401606 -0.43749577 -0.6784395 153 142 157
-0.066381685 -0.43837669 -0.67858422 158 150 165
-0.066260085 -0.4383924 -0.67857736 156 149 164
-0.064774193 -0.43866879 -0.67850113 137 127 153
-0.064854689 -0.4368453 -0.67834455 152 139 153
-0.067938782 -0.43900838 -0.67874706 171 167 176
-0.06738022 -0.43620405 -0.67856181 155 142 163
-0.068240829 -0.43742314 -0.67871225 160 152 171
-0.066995755 -0.43643564 -0.67852837 157 145 162
-0.064922243 -0.4355787 -0.67825651 157 141 151
-0.062956698 -0.43852258 -0.67841184 132 116 145
-0.060671009 -0.43737507 -0.67821991 139 112 133
-0.061030384 -0.43695286 -0.67821133 141 118 140
-0.062465746 -0.43917269 -0.67842823 129 107 135
-0.061121661 -0.4377566 -0.67826772 137 111 134
-0.063994035 -0.43811744 -0.67841786 137 124 150
-0.063173071 -0.43755892 -0.67834604 139 125 150
-0.063818306 -0.43707323 -0.67832035 144 130 150
-0.063496917 -0.43773267 -0.67837024 138 125 150
-0.063769072 -0.43630451 -0.67825073 150 135 149
-0.061556544 -0.43603078 -0.67816633 146 129 148
-0.056743436 -0.43740511 -0.67804599 133 110 131
-0.057953618 -0.43706384 -0.67807794 136 106 129
-0.057873748 -0.43800494 -0.67813486 132 104 126
-0.05716287 -0.43729022 -0.67805725 134 109 130
-0.056945901 -0.43878138 -0.67814344 128 106 127
-0.058281939 -0.43619332 -0.67803663 140 114 135
-0.058738101 -0.43661952 -0.67808431 139 112 133
-0.057641987 -0.43567196 -0.67797464 142 117 138
-0.060016681 -0.43768582 -0.67820984 136 106 128
-0.057725988 -0.43602803 -0.67800128 140 114 135
-0.052758738 -0.43875977 -0.67824394 121 101 124
-0.053093251 -0.43747208 -0.67813814 132 116 135
-0.052930754 -0.43821108 -0.67819792 126 108 129
-0.053647291 -0.43737164 -0.67811328 134 119 137
-0.052794147 -0.43797117 -0.67818445 127 110 131
-0.056115884 -0.43852493 -0.67812479 130 111 130
-0.055637073 -0.43826237 -0.67811829 132 114 132
-0.05635323 -0.43669748 -0.67800224 137 113 134
-0.056554817 -0.43615884 -0.67796326 138 114 135
-0.055952746 -0.43802768 -0.67809635 132 113 132
-0.050153159 -0.43909061 -0.67833376 112 90 109
-0.049394544 -0.43704298 -0.67809039 119 91 113
-0.051047597 -0.43903393 -0.67829674 114 91 113
-0.049960643 -0.43934977 -0.67837405 110 89 107
-0.049262911 -0.43831798 -0.67826188 113 90 107
-0.049480692 -0.43571192 -0.67794091 127 98 120
-0.052184489 -0.43860331 -0.67821991 119 97 121
-0.051830832 -0.43853444 -0.67820632 118 93 118
-0.051043913 -0.4362599 -0.67801911 131 110 130
-0.052717187 -0.43883881 -0.67825013 120 100 123
-0.050483014 -0.43628901 -0.67800778 128 103 124
-0.04519023 -0.43685636 -0.67826736 114 91 107
-0.045960359 -0.43779314 -0.67834049 111 88 103
-0.045738444 -0.43725777 -0.67829221 113 90 106
-0.0465785 -0.43773031 -0.67831558 112 90 106
-0.047841355 -0.43918684 -0.67842728 107 86 100
-0.04507364 -0.43663791 -0.67824847 115 92 108
-0.046560559 -0.43698877 -0.67823434 116 94 110
-0.048746035 -0.43612254 -0.67799324 122 92 113
-0.047374271 -0.43741298 -0.6782425 115 92 109
-0.046127439 -0.43650475 -0.67819619 118 95 112
-0.047990065 -0.43790698 -0.67827129 113 91 107
-0.047433909 -0.43691671 -0.6781739 117 93 111
-0.041942801 -0.43892571 -0.67869216 108 89 96
-0.041187741 -0.43632126 -0.67847973 105 81 94
-0.042769358 -0.43807772 -0.67854971 104 80 91
-0.044451885 -0.43923435 -0.67855197 101 76 87
-0.041523907 -0.43612561 -0.67843693 104 78 93
-0.042600952 -0.43580881 -0.67832947 110 85 100
-0.042756297 -0.43650779 -0.67839044 107 81 96
-0.042231049 -0.43665835 -0.67844242 104 78 92
-0.043773308 -0.4359225 -0.67825949 114 90 106
-0.044187475 -0.43817016 -0.67846149 104 78 91
-0.039902538 -0.4372043 -0.67862487 107 88 96
-0.038515013 -0.43685132 -0.67864382 106 89 95
-0.040441383 -0.43581486 -0.6784628 105 81 94
-0.039423216 -0.43655971 -0.67857844 105 86 95
-0.038921021 -0.43666482 -0.67860889 105 87 95
-0.074516296 -0.44159976 -0.67996377 115 93 123
-0.073447004 -0.44117233 -0.67975146 126 102 129
-0.074254453 -0.44027743 -0.67984635 122 96 130
-0.074407145 -0.44104069 -0.67991441 118 94 126
-0.075052515 -0.44010004 -0.67997813 115 90 128
-0.07263007 -0.44124711 -0.67963135 129 106 134
-0.072998621 -0.44110563 -0.67967612 129 104 132
-0.068436287 -0.43983614 -0.67886102 168 164 175
-0.070849113 -0.43948293 -0.67922145 153 133 155
-0.071392827 -0.43981507 -0.67933357 147 124 149
-0.071514942 -0.43981421 -0.6793533 146 122 148
-0.071004823 -0.44020954 -0.67929834 147 129 152
-0.072036937 -0.43989497 -0.67944402 141 114 143
-0.065419622 -0.44314122 -0.67893398 134 120 148
-0.065268859 -0.44258177 -0.67887521 133 120 149
-0.065800473 -0.44224688 -0.67888916 131 117 147
-0.064769007 -0.44247377 -0.67882681 133 122 150
-0.06670022 -0.44222611 -0.67895836 130 113 145
-0.068231791 -0.44073412 -0.67892671 157 148 166
-0.067846544 -0.44157714 -0.67898041 144 129 155
-0.065981202 -0.4397817 -0.67868382 142 133 159
-0.067913547 -0.44208443 -0.67903304 139 122 150
-0.064906783 -0.43948701 -0.67858303 132 123 154
-0.061404601 -0.4424403 -0.67866272 138 117 130
-0.06311509 -0.44326699 -0.67881155 138 124 143
-0.060831361 -0.44012275 -0.67842162 130 97 119
-0.061143387 -0.44227207 -0.67863601 138 115 128
-0.060637388 -0.44069511 -0.67846715 133 102 119
-0.064166978 -0.44051492 -0.67862308 130 117 149
-0.061185978 -0.43951455 -0.6783852 128 96 121
-0.063856885 -0.43957198 -0.67852813 128 114 146
-0.064373255 -0.4405005 -0.67863256 130 119 150
-0.063839063 -0.44053513 -0.67860782 130 115 145
-0.057750307 -0.44240934 -0.67851931 128 107 117
-0.057404995 -0.44286209 -0.67855489 126 103 113
-0.058647778 -0.44318148 -0.67863029 133 111 119
-0.059642486 -0.4433302 -0.67867947 138 118 124
-0.058768883 -0.4426465 -0.6785785 134 113 122
-0.059495091 -0.44189402 -0.6785289 137 116 126
-0.058233727 -0.44096383 -0.6783855 133 113 126
-0.060118139 -0.44113949 -0.67848593 135 107 122
-0.060196046 -0.44118449 -0.67849362 135 107 122
-0.058075719 -0.43982792 -0.67827207 128 104 123
-0.052978702 -0.44304124 -0.6786648 112 94 108
-0.054260381 -0.44131207 -0.67844236 117 95 113
-0.053668965 -0.44307721 -0.6786465 113 94 108
-0.054046907 -0.44271559 -0.67859644 115 95 109
-0.05513024 -0.4430466 -0.67859656 117 95 108
-0.055534571 -0.44134566 -0.67840552 120 98 114
-0.056074761 -0.44026142 -0.67827529 123 102 121
-0.052907061 -0.43961236 -0.67830724 116 94 118
-0.056061629 -0.44225648 -0.67848408 120 97 111
-0.05519389 -0.43991533 -0.67826682 121 100 121
-0.049329646 -0.44245934 -0.67869967 112 91 103
-0.051099949 -0.44278678 -0.6786896 111 92 105
-0.05014817 -0.44199419 -0.67863625 110 91 104
-0.05181795 -0.44263309 -0.67865819 110 92 106
-0.051827077 -0.44327363 -0.67871904 111 93 106
-0.052721217 -0.44167313 -0.6785295 113 93 112
-0.052252498 -0.44173002 -0.6785509 112 93 110
-0.049930196 -0.44042894 -0.67849106 109 89 104
-0.050805975 -0.43977958 -0.67839396 111 91 109
-0.052512836 -0.44227538 -0.67859954 111 93 110
-0.046964303 -0.44219652 -0.67877495 107 84 93
-0.045814898 -0.44188634 -0.67881918 103 79 87
-0.046208542 -0.44159818 -0.67874801 105 81 90
-0.045830607 -0.44144598 -0.6787554 103 79 88
-0.046319004 -0.44302523 -0.67894226 105 81 88
-0.045092046 -0.44232324 -0.67893678 100 76 81
-0.045850955 -0.4395923 -0.67852741 102 78 89
-0.048637498 -0.44037679 -0.67851865 109 88 101
-0.047670189 -0.44135615 -0.67864096 108 86 97
-0.047631696 -0.44196406 -0.67870003 109 87 97
-0.047508448 -0.44046214 -0.67856067 107 84 96
-0.042466994 -0.44144279 -0.67898911 104 84 91
-0.04254178 -0.44225749 -0.67909497 100 78 89
-0.041375171 -0.44266748 -0.67922294 96 72 92
-0.04156414 -0.44186413 -0.67910218 100 79 93
-0.042094696 -0.44301951 -0.6792261 95 71 89
-0.044558752 -0.43967292 -0.67859811 101 77 87
-0.044538416 -0.44070721 -0.6787464 101 77 85
-0.04459095 -0.44041762 -0.6787017 101 77 85
-0.044252053 -0.43960196 -0.67860895 102 78 88
-0.042335339 -0.44075105 -0.67890322 107 89 93
-0.043662846 -0.44112733 -0.67886597 104 82 87
-0.038415261 -0.44235781 -0.67928392 106 86 107
-0.037612945 -0.44205397 -0.67926747 111 92 112
-0.038590081 -0.44178113 -0.67921275 108 88 107
-0.03931402 -0.44259956 -0.67929083 102 79 102
-0.037608322 -0.44252402 -0.67932224 108 89 111
-0.039449163 -0.44281033 -0.67931211 100 77 101
-0.039199844 -0.4407708 -0.67906588 111 92 106
-0.038557481 -0.44073087 -0.67908812 113 95 110
-0.039170004 -0.44075307 -0.67906481 111 92 106
-0.035620082 -0.44196996 -0.67946273 110 91 109
-0.035964791 -0.4432252 -0.6795947 106 86 108
-0.035395231 -0.44236478 -0.67955768 108 89 107
-0.065450661 -0.44442329 -0.67905509 134 120 146
-0.067065433 -0.44682166 -0.67940861 132 105 134
-0.065663062 -0.44647524 -0.67926478 133 97 132
-0.066251025 -0.44677755 -0.67933983 132 99 132
-0.06451121 -0.44554105 -0.67908555 134 99 135
-0.066988081 -0.44574037 -0.67930079 133 115 141
-0.065080091 -0.44397148 -0.67898327 135 122 148
-0.067020677 -0.44538283 -0.67926955 133 115 141
-0.066857152 -0.44445443 -0.67916906 133 115 143
-0.066040784 -0.44398439 -0.67906028 134 118 146
-0.062273059 -0.4457683 -0.67899388 136 101 129
-0.061118957 -0.44488955 -0.67885613 138 114 132
-0.062903412 -0.44715726 -0.67913121 132 91 132
-0.061427735 -0.44553849 -0.67892128 136 110 134
-0.060634408 -0.44597059 -0.67889738 134 115 141
-0.061322175 -0.4462643 -0.67896378 134 108 138
-0.062013365 -0.4441019 -0.67884398 140 116 131
-0.063133731 -0.44577044 -0.67904752 136 95 125
-0.061334684 -0.44376671 -0.67878419 142 120 130
-0.064210676 -0.44381914 -0.67890906 136 119 146
-0.064192854 -0.44404271 -0.67892939 136 116 144
-0.058431845 -0.44567907 -0.67881036 127 106 129
-0.05678267 -0.44389734 -0.67863029 123 99 111
-0.057922877 -0.44466549 -0.67871404 124 102 120
-0.056752168 -0.44507608 -0.67873335 128 104 118
-0.057078153 -0.44605774 -0.67882419 131 109 126
-0.060028426 -0.44650269 -0.67891032 129 110 142
-0.057469938 -0.44397116 -0.67865086 123 100 114
-0.060044199 -0.44446224 -0.67877138 137 117 131
-0.059644092 -0.44591305 -0.67885703 129 110 136
-0.058483772 -0.44394079 -0.67868304 129 108 120
-0.06032978 -0.44610584 -0.67889339 132 114 141
-0.05348869 -0.44585395 -0.67891157 116 98 113
